# .PCD v.7 - Point Cloud Data file format
FIELDS x y z rgb imX imY
SIZE 4 4 4 4 4 4
TYPE F F F F F F
COUNT 1 1 1 1 1 1
WIDTH 834
HEIGHT 1
VIEWPOINT 0 0 0 1 0 0 0
POINTS 834
DATA ascii
-0.006408433 0.73100001 -0.014098554 8.0984499e-39 315 251
-0.0051267464 0.73100001 -0.014098554 8.0033873e-39 316 251
-0.00384506 0.73100001 -0.014098554 8.7409523e-39 317 251
-0.0025633732 0.73100001 -0.014098554 8.747083e-39 318 251
-0.0153592 0.73000002 -0.0153592 8.7427249e-39 308 252
-0.014079267 0.73000002 -0.0153592 8.3739424e-39 309 252
-0.012764266 0.72799999 -0.01531712 8.7394585e-39 310 252
-0.01148784 0.72799999 -0.01531712 8.0018935e-39 311 252
-0.010211413 0.72799999 -0.01531712 7.8146268e-39 312 252
-0.0089349858 0.72799999 -0.01531712 7.3540143e-39 313 252
-0.0076585598 0.72799999 -0.01531712 6.6182542e-39 314 252
-0.0063996664 0.73000002 -0.0153592 6.8951956e-39 315 252
-0.0051197335 0.73000002 -0.0153592 6.7986966e-39 316 252
-0.0038292799 0.72799999 -0.01531712 5.9693073e-39 317 252
-0.0025528532 0.72799999 -0.01531712 4.5917748e-39 318 252
-0.0012764266 0.72799999 -0.01531712 5.6963245e-39 319 252
-0.019277899 0.73299998 -0.016707512 7.5571676e-39 305 253
-0.017869972 0.72799999 -0.016593546 9.7594132e-39 306 253
-0.016593546 0.72799999 -0.016593546 9.2987952e-39 307 253
-0.01531712 0.72799999 -0.016593546 9.3870252e-39 308 253
-0.014040692 0.72799999 -0.016593546 8.8338514e-39 309 253
-0.012764266 0.72799999 -0.016593546 8.5554428e-39 310 253
-0.01147206 0.727 -0.016570752 6.8037272e-39 311 253
-0.010197386 0.727 -0.016570752 5.6019653e-39 312 253
-0.0089227129 0.727 -0.016570752 6.6161018e-39 313 253
-0.0076585598 0.72799999 -0.016593546 8.5568917e-39 314 253
-0.0063821329 0.72799999 -0.016593546 1.2244717e-38 315 253
-0.0051057064 0.72799999 -0.016593546 1.2797536e-38 316 253
-0.0038292799 0.72799999 -0.016593546 1.1230212e-38 317 253
-0.0025493465 0.727 -0.016570752 9.5685353e-39 318 253
-0.0012746733 0.727 -0.016570752 8.6469392e-39 319 253
0 0.73000002 -0.016639132 7.6353236e-39 320 253
-0.020563092 0.73299998 -0.017992707 9.2145309e-39 304 254
-0.019277899 0.73299998 -0.017992707 8.2000189e-39 305 254
-0.017869972 0.72799999 -0.017869972 9.7568993e-39 306 254
-0.016593546 0.72799999 -0.017869972 9.2959211e-39 307 254
-0.01531712 0.72799999 -0.017869972 8.8338514e-39 308 254
-0.014040692 0.72799999 -0.017869972 8.8338514e-39 309 254
-0.012746733 0.727 -0.017845426 1.1682554e-38 310 254
-0.01147206 0.727 -0.017845426 1.2604512e-38 311 254
-0.010197386 0.727 -0.017845426 5.8154951e-39 312 254
-0.0089227129 0.727 -0.017845426 7.0140383e-39 313 254
-0.0076270006 0.72500002 -0.017796334 1.2694928e-38 314 254
-0.0063558333 0.72500002 -0.017796334 1.2879319e-38 315 254
-0.0050846669 0.72500002 -0.017796334 1.1696228e-38 316 254
-0.0038240198 0.727 -0.017845426 1.1143054e-38 317 254
-0.0025493465 0.727 -0.017845426 9.8487026e-39 318 254
-0.0012746733 0.727 -0.017845426 8.742355e-39 319 254
0 0.72799999 -0.017869972 8.4682862e-39 320 254
0.0012799334 0.73000002 -0.017919067 7.3619387e-39 321 254
0.0025598668 0.73000002 -0.017919067 6.3463602e-39 322 254
0.0038397999 0.73000002 -0.017919067 4.0414793e-39 323 254
-0.021669446 0.727 -0.019120099 1.05078e-38 303 255
-0.020422826 0.72799999 -0.0191464 9.4878682e-39 304 255
-0.0191464 0.72799999 -0.0191464 8.2896837e-39 305 255
-0.017845426 0.727 -0.019120099 9.7558035e-39 306 255
-0.016570752 0.727 -0.019120099 9.2026297e-39 307 255
-0.015296079 0.727 -0.019120099 9.0178853e-39 308 255
-0.013982833 0.72500002 -0.0190675 1.0677408e-38 309 255
-0.012711667 0.72500002 -0.0190675 1.4645807e-38 310 255
-0.0114405 0.72500002 -0.0190675 1.8425469e-38 311 255
-0.010169334 0.72500002 -0.0190675 1.5310981e-38 312 255
-0.0088736191 0.72299999 -0.019014901 1.5864153e-38 313 255
-0.0076059597 0.72299999 -0.019014901 1.5104612e-38 314 255
-0.0063558333 0.72500002 -0.0190675 7.1757874e-39 315 255
-0.0050846669 0.72500002 -0.0190675 7.8225665e-39 316 255
-0.0038135003 0.72500002 -0.0190675 8.8367184e-39 317 255
-0.0025423334 0.72500002 -0.0190675 9.1097096e-39 318 255
-0.0012711667 0.72500002 -0.0190675 8.9253183e-39 319 255
0 0.72500002 -0.0190675 8.3746515e-39 320 255
0.0012746733 0.727 -0.019120099 8.2820971e-39 321 255
0.0025528532 0.72799999 -0.0191464 8.0062361e-39 322 255
0.0038397999 0.73000002 -0.019199001 7.7296478e-39 323 255
0.0051267464 0.73100001 -0.019225299 6.440023e-39 324 255
-0.021669446 0.727 -0.020394772 8.0210226e-39 303 256
-0.020394772 0.727 -0.020394772 9.3902608e-39 304 256
-0.019120099 0.727 -0.020394772 8.4686646e-39 305 256
-0.017796334 0.72500002 -0.020338668 8.8331213e-39 306 256
-0.016525166 0.72500002 -0.020338668 8.5568945e-39 307 256
-0.015211919 0.72299999 -0.020282559 8.7413026e-39 308 256
-0.01394426 0.72299999 -0.020282559 1.0032041e-38 309 256
-0.012676599 0.72299999 -0.020282559 1.1602652e-38 310 256
-0.01140894 0.72299999 -0.020282559 1.3814987e-38 311 256
-0.01014128 0.72299999 -0.020282559 1.381788e-38 312 256
-0.0088613462 0.722 -0.020254506 1.4186662e-38 313 256
-0.0075954394 0.722 -0.020254506 1.0231542e-38 314 256
-0.0063295332 0.722 -0.020254506 3.7782061e-39 315 256
-0.0050636264 0.722 -0.020254506 7.5416608e-39 316 256
-0.0038029798 0.72299999 -0.020282559 8.8323996e-39 317 256
-0.0025353199 0.72299999 -0.020282559 8.7405725e-39 318 256
-0.0012676599 0.72299999 -0.020282559 8.5565414e-39 319 256
0 0.72299999 -0.020282559 8.1899015e-39 320 256
0.0012711667 0.72500002 -0.020338668 8.0977059e-39 321 256
0.0025493465 0.727 -0.020394772 7.8218448e-39 322 256
0.0038292799 0.72799999 -0.020422826 7.9140405e-39 323 256
0.0051197335 0.73000002 -0.020478934 7.2708347e-39 324 256
0.006408433 0.73100001 -0.020506985 4.5049658e-39 325 256
-0.021609833 0.72500002 -0.021609833 7.5524634e-39 303 257
-0.020338668 0.72500002 -0.021609833 7.6396144e-39 304 257
-0.019014901 0.72299999 -0.021550218 6.994245e-39 305 257
-0.017747238 0.72299999 -0.021550218 6.3492539e-39 306 257
-0.01647958 0.72299999 -0.021550218 6.2570583e-39 307 257
-0.015211919 0.72299999 -0.021550218 6.443267e-39 308 257
-0.013924973 0.722 -0.021520413 7.0886364e-39 309 257
-0.012659066 0.722 -0.021520413 6.6301974e-39 310 257
-0.01139316 0.722 -0.021520413 6.9986212e-39 311 257
-0.010099201 0.72000003 -0.021460801 9.0182805e-39 312 257
-0.0088367993 0.72000003 -0.021460801 7.8197373e-39 313 257
-0.0075743999 0.72000003 -0.021460801 6.1652004e-39 314 257
-0.0063120001 0.72000003 -0.021460801 5.7960577e-39 315 257
-0.0050636264 0.722 -0.021520413 7.7260325e-39 316 257
-0.0037977197 0.722 -0.021520413 7.7260325e-39 317 257
-0.0025318132 0.722 -0.021520413 8.1884553e-39 318 257
-0.0012659066 0.722 -0.021520413 8.4650436e-39 319 257
0 0.722 -0.021520413 8.005506e-39 320 257
0.0012676599 0.72299999 -0.021550218 7.9133104e-39 321 257
0.0025423334 0.72500002 -0.021609833 7.4541343e-39 322 257
0.0038240198 0.727 -0.021669446 7.5463299e-39 323 257
0.0051197335 0.73000002 -0.021758866 7.4563049e-39 324 257
0.006408433 0.73100001 -0.021788673 5.6123923e-39 325 257
0.00769012 0.73100001 -0.021788673 5.6163748e-39 326 257
-0.021520413 0.722 -0.022786319 9.8566507e-39 303 258
-0.020198401 0.72000003 -0.022723202 9.8624171e-39 304 258
-0.018935999 0.72000003 -0.022723202 1.0415232e-38 305 258
-0.017673599 0.72000003 -0.022723202 1.0416681e-38 306 258
-0.016456785 0.722 -0.022786319 1.0969855e-38 307 258
-0.0151488 0.72000003 -0.022723202 1.1249687e-38 308 258
-0.0138864 0.72000003 -0.022723202 1.1802502e-38 309 258
-0.012624 0.72000003 -0.022723202 1.1895773e-38 310 258
-0.01134582 0.71899998 -0.022691639 1.1711741e-38 311 258
-0.010085173 0.71899998 -0.022691639 1.2994549e-38 312 258
-0.0088245263 0.71899998 -0.022691639 1.2164428e-38 313 258
-0.0075638802 0.71899998 -0.022691639 1.1702346e-38 314 258
-0.0063032326 0.71899998 -0.022691639 1.0964781e-38 315 258
-0.0050425865 0.71899998 -0.022691639 1.0034164e-38 316 258
-0.0037819401 0.71899998 -0.022691639 7.3604897e-39 317 258
-0.0025248001 0.72000003 -0.022723202 6.8069502e-39 318 258
-0.0012624001 0.72000003 -0.022723202 7.360124e-39 319 258
0 0.722 -0.022786319 7.5463299e-39 320 258
0.0012659066 0.722 -0.022786319 7.4541343e-39 321 258
0.0025353199 0.72299999 -0.02281788 7.3623044e-39 322 258
0.0038135003 0.72500002 -0.022880999 7.3623044e-39 323 258
0.0051057064 0.72799999 -0.022975679 7.0889475e-39 324 258
0.0063996664 0.73000002 -0.023038799 5.5212631e-39 325 258
0.0076795998 0.73000002 -0.023038799 4.8791559e-39 326 258
-0.025248 0.72000003 -0.0239856 7.1808068e-39 300 259
-0.0239856 0.72000003 -0.0239856 7.5499495e-39 301 259
-0.022723202 0.72000003 -0.0239856 8.8461155e-39 302 259
-0.021430992 0.71899998 -0.023952285 1.2349189e-38 303 259
-0.020170346 0.71899998 -0.023952285 1.2815581e-38 304 259
-0.018909698 0.71899998 -0.023952285 1.3645341e-38 305 259
-0.017649053 0.71899998 -0.023952285 1.4383985e-38 306 259
-0.0164112 0.72000003 -0.0239856 1.512155e-38 307 259
-0.0151488 0.72000003 -0.0239856 1.539886e-38 308 259
-0.013867113 0.71899998 -0.023952285 1.5767283e-38 309 259
-0.012606465 0.71899998 -0.023952285 1.6044583e-38 310 259
-0.01131426 0.71700001 -0.02388566 1.6044583e-38 311 259
-0.01005712 0.71700001 -0.02388566 1.6503389e-38 312 259
-0.0087999795 0.71700001 -0.02388566 1.6503389e-38 313 259
-0.0075428397 0.71700001 -0.02388566 1.6040598e-38 314 259
-0.0062857 0.71700001 -0.02388566 1.4380716e-38 315 259
-0.0050285598 0.71700001 -0.02388566 1.2993788e-38 316 259
-0.0037714199 0.71700001 -0.02388566 9.6747454e-39 317 259
-0.0025212932 0.71899998 -0.023952285 8.2835068e-39 318 259
-0.0012606466 0.71899998 -0.023952285 6.6236352e-39 319 259
0 0.72000003 -0.0239856 6.8998661e-39 320 259
0.0012659066 0.722 -0.024052227 7.3608429e-39 321 259
0.0025318132 0.722 -0.024052227 7.178995e-39 322 259
0.0037977197 0.722 -0.024052227 7.178995e-39 323 259
0.0050846669 0.72500002 -0.024152167 6.629061e-39 324 259
0.0063821329 0.72799999 -0.024252106 5.0617367e-39 325 259
0.0076585598 0.72799999 -0.024252106 4.4135128e-39 326 259
-0.026510401 0.72000003 -0.025248 5.6170937e-39 299 260
-0.025212931 0.71899998 -0.025212931 5.9862349e-39 300 260
-0.023952285 0.71899998 -0.025212931 1.1978952e-38 301 260
-0.022691639 0.71899998 -0.025212931 1.3463103e-38 302 260
-0.021371379 0.71700001 -0.0251428 1.5583602e-38 303 260
-0.020114239 0.71700001 -0.0251428 1.5491778e-38 304 260
-0.018857099 0.71700001 -0.0251428 1.5215192e-38 305 260
-0.017599959 0.71700001 -0.0251428 1.5857671e-38 306 260
-0.016388407 0.71899998 -0.025212931 1.5672919e-38 307 260
-0.015085679 0.71700001 -0.0251428 1.5304494e-38 308 260
-0.013828539 0.71700001 -0.0251428 1.539669e-38 309 260
-0.012553867 0.71600002 -0.025107734 1.512262e-38 310 260
-0.01129848 0.71600002 -0.025107734 1.5214815e-38 311 260
-0.01001504 0.71399999 -0.025037598 1.5675072e-38 312 260
-0.0087631596 0.71399999 -0.025037598 1.6044213e-38 313 260
-0.00753232 0.71600002 -0.025107734 1.6044566e-38 314 260
-0.0062857 0.71700001 -0.0251428 1.5767621e-38 315 260
-0.0050285598 0.71700001 -0.0251428 1.5855132e-38 316 260
-0.0037714199 0.71700001 -0.0251428 1.5117565e-38 317 260
-0.0025142799 0.71700001 -0.0251428 1.3822858e-38 318 260
-0.0012606466 0.71899998 -0.025212931 1.124138e-38 319 260
0 0.71899998 -0.025212931 8.4661409e-39 320 260
0.0012624001 0.72000003 -0.025248 7.7285758e-39 321 260
0.0025318132 0.722 -0.025318133 6.8130865e-39 322 260
0.0037977197 0.722 -0.025318133 6.6283365e-39 323 260
0.0050846669 0.72500002 -0.025423333 6.6276177e-39 324 260
0.0063558333 0.72500002 -0.025423333 5.2446832e-39 325 260
0.0076270006 0.72500002 -0.025423333 4.5067833e-39 326 260
0.0088981669 0.72500002 -0.025423333 1.2435607e-38 327 260
-0.027734226 0.71899998 -0.02647358 6.0773362e-39 298 261
-0.02647358 0.71899998 -0.02647358 6.9070968e-39 299 261
-0.025212931 0.71899998 -0.02647358 8.2954389e-39 300 261
-0.023952285 0.71899998 -0.02647358 1.4103764e-38 301 261
-0.022691639 0.71899998 -0.02647358 1.5577484e-38 302 261
-0.021371379 0.71700001 -0.02639994 1.5670038e-38 303 261
-0.020114239 0.71700001 -0.02639994 1.5116866e-38 304 261
-0.0188308 0.71600002 -0.026363119 1.4563692e-38 305 261
-0.017575413 0.71600002 -0.026363119 1.4560796e-38 306 261
-0.016342819 0.71700001 -0.02639994 1.3823231e-38 307 261
-0.015085679 0.71700001 -0.02639994 1.3268611e-38 308 261
-0.013809253 0.71600002 -0.026363119 1.2992025e-38 309 261
-0.012553867 0.71600002 -0.026363119 1.2348824e-38 310 261
-0.01129848 0.71600002 -0.026363119 1.28098e-38 311 261
-0.010001013 0.713 -0.026252659 1.3454454e-38 312 261
-0.0087508867 0.713 -0.026252659 1.3822877e-38 313 261
-0.0075007593 0.713 -0.026252659 1.392119e-38 314 261
-0.0062769335 0.71600002 -0.026363119 1.4935342e-38 315 261
-0.0050215465 0.71600002 -0.026363119 1.548672e-38 316 261
-0.00376616 0.71600002 -0.026363119 1.548672e-38 317 261
-0.0025107733 0.71600002 -0.026363119 1.5117935e-38 318 261
-0.0012553866 0.71600002 -0.026363119 1.3919392e-38 319 261
0 0.71700001 -0.02639994 1.0775716e-38 320 261
0.0012606466 0.71899998 -0.02647358 7.2722836e-39 321 261
0.0025248001 0.72000003 -0.026510401 6.1673612e-39 322 261
0.0037977197 0.722 -0.026584039 6.4439481e-39 323 261
0.0050636264 0.722 -0.026584039 6.3524755e-39 324 261
0.0063382997 0.72299999 -0.026620859 5.7071061e-39 325 261
0.0076059597 0.72299999 -0.026620859 5.8879198e-39 326 261
0.0088736191 0.72299999 -0.026620859 1.178844e-38 327 261
0.01014128 0.72299999 -0.026620859 1.3738598e-38 328 261
-0.027734226 0.71899998 -0.027734226 7.2708571e-39 298 262
-0.02647358 0.71899998 -0.027734226 1.3447964e-38 299 262
-0.025212931 0.71899998 -0.027734226 1.4749877e-38 300 262
-0.02388566 0.71700001 -0.027657079 1.6132813e-38 301 262
-0.02262852 0.71700001 -0.027657079 1.5576743e-38 302 262
-0.021371379 0.71700001 -0.027657079 1.3179656e-38 303 262
-0.020086186 0.71600002 -0.027618507 1.1515434e-38 304 262
-0.0188308 0.71600002 -0.027618507 9.3945754e-39 305 262
-0.017575413 0.71600002 -0.027618507 9.2976966e-39 306 262
-0.016320027 0.71600002 -0.027618507 8.191349e-39 307 262
-0.01506464 0.71600002 -0.027618507 8.2767119e-39 308 262
-0.013809253 0.71600002 -0.027618507 8.1845163e-39 309 262
-0.012501267 0.713 -0.027502786 7.5431126e-39 310 262
-0.011251139 0.713 -0.027502786 8.0962863e-39 311 262
-0.010001013 0.713 -0.027502786 8.4643556e-39 312 262
-0.0087508867 0.713 -0.027502786 7.7267906e-39 313 262
-0.0075007593 0.713 -0.027502786 7.6457507e-39 314 262
-0.0062506334 0.713 -0.027502786 1.0872598e-38 315 262
-0.0050075199 0.71399999 -0.02754136 1.188857e-38 316 262
-0.0037556398 0.71399999 -0.02754136 1.2718331e-38 317 262
-0.0025037599 0.71399999 -0.02754136 1.3737164e-38 318 262
-0.0012553866 0.71600002 -0.027618507 1.4014111e-38 319 262
0 0.71600002 -0.027618507 1.161016e-38 320 262
0.00125714 0.71700001 -0.027657079 7.4617167e-39 321 262
0.0025212932 0.71899998 -0.027734226 5.70566e-39 322 262
0.0037872 0.72000003 -0.027772799 6.2588337e-39 323 262
0.0050636264 0.722 -0.027849946 6.3524783e-39 324 262
0.0063382997 0.72299999 -0.02788852 6.7209007e-39 325 262
0.0076059597 0.72299999 -0.02788852 7.3652177e-39 326 262
0.0088736191 0.72299999 -0.02788852 1.068426e-38 327 262
0.010169334 0.72500002 -0.027965667 1.254042e-38 328 262
-0.027772799 0.72000003 -0.029035201 1.1420026e-38 298 263
-0.02647358 0.71899998 -0.028994869 1.6122362e-38 299 263
-0.0251428 0.71700001 -0.028914221 1.5485288e-38 300 263
-0.02388566 0.71700001 -0.028914221 1.3641376e-38 301 263
-0.02262852 0.71700001 -0.028914221 1.2989485e-38 302 263
-0.021341572 0.71600002 -0.028873893 1.0500203e-38 303 263
-0.020086186 0.71600002 -0.028873893 8.7470017e-39 304 263
-0.018778199 0.71399999 -0.028793238 7.0874818e-39 305 263
-0.017526319 0.71399999 -0.028793238 9.0178531e-39 306 263
-0.016274439 0.71399999 -0.028793238 9.6632225e-39 307 263
-0.015022559 0.71399999 -0.028793238 9.20298e-39 308 263
-0.013751393 0.713 -0.028752912 9.0185888e-39 309 263
-0.012501267 0.713 -0.028752912 8.9271162e-39 310 263
-0.01121958 0.71100003 -0.028672259 9.0193118e-39 311 263
-0.0099729598 0.71100003 -0.028672259 9.1115131e-39 312 263
-0.0087263398 0.71100003 -0.028672259 8.4661437e-39 313 263
-0.0074797203 0.71100003 -0.028672259 8.2842705e-39 314 263
-0.0062330998 0.71100003 -0.028672259 1.040477e-38 315 263
-0.0049864799 0.71100003 -0.028672259 1.0591698e-38 316 263
-0.0037398601 0.71100003 -0.028672259 1.0407306e-38 317 263
-0.0025037599 0.71399999 -0.028793238 8.8515218e-39 318 263
-0.00125188 0.71399999 -0.028793238 1.0879826e-38 319 263
0 0.71600002 -0.028873893 1.1430466e-38 320 263
0.00125714 0.71700001 -0.028914221 8.5720426e-39 321 263
0.0025212932 0.71899998 -0.028994869 6.5357906e-39 322 263
0.0037872 0.72000003 -0.029035201 5.8904212e-39 323 263
0.0050706398 0.72299999 -0.029156178 5.9833356e-39 324 263
0.0063382997 0.72299999 -0.029156178 7.9194439e-39 325 263
0.0076059597 0.72299999 -0.029156178 8.8396317e-39 326 263
0.0088736191 0.72299999 -0.029156178 1.0038174e-38 327 263
0.01014128 0.72299999 -0.029156178 1.1617388e-38 328 263
0.01140894 0.72299999 -0.029156178 1.6688147e-38 329 263
-0.029035201 0.72000003 -0.0302976 9.765897e-39 297 264
-0.027734226 0.71899998 -0.030255521 1.3735001e-38 298 264
-0.02639994 0.71700001 -0.030171359 1.4933542e-38 299 264
-0.025107734 0.71600002 -0.03012928 1.3825394e-38 300 264
-0.023852346 0.71600002 -0.03012928 9.3078084e-39 301 264
-0.022596961 0.71600002 -0.03012928 9.0221831e-39 302 264
-0.021281958 0.71399999 -0.030045118 8.7455948e-39 303 264
-0.020030079 0.71399999 -0.030045118 8.0995065e-39 304 264
-0.018751899 0.713 -0.030003037 7.9147565e-39 305 264
-0.017501773 0.713 -0.030003037 1.0308621e-38 306 264
-0.016251646 0.713 -0.030003037 1.1323133e-38 307 264
-0.015001519 0.713 -0.030003037 1.0680631e-38 308 264
-0.013751393 0.713 -0.030003037 1.0403685e-38 309 264
-0.0124662 0.71100003 -0.029918881 1.0035262e-38 310 264
-0.01121958 0.71100003 -0.029918881 1.0035262e-38 311 264
-0.0099729598 0.71100003 -0.029918881 9.8515962e-39 312 264
-0.0087263398 0.71100003 -0.029918881 9.7594006e-39 313 264
-0.0074797203 0.71100003 -0.029918881 1.0127824e-38 314 264
-0.0062330998 0.71100003 -0.029918881 1.0035627e-38 315 264
-0.0049864799 0.71100003 -0.029918881 9.1147501e-39 316 264
-0.0037398601 0.71100003 -0.029918881 7.63962e-39 317 264
-0.0024932399 0.71100003 -0.029918881 4.9782081e-39 318 264
-0.00125188 0.71399999 -0.030045118 7.4678502e-39 319 264
0 0.71600002 -0.03012928 1.1525192e-38 320 264
0.00125714 0.71700001 -0.030171359 1.0234453e-38 321 264
0.0025212932 0.71899998 -0.030255521 7.2773241e-39 322 264
0.0037872 0.72000003 -0.0302976 5.3412159e-39 323 264
0.0050706398 0.72299999 -0.030423839 5.7071089e-39 324 264
0.0063382997 0.72299999 -0.030423839 8.3807822e-39 325 264
0.0076059597 0.72299999 -0.030423839 9.1187298e-39 326 264
0.0088736191 0.72299999 -0.030423839 9.2109254e-39 327 264
0.01014128 0.72299999 -0.030423839 1.069399e-38 328 264
0.01140894 0.72299999 -0.030423839 1.5949142e-38 329 264
-0.0302976 0.72000003 -0.03156 6.1695472e-39 296 265
-0.029035201 0.72000003 -0.03156 1.243921e-38 297 265
-0.027734226 0.71899998 -0.031516165 1.373861e-38 298 265
-0.02639994 0.71700001 -0.031428497 1.1064937e-38 299 265
-0.025107734 0.71600002 -0.031384666 8.6638725e-39 300 265
-0.023852346 0.71600002 -0.031384666 5.8058065e-39 301 265
-0.022533838 0.71399999 -0.031296998 7.6410465e-39 302 265
-0.021281958 0.71399999 -0.031296998 7.7332421e-39 303 265
-0.020002026 0.713 -0.031253166 8.7409257e-39 304 265
-0.0186993 0.71100003 -0.031165501 9.3862951e-39 305 265
-0.01745268 0.71100003 -0.031165501 1.1235605e-38 306 265
-0.01620606 0.71100003 -0.031165501 1.1973172e-38 307 265
-0.014959441 0.71100003 -0.031165501 1.1145922e-38 308 265
-0.01371282 0.71100003 -0.031165501 1.0316162e-38 309 265
-0.0124662 0.71100003 -0.031165501 1.0219653e-38 310 265
-0.011203799 0.70999998 -0.031121666 1.0127457e-38 311 265
-0.0099589331 0.70999998 -0.031121666 1.0313293e-38 312 265
-0.0087140659 0.70999998 -0.031121666 1.0497685e-38 313 265
-0.0074691991 0.70999998 -0.031121666 1.0402249e-38 314 265
-0.0062330998 0.71100003 -0.031165501 8.3739452e-39 315 265
-0.0049794666 0.70999998 -0.031121666 5.7071089e-39 316 265
-0.0037345996 0.70999998 -0.031121666 5.4301619e-39 317 265
-0.0024932399 0.71100003 -0.031165501 5.7150571e-39 318 265
-0.00125188 0.71399999 -0.031296998 7.8355565e-39 319 265
0 0.71600002 -0.031384666 1.1249697e-38 320 265
0.00125714 0.71700001 -0.031428497 1.0328101e-38 321 265
0.0025142799 0.71700001 -0.031428497 7.9263032e-39 322 265
0.0037872 0.72000003 -0.03156 5.6214125e-39 323 265
0.0050636264 0.722 -0.031647664 6.2617274e-39 324 265
0.0063295332 0.722 -0.031647664 8.5662594e-39 325 265
0.0075954394 0.722 -0.031647664 8.6627893e-39 326 265
0.0088736191 0.72299999 -0.031691495 8.6627893e-39 327 265
0.01014128 0.72299999 -0.031691495 9.6801908e-39 328 265
0.01140894 0.72299999 -0.031691495 1.327582e-38 329 265
-0.03156 0.72000003 -0.0328224 6.9164547e-39 295 266
-0.0302976 0.72000003 -0.0328224 9.3999914e-39 296 266
-0.029035201 0.72000003 -0.0328224 1.3548435e-38 297 266
-0.027734226 0.71899998 -0.032776814 1.2912813e-38 298 266
-0.026363119 0.71600002 -0.032640055 7.0122923e-39 299 266
-0.025107734 0.71600002 -0.032640055 6.1695472e-39 300 266
-0.02378572 0.71399999 -0.032548878 6.9071136e-39 301 266
-0.022533838 0.71399999 -0.032548878 8.4686618e-39 302 266
-0.021252153 0.713 -0.032503292 8.0073235e-39 303 266
-0.01994592 0.71100003 -0.032412119 8.8370912e-39 304 266
-0.018672999 0.70999998 -0.032366529 1.0035274e-38 305 266
-0.017428132 0.70999998 -0.032366529 1.1328521e-38 306 266
-0.01620606 0.71100003 -0.032412119 1.1881336e-38 307 266
-0.014959441 0.71100003 -0.032412119 1.1604026e-38 308 266
-0.01371282 0.71100003 -0.032412119 1.0037061e-38 309 266
-0.012448666 0.70999998 -0.032366529 9.1143941e-39 310 266
-0.011203799 0.70999998 -0.032366529 9.7597635e-39 311 266
-0.0099589331 0.70999998 -0.032366529 1.0496966e-38 312 266
-0.0087140659 0.70999998 -0.032366529 1.0127824e-38 313 266
-0.0074691991 0.70999998 -0.032366529 9.4810088e-39 314 266
-0.0062243328 0.70999998 -0.032366529 7.1764782e-39 315 266
-0.0049794666 0.70999998 -0.032366529 4.9695565e-39 316 266
-0.0037345996 0.70999998 -0.032366529 5.0617521e-39 317 266
-0.0024932399 0.71100003 -0.032412119 5.3444921e-39 318 266
-0.00125188 0.71399999 -0.032548878 7.9259697e-39 319 266
0 0.71600002 -0.032640055 1.0973123e-38 320 266
0.00125714 0.71700001 -0.032685637 1.0511784e-38 321 266
0.0025142799 0.71700001 -0.032685637 8.6660389e-39 322 266
0.0037872 0.72000003 -0.0328224 6.5455394e-39 323 266
0.0050636264 0.722 -0.032913569 7.0918608e-39 324 266
0.0063295332 0.722 -0.032913569 8.4747953e-39 325 266
0.0075954394 0.722 -0.032913569 7.8366257e-39 326 266
0.0088613462 0.722 -0.032913569 8.3897995e-39 327 266
0.01014128 0.72299999 -0.032959159 9.8620233e-39 328 266
0.01140894 0.72299999 -0.032959159 1.2351305e-38 329 266
-0.03156 0.72000003 -0.034084801 7.5640073e-39 295 267
-0.0302976 0.72000003 -0.034084801 1.1797819e-38 296 267
-0.029035201 0.72000003 -0.034084801 1.3272951e-38 297 267
-0.027657079 0.71700001 -0.033942781 1.1617022e-38 298 267
-0.026363119 0.71600002 -0.03389544 4.7023485e-39 299 267
-0.025107734 0.71600002 -0.03389544 6.6251205e-39 300 267
-0.02378572 0.71399999 -0.033800758 8.0080564e-39 301 267
-0.022533838 0.71399999 -0.033800758 8.1917162e-39 302 267
-0.021252153 0.713 -0.033753417 8.1917162e-39 303 267
-0.01994592 0.71100003 -0.033658739 1.0408736e-38 304 267
-0.018672999 0.70999998 -0.033611398 1.2621071e-38 305 267
-0.017428132 0.70999998 -0.033611398 1.142181e-38 306 267
-0.01620606 0.71100003 -0.033658739 9.3935048e-39 307 267
-0.014959441 0.71100003 -0.033658739 8.8356394e-39 308 267
-0.013693533 0.70999998 -0.033611398 7.8218476e-39 309 267
-0.012448666 0.70999998 -0.033611398 6.9924569e-39 310 267
-0.011203799 0.70999998 -0.033611398 7.2690424e-39 311 267
-0.0099589331 0.70999998 -0.033611398 7.9108161e-39 312 267
-0.0087140659 0.70999998 -0.033611398 7.4498365e-39 313 267
-0.0074691991 0.70999998 -0.033611398 5.8897023e-39 314 267
-0.0062243328 0.70999998 -0.033611398 5.8897023e-39 315 267
-0.0049794666 0.70999998 -0.033611398 6.074109e-39 316 267
-0.0037345996 0.70999998 -0.033611398 6.1666647e-39 317 267
-0.0024932399 0.71100003 -0.033658739 3.8671942e-39 318 267
-0.00125188 0.71399999 -0.033800758 6.1724437e-39 319 267
0 0.71399999 -0.033800758 1.0421015e-38 320 267
0.0012553866 0.71600002 -0.03389544 1.0144428e-38 321 267
0.0025142799 0.71700001 -0.033942781 9.2192155e-39 322 267
0.0037872 0.72000003 -0.034084801 7.0983572e-39 323 267
0.0050496003 0.72000003 -0.034084801 7.9205425e-39 324 267
0.0063120001 0.72000003 -0.034084801 8.7503032e-39 325 267
0.0075743999 0.72000003 -0.034084801 8.7556912e-39 326 267
0.0088367993 0.72000003 -0.034084801 8.2950731e-39 327 267
0.010099201 0.72000003 -0.034084801 1.0506333e-38 328 267
0.011361601 0.72000003 -0.034084801 1.4655495e-38 329 267
-0.033050332 0.72500002 -0.035592668 6.3654641e-39 294 268
-0.03156 0.72000003 -0.035347197 7.1030292e-39 295 268
-0.0302976 0.72000003 -0.035347197 1.2538621e-38 296 268
-0.028994869 0.71899998 -0.035298105 1.2078003e-38 297 268
-0.027657079 0.71700001 -0.035199918 9.1313302e-39 298 268
-0.026363119 0.71600002 -0.035150826 3.2308099e-39 299 268
-0.025037598 0.71399999 -0.035052639 6.074109e-39 300 268
-0.02378572 0.71399999 -0.035052639 7.3648478e-39 301 268
-0.022533838 0.71399999 -0.035052639 7.5477943e-39 302 268
-0.021252153 0.713 -0.035003547 7.9165768e-39 303 268
-0.019917866 0.70999998 -0.034856264 9.1165647e-39 304 268
-0.018672999 0.70999998 -0.034856264 1.068389e-38 305 268
-0.017428132 0.70999998 -0.034856264 9.2055206e-39 306 268
-0.016183265 0.70999998 -0.034856264 7.8225861e-39 307 268
-0.014938398 0.70999998 -0.034856264 7.0860931e-39 308 268
-0.013693533 0.70999998 -0.034856264 6.8098663e-39 309 268
-0.012448666 0.70999998 -0.034856264 6.7173148e-39 310 268
-0.011203799 0.70999998 -0.034856264 6.7173148e-39 311 268
-0.0099589331 0.70999998 -0.034856264 6.7176679e-39 312 268
-0.0087140659 0.70999998 -0.034856264 6.3485252e-39 313 268
-0.0074691991 0.70999998 -0.034856264 5.5216442e-39 314 268
-0.0062243328 0.70999998 -0.034856264 6.074818e-39 315 268
-0.0049864799 0.71100003 -0.034905359 5.800036e-39 316 268
-0.0037398601 0.71100003 -0.034905359 5.8925918e-39 317 268
-0.0025002533 0.713 -0.035003547 4.9702851e-39 318 268
-0.00125188 0.71399999 -0.035052639 5.8918827e-39 319 268
0 0.71399999 -0.035052639 1.0327724e-38 320 268
0.0012553866 0.71600002 -0.035150826 1.0604312e-38 321 268
0.0025142799 0.71700001 -0.035199918 9.3135733e-39 322 268
0.0037872 0.72000003 -0.035347197 6.82465e-39 323 268
0.0050496003 0.72000003 -0.035347197 7.6461234e-39 324 268
0.0063120001 0.72000003 -0.035347197 8.5680783e-39 325 268
0.0075743999 0.72000003 -0.035347197 8.480549e-39 326 268
0.0088367993 0.72000003 -0.035347197 8.1121266e-39 327 268
0.010099201 0.72000003 -0.035347197 1.078185e-38 328 268
-0.034321502 0.72500002 -0.036863834 1.5212282e-38 293 269
-0.033050332 0.72500002 -0.036863834 5.8097722e-39 294 269
-0.03156 0.72000003 -0.036609601 8.1143042e-39 295 269
-0.0302976 0.72000003 -0.036609601 1.2724814e-38 296 269
-0.028994869 0.71899998 -0.036558751 1.1157489e-38 297 269
-0.027657079 0.71700001 -0.036457058 8.392319e-39 298 269
-0.026363119 0.71600002 -0.036406212 3.7825376e-39 299 269
-0.025037598 0.71399999 -0.036304519 6.5354374e-39 300 269
-0.02378572 0.71399999 -0.036304519 7.0886112e-39 301 269
-0.022533838 0.71399999 -0.036304519 7.3637562e-39 302 269
-0.021252153 0.713 -0.036253672 7.4559518e-39 303 269
-0.019917866 0.70999998 -0.036101133 6.9953296e-39 304 269
-0.018672999 0.70999998 -0.036101133 6.2577645e-39 305 269
-0.017428132 0.70999998 -0.036101133 6.0712181e-39 306 269
-0.016183265 0.70999998 -0.036101133 6.440002e-39 307 269
-0.014938398 0.70999998 -0.036101133 6.1673808e-39 308 269
-0.013693533 0.70999998 -0.036101133 6.2595764e-39 309 269
-0.012448666 0.70999998 -0.036101133 6.1673836e-39 310 269
-0.011203799 0.70999998 -0.036101133 6.2595792e-39 311 269
-0.0099589331 0.70999998 -0.036101133 6.075181e-39 312 269
-0.0087140659 0.70999998 -0.036101133 5.9829853e-39 313 269
-0.0074691991 0.70999998 -0.036101133 5.7067558e-39 314 269
-0.0062243328 0.70999998 -0.036101133 5.9829825e-39 315 269
-0.0049864799 0.71100003 -0.036151983 5.6170769e-39 316 269
-0.0037398601 0.71100003 -0.036151983 5.8014695e-39 317 269
-0.0025002533 0.713 -0.036253672 5.7989696e-39 318 269
-0.00125188 0.71399999 -0.036304519 6.2599478e-39 319 269
0 0.71399999 -0.036304519 1.0326289e-38 320 269
0.0012553866 0.71600002 -0.036406212 1.1155689e-38 321 269
0.0025142799 0.71700001 -0.036457058 9.3153754e-39 322 269
0.0037819401 0.71899998 -0.036558751 6.6417007e-39 323 269
0.0050496003 0.72000003 -0.036609601 7.6461262e-39 324 269
0.0063120001 0.72000003 -0.036609601 8.5677238e-39 325 269
0.0075743999 0.72000003 -0.036609601 8.572746e-39 326 269
0.0088367993 0.72000003 -0.036609601 8.1121266e-39 327 269
0.010099201 0.72000003 -0.036609601 1.0874042e-38 328 269
-0.034321502 0.72500002 -0.038135 1.52112e-38 293 270
-0.033050332 0.72500002 -0.038135 5.9923628e-39 294 270
-0.03156 0.72000003 -0.037871998 8.2972536e-39 295 270
-0.0302976 0.72000003 -0.037871998 1.2725536e-38 296 270
-0.028994869 0.71899998 -0.037819397 1.1526994e-38 297 270
-0.027657079 0.71700001 -0.037714198 9.7702186e-39 298 270
-0.026363119 0.71600002 -0.037661601 5.8980022e-39 299 270
-0.025037598 0.71399999 -0.037556399 7.5463524e-39 300 270
-0.02378572 0.71399999 -0.037556399 7.5463524e-39 301 270
-0.022533838 0.71399999 -0.037556399 6.9034969e-39 302 270
-0.021252153 0.713 -0.037503798 6.9034969e-39 303 270
-0.019917866 0.70999998 -0.037345998 6.8102166e-39 304 270
-0.018672999 0.70999998 -0.037345998 6.441074e-39 305 270
-0.017428132 0.70999998 -0.037345998 6.2581275e-39 306 270
-0.016183265 0.70999998 -0.037345998 6.4425201e-39 307 270
-0.014938398 0.70999998 -0.037345998 5.7089264e-39 308 270
-0.013693533 0.70999998 -0.037345998 5.4319794e-39 309 270
-0.012448666 0.70999998 -0.037345998 5.431629e-39 310 270
-0.011203799 0.70999998 -0.037345998 5.5238247e-39 311 270
-0.0099589331 0.70999998 -0.037345998 5.4319822e-39 312 270
-0.0087140659 0.70999998 -0.037345998 5.247951e-39 313 270
-0.0074691991 0.70999998 -0.037345998 5.5238092e-39 314 270
-0.0062330998 0.71100003 -0.037398599 5.6160049e-39 315 270
-0.0049864799 0.71100003 -0.037398599 5.8003891e-39 316 270
-0.0037398601 0.71100003 -0.037398599 5.8925862e-39 317 270
-0.0025002533 0.713 -0.037503798 5.7056992e-39 318 270
-0.00125188 0.71399999 -0.037556399 6.1666773e-39 319 270
0 0.71600002 -0.037661601 9.7734795e-39 320 270
0.0012553866 0.71600002 -0.037661601 1.0879826e-38 321 270
0.0025142799 0.71700001 -0.037714198 9.316097e-39 322 270
0.0037819401 0.71899998 -0.037819397 6.549868e-39 323 270
0.0050496003 0.72000003 -0.037871998 7.5539334e-39 324 270
0.0063120001 0.72000003 -0.037871998 8.4755296e-39 325 270
0.0075743999 0.72000003 -0.037871998 8.6642228e-39 326 270
0.0088367993 0.72000003 -0.037871998 8.3876345e-39 327 270
0.010099201 0.72000003 -0.037871998 1.1058435e-38 328 270
-0.034321502 0.72500002 -0.039406165 1.493497e-38 293 271
-0.033050332 0.72500002 -0.039406165 6.634491e-39 294 271
-0.031691495 0.72299999 -0.039297458 8.8471875e-39 295 271
-0.0302976 0.72000003 -0.039134402 1.3001045e-38 296 271
-0.028994869 0.71899998 -0.039080046 1.1895057e-38 297 271
-0.027618507 0.71600002 -0.038916986 9.4983205e-39 298 271
-0.026363119 0.71600002 -0.038916986 5.4417128e-39 299 271
-0.025037598 0.71399999 -0.038808275 7.5477971e-39 300 271
-0.02378572 0.71399999 -0.038808275 7.2708515e-39 301 271
-0.022502279 0.713 -0.038753927 6.8109481e-39 302 271
-0.021252153 0.713 -0.038753927 6.626917e-39 303 271
-0.01994592 0.71100003 -0.038645219 6.1673836e-39 304 271
-0.018672999 0.70999998 -0.038590867 6.1673836e-39 305 271
-0.017428132 0.70999998 -0.038590867 5.7089236e-39 306 271
-0.016183265 0.70999998 -0.038590867 5.5245309e-39 307 271
-0.014938398 0.70999998 -0.038590867 5.2475951e-39 308 271
-0.013693533 0.70999998 -0.038590867 5.0632038e-39 309 271
-0.012448666 0.70999998 -0.038590867 5.247242e-39 310 271
-0.011203799 0.70999998 -0.038590867 5.4316318e-39 311 271
-0.0099589331 0.70999998 -0.038590867 5.4319822e-39 312 271
-0.0087140659 0.70999998 -0.038590867 5.4319822e-39 313 271
-0.0074691991 0.70999998 -0.038590867 5.6160049e-39 314 271
-0.0062330998 0.71100003 -0.038645219 5.6160049e-39 315 271
-0.0049864799 0.71100003 -0.038645219 5.8918687e-39 316 271
-0.0037398601 0.71100003 -0.038645219 6.0762614e-39 317 271
-0.0025037599 0.71399999 -0.038808275 5.6135064e-39 318 271
-0.00125188 0.71399999 -0.038808275 5.9819287e-39 319 271
0 0.71600002 -0.038916986 1.0049346e-38 320 271
0.00125714 0.71700001 -0.038971342 1.1155334e-38 321 271
0.0025142799 0.71700001 -0.038971342 9.4994065e-39 322 271
0.0037872 0.72000003 -0.039134402 6.5495051e-39 323 271
0.0050496003 0.72000003 -0.039134402 7.3691862e-39 324 271
0.0063295332 0.722 -0.039243106 8.5677294e-39 325 271
0.0075954394 0.722 -0.039243106 8.3890835e-39 326 271
0.0088613462 0.722 -0.039243106 8.4812791e-39 327 271
0.010127253 0.722 -0.039243106 1.124427e-38 328 271
-0.03441618 0.727 -0.040789545 1.5487424e-38 293 272
-0.033050332 0.72500002 -0.040677335 7.6468451e-39 294 272
-0.031691495 0.72299999 -0.040565118 1.0228323e-38 295 272
-0.030381758 0.722 -0.040509012 1.3002127e-38 296 272
-0.028994869 0.71899998 -0.040340692 1.1066019e-38 297 272
-0.027618507 0.71600002 -0.040172372 8.3004976e-39 298 272
-0.026363119 0.71600002 -0.040172372 4.4282811e-39 299 272
-0.025037598 0.71399999 -0.040060159 6.6298037e-39 300 272
-0.02378572 0.71399999 -0.040060159 6.4454124e-39 301 272
-0.022502279 0.713 -0.040004052 6.4428943e-39 302 272
-0.021252153 0.713 -0.040004052 6.1663088e-39 303 272
-0.01994592 0.71100003 -0.039891839 5.7060523e-39 304 272
-0.018672999 0.70999998 -0.039835732 5.7060523e-39 305 272
-0.017428132 0.70999998 -0.039835732 5.7060551e-39 306 272
-0.016183265 0.70999998 -0.039835732 5.5213051e-39 307 272
-0.014938398 0.70999998 -0.039835732 5.4291095e-39 308 272
-0.013693533 0.70999998 -0.039835732 5.5213051e-39 309 272
-0.012448666 0.70999998 -0.039835732 5.0649989e-39 310 272
-0.011203799 0.70999998 -0.039835732 5.3415858e-39 311 272
-0.0099589331 0.70999998 -0.039835732 5.6167279e-39 312 272
-0.0087140659 0.70999998 -0.039835732 5.6167279e-39 313 272
-0.0074797203 0.71100003 -0.039891839 5.7996731e-39 314 272
-0.0062330998 0.71100003 -0.039891839 5.7996731e-39 315 272
-0.0049864799 0.71100003 -0.039891839 5.8918659e-39 316 272
-0.0037503797 0.713 -0.040004052 6.0766173e-39 317 272
-0.0025037599 0.71399999 -0.040060159 5.5205863e-39 318 272
-0.00125188 0.71399999 -0.040060159 6.0737586e-39 319 272
0 0.71600002 -0.040172372 1.0693994e-38 320 272
0.00125714 0.71700001 -0.040228479 1.1339362e-38 321 272
0.0025142799 0.71700001 -0.040228479 9.3164502e-39 322 272
0.0037872 0.72000003 -0.040396802 6.1817987e-39 323 272
0.0050496003 0.72000003 -0.040396802 7.4599329e-39 324 272
0.0063295332 0.722 -0.040509012 8.4744449e-39 325 272
0.0075954394 0.722 -0.040509012 8.9397335e-39 326 272
0.0088613462 0.722 -0.040509012 9.3085146e-39 327 272
0.010127253 0.722 -0.040509012 1.1153873e-38 328 272
-0.03441618 0.727 -0.042064216 1.5948402e-38 293 273
-0.033141505 0.727 -0.042064216 8.3869339e-39 294 273
-0.031691495 0.72299999 -0.041832779 1.0783662e-38 295 273
-0.0302976 0.72000003 -0.041659199 1.3277635e-38 296 273
-0.028994869 0.71899998 -0.041601337 1.0419571e-38 297 273
-0.027657079 0.71700001 -0.041485619 6.3629404e-39 298 273
-0.026363119 0.71600002 -0.041427758 5.4409841e-39 299 273
-0.025037598 0.71399999 -0.041312039 7.9169271e-39 300 273
-0.02378572 0.71399999 -0.041312039 7.1793607e-39 301 273
-0.022533838 0.71399999 -0.041312039 6.9942506e-39 302 273
-0.021252153 0.713 -0.041254178 6.4410768e-39 303 273
-0.01994592 0.71100003 -0.041138459 5.8886457e-39 304 273
-0.0186993 0.71100003 -0.041138459 5.7042544e-39 305 273
-0.01745268 0.71100003 -0.041138459 4.8784581e-39 306 273
-0.01620606 0.71100003 -0.041138459 4.8784581e-39 307 273
-0.014938398 0.70999998 -0.041080594 4.9710054e-39 308 273
-0.013693533 0.70999998 -0.041080594 5.247951e-39 309 273
-0.012448666 0.70999998 -0.041080594 5.3408599e-39 310 273
-0.011203799 0.70999998 -0.041080594 5.4334157e-39 311 273
-0.0099589331 0.70999998 -0.041080594 5.8918715e-39 312 273
-0.0087140659 0.70999998 -0.041080594 5.8918715e-39 313 273
-0.0074797203 0.71100003 -0.041138459 5.8918659e-39 314 273
-0.0062330998 0.71100003 -0.041138459 5.8918659e-39 315 273
-0.0049864799 0.71100003 -0.041138459 5.800036e-39 316 273
-0.0037503797 0.713 -0.041254178 5.8925918e-39 317 273
-0.0025037599 0.71399999 -0.041312039 5.0614046e-39 318 273
-0.0012553866 0.71600002 -0.041427758 5.9833623e-39 319 273
0 0.71600002 -0.041427758 1.1155687e-38 320 273
0.00125714 0.71700001 -0.041485619 1.1155687e-38 321 273
0.0025212932 0.71899998 -0.041601337 9.3142922e-39 322 273
0.0037872 0.72000003 -0.041659199 6.4565878e-39 323 273
0.0050636264 0.722 -0.041774917 7.2773409e-39 324 273
0.0063295332 0.722 -0.041774917 8.5680783e-39 325 273
0.0075954394 0.722 -0.041774917 9.1230514e-39 326 273
0.0088613462 0.722 -0.041774917 9.4918339e-39 327 273
0.010127253 0.722 -0.041774917 1.1521577e-38 328 273
-0.033141505 0.727 -0.043338891 8.7571583e-39 294 274
-0.03156 0.72000003 -0.042921603 1.0416681e-38 295 274
-0.0302976 0.72000003 -0.042921603 1.3186514e-38 296 274
-0.029035201 0.72000003 -0.042921603 9.0377123e-39 297 274
-0.027734226 0.71899998 -0.042861983 4.8874446e-39 298 274
-0.026363119 0.71600002 -0.042683143 5.7172052e-39 299 274
-0.025107734 0.71600002 -0.042683143 7.6442891e-39 300 274
-0.02378572 0.71399999 -0.042563915 6.9989197e-39 301 274
-0.022533838 0.71399999 -0.042563915 6.6283421e-39 302 274
-0.021252153 0.713 -0.042504307 6.167364e-39 303 274
-0.01994592 0.71100003 -0.042385083 5.4312479e-39 304 274
-0.0186993 0.71100003 -0.042385083 5.1543009e-39 305 274
-0.01745268 0.71100003 -0.042385083 4.9706355e-39 306 274
-0.01620606 0.71100003 -0.042385083 5.2472224e-39 307 274
-0.014959441 0.71100003 -0.042385083 5.0635514e-39 308 274
-0.01371282 0.71100003 -0.042385083 5.4323325e-39 309 274
-0.0124662 0.71100003 -0.042385083 5.800036e-39 310 274
-0.01121958 0.71100003 -0.042385083 5.800036e-39 311 274
-0.0099729598 0.71100003 -0.042385083 5.8918687e-39 312 274
-0.0087263398 0.71100003 -0.042385083 5.8918687e-39 313 274
-0.0074797203 0.71100003 -0.042385083 5.8918659e-39 314 274
-0.0062506334 0.713 -0.042504307 5.8918659e-39 315 274
-0.0050005065 0.713 -0.042504307 5.7993171e-39 316 274
-0.0037503797 0.713 -0.042504307 5.9840685e-39 317 274
-0.0025037599 0.71399999 -0.042563915 5.7039013e-39 318 274
-0.0012553866 0.71600002 -0.042683143 7.6400095e-39 319 274
0 0.71600002 -0.042683143 1.1525192e-38 320 274
0.00125714 0.71700001 -0.042742759 1.0972377e-38 321 274
0.0025248001 0.72000003 -0.042921603 8.6689256e-39 322 274
0.0037977197 0.722 -0.043040827 6.4565906e-39 323 274
0.0050636264 0.722 -0.043040827 7.3677345e-39 324 274
0.0063295332 0.722 -0.043040827 8.4744421e-39 325 274
0.0075954394 0.722 -0.043040827 9.2155945e-39 326 274
0.0088613462 0.722 -0.043040827 9.6765727e-39 327 274
-0.0328224 0.72000003 -0.044183999 9.9549826e-39 294 275
-0.03156 0.72000003 -0.044183999 1.0692548e-38 295 275
-0.0302976 0.72000003 -0.044183999 1.3002477e-38 296 275
-0.028994869 0.71899998 -0.044122629 9.2220965e-39 297 275
-0.027657079 0.71700001 -0.043999899 5.4341317e-39 298 275
-0.026363119 0.71600002 -0.043938532 5.8951085e-39 299 275
-0.025107734 0.71600002 -0.043938532 7.9165572e-39 300 275
-0.023852346 0.71600002 -0.043938532 7.4559392e-39 301 275
-0.022533838 0.71399999 -0.043815799 6.8112985e-39 302 275
-0.021252153 0.713 -0.043754432 6.350679e-39 303 275
-0.020002026 0.713 -0.043754432 5.7067558e-39 304 275
-0.018751899 0.713 -0.043754432 5.6145601e-39 305 275
-0.017501773 0.713 -0.043754432 5.2482958e-39 306 275
-0.01620606 0.71100003 -0.043631699 5.2482958e-39 307 275
-0.014959441 0.71100003 -0.043631699 5.5241624e-39 308 275
-0.01371282 0.71100003 -0.043631699 5.616358e-39 309 275
-0.0124662 0.71100003 -0.043631699 5.8918687e-39 310 275
-0.01121958 0.71100003 -0.043631699 5.8918687e-39 311 275
-0.0099729598 0.71100003 -0.043631699 5.8922218e-39 312 275
-0.0087508867 0.713 -0.043754432 5.8922218e-39 313 275
-0.0075007593 0.713 -0.043754432 5.8922218e-39 314 275
-0.0062593995 0.71399999 -0.043815799 5.8922218e-39 315 275
-0.0050075199 0.71399999 -0.043815799 5.8918715e-39 316 275
-0.0037556398 0.71399999 -0.043815799 5.7993171e-39 317 275
-0.0025037599 0.71399999 -0.043815799 6.0770012e-39 318 275
-0.0012553866 0.71600002 -0.043938532 8.3818934e-39 319 275
0 0.71700001 -0.043999899 1.1618114e-38 320 275
0.0012606466 0.71899998 -0.044122629 1.0603962e-38 321 275
0.0025248001 0.72000003 -0.044183999 8.1157518e-39 322 275
0.0037977197 0.722 -0.044306733 6.2718406e-39 323 275
0.0050636264 0.722 -0.044306733 7.0018288e-39 324 275
0.0063295332 0.722 -0.044306733 8.5691559e-39 325 275
0.0075954394 0.722 -0.044306733 9.3081433e-39 326 275
0.0088613462 0.722 -0.044306733 1.0414491e-38 327 275
-0.034084801 0.72000003 -0.045446403 1.7607213e-38 293 276
-0.0328224 0.72000003 -0.045446403 1.0877661e-38 294 276
-0.03156 0.72000003 -0.045446403 1.1062053e-38 295 276
-0.0302976 0.72000003 -0.045446403 1.3002833e-38 296 276
-0.028994869 0.71899998 -0.045383278 9.8678219e-39 297 276
-0.027657079 0.71700001 -0.045257039 6.7227056e-39 298 276
-0.026363119 0.71600002 -0.045193922 5.616358e-39 299 276
-0.025107734 0.71600002 -0.045193922 7.1790048e-39 300 276
-0.023852346 0.71600002 -0.045193922 7.1790048e-39 301 276
-0.022533838 0.71399999 -0.045067675 6.6265639e-39 302 276
-0.021281958 0.71399999 -0.045067675 6.4421726e-39 303 276
-0.020002026 0.713 -0.045004558 6.075181e-39 304 276
-0.018751899 0.713 -0.045004558 6.075181e-39 305 276
-0.017501773 0.713 -0.045004558 5.4344821e-39 306 276
-0.016251646 0.713 -0.045004558 5.4344821e-39 307 276
-0.014959441 0.71100003 -0.044878319 5.8003891e-39 308 276
-0.01371282 0.71100003 -0.044878319 5.616358e-39 309 276
-0.012501267 0.713 -0.045004558 5.8918659e-39 310 276
-0.011251139 0.713 -0.045004558 5.8918659e-39 311 276
-0.010001013 0.713 -0.045004558 5.8918659e-39 312 276
-0.0087508867 0.713 -0.045004558 5.8918659e-39 313 276
-0.0075007593 0.713 -0.045004558 6.0755369e-39 314 276
-0.0062593995 0.71399999 -0.045067675 6.0755369e-39 315 276
-0.0050075199 0.71399999 -0.045067675 5.7993171e-39 316 276
-0.0037556398 0.71399999 -0.045067675 5.7071215e-39 317 276
-0.0025107733 0.71600002 -0.045193922 7.1847879e-39 318 276
-0.00125714 0.71700001 -0.045257039 9.3056476e-39 319 276
0 0.71899998 -0.045383278 1.1434446e-38 320 276
0.0012624001 0.72000003 -0.045446403 1.0328098e-38 321 276
0.0025318132 0.722 -0.045572639 7.2870701e-39 322 276
0.0037977197 0.722 -0.045572639 5.7197444e-39 323 276
0.0050636264 0.722 -0.045572639 7.1844194e-39 324 276
0.0063295332 0.722 -0.045572639 9.1205276e-39 325 276
0.0075954394 0.722 -0.045572639 9.6758524e-39 326 276
-0.034179479 0.722 -0.046838548 1.7423898e-38 293 277
-0.032913569 0.722 -0.046838548 1.1708139e-38 294 277
-0.03156 0.72000003 -0.0467088 1.0694346e-38 295 277
-0.0302976 0.72000003 -0.0467088 1.2357464e-38 296 277
-0.029035201 0.72000003 -0.0467088 1.1250756e-38 297 277
-0.027734226 0.71899998 -0.046643924 9.397825e-39 298 277
-0.02639994 0.71700001 -0.046514176 6.539759e-39 299 277
-0.0251428 0.71700001 -0.046514176 6.2609987e-39 300 277
-0.023852346 0.71600002 -0.046449307 6.5379444e-39 301 277
-0.022596961 0.71600002 -0.046449307 6.6297911e-39 302 277
-0.021281958 0.71399999 -0.046319555 6.4450397e-39 303 277
-0.020030079 0.71399999 -0.046319555 6.078055e-39 304 277
-0.018778199 0.71399999 -0.046319555 5.8936652e-39 305 277
-0.017526319 0.71399999 -0.046319555 5.8940183e-39 306 277
-0.016274439 0.71399999 -0.046319555 5.8018227e-39 307 277
-0.015022559 0.71399999 -0.046319555 5.9844217e-39 308 277
-0.01377068 0.71399999 -0.046319555 5.8918659e-39 309 277
-0.012501267 0.713 -0.046254687 6.075181e-39 310 277
-0.011251139 0.713 -0.046254687 6.075181e-39 311 277
-0.01001504 0.71399999 -0.046319555 5.8918687e-39 312 277
-0.0087631596 0.71399999 -0.046319555 5.8918687e-39 313 277
-0.0075112795 0.71399999 -0.046319555 5.8918687e-39 314 277
-0.0062769335 0.71600002 -0.046449307 5.9840657e-39 315 277
-0.0050215465 0.71600002 -0.046449307 5.7071243e-39 316 277
-0.00376616 0.71600002 -0.046449307 5.3383432e-39 317 277
-0.0025107733 0.71600002 -0.046449307 8.0163563e-39 318 277
-0.00125714 0.71700001 -0.046514176 1.0413084e-38 319 277
0 0.72000003 -0.0467088 1.125078e-38 320 277
0.0012624001 0.72000003 -0.0467088 9.8678443e-39 321 277
0.0025318132 0.722 -0.046838548 6.0896129e-39 322 277
0.0037977197 0.722 -0.046838548 5.0758197e-39 323 277
0.0050636264 0.722 -0.046838548 8.0120347e-39 324 277
0.0063295332 0.722 -0.046838548 9.8559473e-39 325 277
0.0076059597 0.72299999 -0.046903417 1.0135405e-38 326 277
-0.032913569 0.722 -0.048104454 1.2262019e-38 294 278
-0.031647664 0.722 -0.048104454 9.957128e-39 295 278
-0.0302976 0.72000003 -0.0479712 1.0881975e-38 296 278
-0.029035201 0.72000003 -0.0479712 1.161954e-38 297 278
-0.027772799 0.72000003 -0.0479712 1.2259498e-38 298 278
-0.02647358 0.71899998 -0.04790457 9.2170421e-39 299 278
-0.0251428 0.71700001 -0.04777132 7.0929118e-39 300 278
-0.023852346 0.71600002 -0.047704693 6.4475424e-39 301 278
-0.022596961 0.71600002 -0.047704693 6.4478983e-39 302 278
-0.021281958 0.71399999 -0.047571439 6.7241251e-39 303 278
-0.020030079 0.71399999 -0.047571439 6.6301414e-39 304 278
-0.018778199 0.71399999 -0.047571439 6.44539e-39 305 278
-0.017526319 0.71399999 -0.047571439 6.0773333e-39 306 278
-0.016320027 0.71600002 -0.047704693 5.9851377e-39 307 278
-0.01506464 0.71600002 -0.047704693 6.1677339e-39 308 278
-0.01377068 0.71399999 -0.047571439 6.1677339e-39 309 278
-0.012518799 0.71399999 -0.047571439 5.8918687e-39 310 278
-0.011266919 0.71399999 -0.047571439 5.8918687e-39 311 278
-0.01001504 0.71399999 -0.047571439 5.8918687e-39 312 278
-0.0087877065 0.71600002 -0.047704693 5.8918687e-39 313 278
-0.00753232 0.71600002 -0.047704693 5.8918687e-39 314 278
-0.0062769335 0.71600002 -0.047704693 5.8918687e-39 315 278
-0.0050215465 0.71600002 -0.047704693 5.3390677e-39 316 278
-0.00376616 0.71600002 -0.047704693 4.9702851e-39 317 278
-0.0025142799 0.71700001 -0.04777132 9.1223479e-39 318 278
-0.0012606466 0.71899998 -0.04790457 1.1796021e-38 319 278
0 0.72000003 -0.0479712 1.1067106e-38 320 278
0.0012659066 0.722 -0.048104454 9.2231952e-39 321 278
0.0025318132 0.722 -0.048104454 5.2566181e-39 322 278
0.0038029798 0.72299999 -0.048171077 5.3488137e-39 323 278
0.0050706398 0.72299999 -0.048171077 8.3811899e-39 324 278
0.0063382997 0.72299999 -0.048171077 9.4875375e-39 325 278
0.0076059597 0.72299999 -0.048171077 9.3996551e-39 326 278
-0.031647664 0.722 -0.04937036 8.480549e-39 295 279
-0.030381758 0.722 -0.04937036 3.5127946e-39 296 279
-0.029035201 0.72000003 -0.0492336 8.0303805e-39 297 279
-0.027772799 0.72000003 -0.0492336 1.2077294e-38 298 279
-0.02647358 0.71899998 -0.049165215 1.2446075e-38 299 279
-0.0251428 0.71700001 -0.04902846 1.1150636e-38 300 279
-0.02388566 0.71700001 -0.04902846 8.8453855e-39 301 279
-0.02262852 0.71700001 -0.04902846 6.8174165e-39 302 279
-0.021341572 0.71600002 -0.048960082 5.4344821e-39 303 279
-0.020086186 0.71600002 -0.048960082 6.0780494e-39 304 279
-0.0188308 0.71600002 -0.048960082 6.1706038e-39 305 279
-0.017575413 0.71600002 -0.048960082 6.2624491e-39 306 279
-0.016320027 0.71600002 -0.048960082 6.0776991e-39 307 279
-0.01506464 0.71600002 -0.048960082 5.9847874e-39 308 279
-0.013809253 0.71600002 -0.048960082 5.8925918e-39 309 279
-0.012553867 0.71600002 -0.048960082 5.8922358e-39 310 279
-0.01129848 0.71600002 -0.048960082 5.8922358e-39 311 279
-0.010043093 0.71600002 -0.048960082 5.891517e-39 312 279
