# .PCD v.7 - Point Cloud Data file format
FIELDS x y z rgb imX imY
SIZE 4 4 4 4 4 4
TYPE F F F F F F
COUNT 1 1 1 1 1 1
WIDTH 850
HEIGHT 1
VIEWPOINT 0 0 0 1 0 0 0
POINTS 850
DATA ascii
-0.037973695 0.833 0.070105277 1.7603485e-38 294 192
-0.036513168 0.833 0.070105277 1.73269e-38 295 192
-0.035052639 0.833 0.070105277 1.7327622e-38 296 192
-0.033672765 0.83499998 0.070273593 1.7235426e-38 297 192
-0.032131586 0.833 0.070105277 1.7052111e-38 298 192
-0.030671058 0.833 0.070105277 1.7052111e-38 299 192
-0.029210532 0.833 0.070105277 1.7143228e-38 300 192
-0.027750006 0.833 0.070105277 1.6867001e-38 301 192
-0.02628948 0.833 0.070105277 1.6774445e-38 302 192
-0.024828954 0.833 0.070105277 1.6682249e-38 303 192
-0.023368426 0.833 0.070105277 1.6314543e-38 304 192
-0.0219079 0.833 0.070105277 1.6222347e-38 305 192
-0.020447372 0.833 0.070105277 1.6313471e-38 306 192
-0.01907802 0.83700001 0.070441924 1.6129078e-38 307 192
-0.017610481 0.83700001 0.070441924 1.6312038e-38 308 192
-0.016142938 0.83700001 0.070441924 1.6219842e-38 309 192
-0.014675399 0.83700001 0.070441924 1.6219123e-38 310 192
-0.013239419 0.83899999 0.07061024 1.6126927e-38 311 192
-0.011768373 0.83899999 0.07061024 1.5759218e-38 312 192
-0.010297326 0.83899999 0.07061024 1.5667021e-38 313 192
-0.00882628 0.83899999 0.07061024 1.5667024e-38 314 192
-0.0073552327 0.83899999 0.07061024 1.5390797e-38 315 192
-0.0058841864 0.83899999 0.07061024 1.4932706e-38 316 192
-0.00441314 0.83899999 0.07061024 1.4932706e-38 317 192
-0.0029350799 0.83700001 0.070441924 1.4839789e-38 318 192
-0.0014675399 0.83700001 0.070441924 1.502382e-38 319 192
0 0.83700001 0.070441924 1.5574473e-38 320 192
0.0014675399 0.83700001 0.070441924 1.5390441e-38 321 192
0.0029350799 0.83700001 0.070441924 1.5298612e-38 322 192
0.0044026203 0.83700001 0.070441924 1.5483362e-38 323 192
0.0058701597 0.83700001 0.070441924 1.539046e-38 324 192
0.0073376996 0.83700001 0.070441924 1.520571e-38 325 192
0.0088052405 0.83700001 0.070441924 1.4839088e-38 326 192
0.01027278 0.83700001 0.070441924 1.5023119e-38 327 192
0.011768373 0.83899999 0.07061024 1.4839085e-38 328 192
0.013239419 0.83899999 0.07061024 1.4839085e-38 329 192
0.014710465 0.83899999 0.07061024 1.4840154e-38 330 192
0.016181514 0.83899999 0.07061024 1.4840154e-38 331 192
0.01765256 0.83899999 0.07061024 1.4839438e-38 332 192
0.019123605 0.83899999 0.07061024 1.4839438e-38 333 192
0.020594653 0.83899999 0.07061024 1.4654691e-38 334 192
0.022065699 0.83899999 0.07061024 1.4470298e-38 335 192
0.023536745 0.83899999 0.07061024 1.4285907e-38 336 192
0.025007792 0.83899999 0.07061024 1.3917126e-38 337 192
0.026541959 0.84100002 0.070778556 1.3549781e-38 338 192
0.028016513 0.84100002 0.070778556 1.3181359e-38 339 192
0.029491065 0.84100002 0.070778556 1.2171558e-38 340 192
0.030965621 0.84100002 0.070778556 1.2356308e-38 341 192
0.032440174 0.84100002 0.070778556 1.3651787e-38 342 192
0.033914726 0.84100002 0.070778556 1.6141068e-38 343 192
-0.064263172 0.833 0.068644755 1.797994e-38 276 193
-0.062802643 0.833 0.068644755 1.7242375e-38 277 193
-0.061194837 0.83099997 0.068479933 1.6870668e-38 278 193
-0.059737816 0.83099997 0.068479933 1.5764319e-38 279 193
-0.058421064 0.833 0.068644755 1.5668823e-38 280 193
-0.056823779 0.83099997 0.068479933 1.5761019e-38 281 193
-0.055366758 0.83099997 0.068479933 1.6958814e-38 282 193
-0.053909738 0.83099997 0.068479933 1.7235761e-38 283 193
-0.052452717 0.83099997 0.068479933 1.7511269e-38 284 193
-0.050995696 0.83099997 0.068479933 1.7696019e-38 285 193
-0.049538679 0.83099997 0.068479933 1.7696732e-38 286 193
-0.048081655 0.83099997 0.068479933 1.7973679e-38 287 193
-0.046624638 0.83099997 0.068479933 1.7698534e-38 288 193
-0.045276325 0.833 0.068644755 1.779073e-38 289 193
-0.043815799 0.833 0.068644755 1.7974048e-38 290 193
-0.042253576 0.83099997 0.068479933 1.7974048e-38 291 193
-0.040796559 0.83099997 0.068479933 1.7880424e-38 292 193
-0.039434217 0.833 0.068644755 1.7696031e-38 293 193
-0.037973695 0.833 0.068644755 1.7144309e-38 294 193
-0.036513168 0.833 0.068644755 1.7052114e-38 295 193
-0.035052639 0.833 0.068644755 1.6959565e-38 296 193
-0.033592112 0.833 0.068644755 1.6959565e-38 297 193
-0.032131586 0.833 0.068644755 1.6683701e-38 298 193
-0.030671058 0.833 0.068644755 1.6499309e-38 299 193
-0.029210532 0.833 0.068644755 1.6591506e-38 300 193
-0.027750006 0.833 0.068644755 1.6314559e-38 301 193
-0.02628948 0.833 0.068644755 1.613053e-38 302 193
-0.024828954 0.833 0.068644755 1.6037976e-38 303 193
-0.023368426 0.833 0.068644755 1.585323e-38 304 193
-0.0219079 0.833 0.068644755 1.5761034e-38 305 193
-0.020447372 0.833 0.068644755 1.5392981e-38 306 193
-0.019032432 0.83499998 0.068809561 1.5392981e-38 307 193
-0.017568398 0.83499998 0.068809561 1.5300429e-38 308 193
-0.016142938 0.83700001 0.068974376 1.5024202e-38 309 193
-0.014675399 0.83700001 0.068974376 1.5207868e-38 310 193
-0.013207859 0.83700001 0.068974376 1.5023116e-38 311 193
-0.011768373 0.83899999 0.06913919 1.4748312e-38 312 193
-0.010297326 0.83899999 0.06913919 1.4379529e-38 313 193
-0.00882628 0.83899999 0.06913919 1.4470283e-38 314 193
-0.0073552327 0.83899999 0.06913919 1.4562479e-38 315 193
-0.0058841864 0.83899999 0.06913919 1.4379532e-38 316 193
-0.0044026203 0.83700001 0.068974376 1.4287336e-38 317 193
-0.0029350799 0.83700001 0.068974376 1.437883e-38 318 193
-0.0014675399 0.83700001 0.068974376 1.437883e-38 319 193
0 0.83700001 0.068974376 1.428593e-38 320 193
0.0014675399 0.83700001 0.068974376 1.4378127e-38 321 193
0.0029350799 0.83700001 0.068974376 1.4194097e-38 322 193
0.0044026203 0.83700001 0.068974376 1.4286653e-38 323 193
0.0058701597 0.83700001 0.068974376 1.4286647e-38 324 193
0.0073376996 0.83700001 0.068974376 1.419445e-38 325 193
0.0088052405 0.83700001 0.068974376 1.4103688e-38 326 193
0.01027278 0.83700001 0.068974376 1.4011491e-38 327 193
0.011768373 0.83899999 0.06913919 1.4011491e-38 328 193
0.013239419 0.83899999 0.06913919 1.4011491e-38 329 193
0.014710465 0.83899999 0.06913919 1.4011135e-38 330 193
0.016181514 0.83899999 0.06913919 1.4103332e-38 331 193
0.01765256 0.83899999 0.06913919 1.4194097e-38 332 193
0.01907802 0.83700001 0.068974376 1.4194097e-38 333 193
0.020545561 0.83700001 0.068974376 1.391787e-38 334 193
0.0220131 0.83700001 0.068974376 1.3825674e-38 335 193
0.023536745 0.83899999 0.06913919 1.3458318e-38 336 193
0.025007792 0.83899999 0.06913919 1.3366121e-38 337 193
0.026478838 0.83899999 0.06913919 1.2998415e-38 338 193
0.027949886 0.83899999 0.06913919 1.2905861e-38 339 193
0.029491065 0.84100002 0.069304004 1.2262659e-38 340 193
0.030965621 0.84100002 0.069304004 1.180204e-38 341 193
0.032440174 0.84100002 0.069304004 1.1716013e-38 342 193
0.033914726 0.84100002 0.069304004 1.4666273e-38 343 193
0.035389278 0.84100002 0.069304004 1.6230412e-38 344 193
-0.065723702 0.833 0.067184225 1.7978518e-38 275 194
-0.064263172 0.833 0.067184225 1.723839e-38 276 194
-0.062802643 0.833 0.067184225 1.5855455e-38 277 194
-0.061047558 0.829 0.066861607 1.5945445e-38 278 194
-0.059594043 0.829 0.066861607 1.6129837e-38 279 194
-0.058140531 0.829 0.066861607 1.6774445e-38 280 194
-0.05668702 0.829 0.066861607 1.6959196e-38 281 194
-0.055233505 0.829 0.066861607 1.7144281e-38 282 194
-0.053779993 0.829 0.066861607 1.7328673e-38 283 194
-0.052326478 0.829 0.066861607 1.7604183e-38 284 194
-0.050872963 0.829 0.066861607 1.7788935e-38 285 194
-0.049419452 0.829 0.066861607 1.7881493e-38 286 194
-0.04796594 0.829 0.066861607 1.7881493e-38 287 194
-0.046512425 0.829 0.066861607 1.806589e-38 288 194
-0.04505891 0.829 0.066861607 1.806589e-38 289 194
-0.043605398 0.829 0.066861607 1.8156654e-38 290 194
-0.042151887 0.829 0.066861607 1.7972623e-38 291 194
-0.040698372 0.829 0.066861607 1.7604566e-38 292 194
-0.039339535 0.83099997 0.067022912 1.7327619e-38 293 194
-0.037882518 0.83099997 0.067022912 1.7144307e-38 294 194
-0.036425497 0.83099997 0.067022912 1.6959915e-38 295 194
-0.035052639 0.833 0.067184225 1.686772e-38 296 194
-0.033592112 0.833 0.067184225 1.6682968e-38 297 194
-0.032131586 0.833 0.067184225 1.6590054e-38 298 194
-0.030671058 0.833 0.067184225 1.6497858e-38 299 194
-0.029210532 0.833 0.067184225 1.6313827e-38 300 194
-0.027750006 0.833 0.067184225 1.6129076e-38 301 194
-0.02628948 0.833 0.067184225 1.6037236e-38 302 194
-0.024828954 0.833 0.067184225 1.5852486e-38 303 194
-0.023368426 0.833 0.067184225 1.5759571e-38 304 194
-0.0219079 0.833 0.067184225 1.5667374e-38 305 194
-0.020447372 0.833 0.067184225 1.5299671e-38 306 194
-0.019032432 0.83499998 0.06734553 1.493089e-38 307 194
-0.017568398 0.83499998 0.06734553 1.4747216e-38 308 194
-0.016104365 0.83499998 0.06734553 1.4747216e-38 309 194
-0.014675399 0.83700001 0.067506835 1.4745422e-38 310 194
-0.013207859 0.83700001 0.067506835 1.4653227e-38 311 194
-0.011768373 0.83899999 0.06766814 1.4561031e-38 312 194
-0.010297326 0.83899999 0.06766814 1.4376638e-38 313 194
-0.00882628 0.83899999 0.06766814 1.3825632e-38 314 194
-0.0073552327 0.83899999 0.06766814 1.3825632e-38 315 194
-0.0058841864 0.83899999 0.06766814 1.4100791e-38 316 194
-0.0044026203 0.83700001 0.067506835 1.4100791e-38 317 194
-0.0029350799 0.83700001 0.067506835 1.4191915e-38 318 194
-0.0014675399 0.83700001 0.067506835 1.4099718e-38 319 194
0 0.83700001 0.067506835 1.4283036e-38 320 194
0.0014675399 0.83700001 0.067506835 1.4098646e-38 321 194
0.0029350799 0.83700001 0.067506835 1.4283036e-38 322 194
0.0044026203 0.83700001 0.067506835 1.4283036e-38 323 194
0.0058701597 0.83700001 0.067506835 1.4099718e-38 324 194
0.0073376996 0.83700001 0.067506835 1.4099718e-38 325 194
0.0088052405 0.83700001 0.067506835 1.3916403e-38 326 194
0.01027278 0.83700001 0.067506835 1.3916403e-38 327 194
0.011768373 0.83899999 0.06766814 1.3916403e-38 328 194
0.013239419 0.83899999 0.06766814 1.3824207e-38 329 194
0.014710465 0.83899999 0.06766814 1.4099721e-38 330 194
0.016181514 0.83899999 0.06766814 1.4007525e-38 331 194
0.01765256 0.83899999 0.06766814 1.4098649e-38 332 194
0.01907802 0.83700001 0.067506835 1.4006453e-38 333 194
0.020545561 0.83700001 0.067506835 1.3914976e-38 334 194
0.0220131 0.83700001 0.067506835 1.3638391e-38 335 194
0.023480639 0.83700001 0.067506835 1.3088807e-38 336 194
0.02494818 0.83700001 0.067506835 1.3088807e-38 337 194
0.026478838 0.83899999 0.06766814 1.2905851e-38 338 194
0.027949886 0.83899999 0.06766814 1.2813297e-38 339 194
0.029420931 0.83899999 0.06766814 1.2355195e-38 340 194
0.030891977 0.83899999 0.06766814 1.2262998e-38 341 194
0.032440174 0.84100002 0.067829452 1.171275e-38 342 194
0.033914726 0.84100002 0.067829452 1.3095685e-38 343 194
0.035389278 0.84100002 0.067829452 1.4206411e-38 344 194
-0.067022912 0.83099997 0.065565899 1.8250769e-38 274 195
-0.065565899 0.83099997 0.065565899 1.7236617e-38 275 195
-0.064108878 0.83099997 0.065565899 1.6316752e-38 276 195
-0.062651858 0.83099997 0.065565899 1.5486991e-38 277 195
-0.060900278 0.82700002 0.0652503 1.6221997e-38 278 195
-0.059450272 0.82700002 0.0652503 1.6775171e-38 279 195
-0.058140531 0.829 0.065408096 1.7327972e-38 280 195
-0.05668702 0.829 0.065408096 1.7327972e-38 281 195
-0.055233505 0.829 0.065408096 1.7512344e-38 282 195
-0.053779993 0.829 0.065408096 1.7788932e-38 283 195
-0.052326478 0.829 0.065408096 1.788113e-38 284 195
-0.050872963 0.829 0.065408096 1.7973326e-38 285 195
-0.049419452 0.829 0.065408096 1.7881499e-38 286 195
-0.04796594 0.829 0.065408096 1.7973694e-38 287 195
-0.046512425 0.829 0.065408096 1.7789673e-38 288 195
-0.04505891 0.829 0.065408096 1.7697478e-38 289 195
-0.043605398 0.829 0.065408096 1.7788597e-38 290 195
-0.042151887 0.829 0.065408096 1.751237e-38 291 195
-0.040698372 0.829 0.065408096 1.7144309e-38 292 195
-0.039244857 0.829 0.065408096 1.7144309e-38 293 195
-0.037882518 0.83099997 0.065565899 1.6684054e-38 294 195
-0.036425497 0.83099997 0.065565899 1.6407107e-38 295 195
-0.035052639 0.833 0.065723702 1.6590054e-38 296 195
-0.033592112 0.833 0.065723702 1.6313827e-38 297 195
-0.032131586 0.833 0.065723702 1.6129076e-38 298 195
-0.030671058 0.833 0.065723702 1.603688e-38 299 195
-0.029210532 0.833 0.065723702 1.5669539e-38 300 195
-0.027750006 0.833 0.065723702 1.5393313e-38 301 195
-0.02628948 0.833 0.065723702 1.5576612e-38 302 195
-0.024828954 0.833 0.065723702 1.520747e-38 303 195
-0.023368426 0.833 0.065723702 1.4931609e-38 304 195
-0.0219079 0.833 0.065723702 1.4931609e-38 305 195
-0.020447372 0.833 0.065723702 1.4470636e-38 306 195
-0.019032432 0.83499998 0.065881498 1.4285886e-38 307 195
-0.017568398 0.83499998 0.065881498 1.4102577e-38 308 195
-0.016104365 0.83499998 0.065881498 1.4010381e-38 309 195
-0.014675399 0.83700001 0.066039301 1.3917831e-38 310 195
-0.013207859 0.83700001 0.066039301 1.3640885e-38 311 195
-0.011740319 0.83700001 0.066039301 1.3639801e-38 312 195
-0.01027278 0.83700001 0.066039301 1.3455408e-38 313 195
-0.0088052405 0.83700001 0.066039301 1.3178838e-38 314 195
-0.0073376996 0.83700001 0.066039301 1.3086642e-38 315 195
-0.0058841864 0.83899999 0.066197097 1.26282e-38 316 195
-0.0044026203 0.83700001 0.066039301 1.26282e-38 317 195
-0.0029350799 0.83700001 0.066039301 1.2627128e-38 318 195
-0.0014675399 0.83700001 0.066039301 1.2811518e-38 319 195
0 0.83700001 0.066039301 1.2535299e-38 320 195
0.0014675399 0.83700001 0.066039301 1.2535299e-38 321 195
0.0029350799 0.83700001 0.066039301 1.2627134e-38 322 195
0.0044026203 0.83700001 0.066039301 1.2811165e-38 323 195
0.0058701597 0.83700001 0.066039301 1.2903715e-38 324 195
0.0073376996 0.83700001 0.066039301 1.2903715e-38 325 195
0.0088052405 0.83700001 0.066039301 1.3087738e-38 326 195
0.010297326 0.83899999 0.066197097 1.3087738e-38 327 195
0.011768373 0.83899999 0.066197097 1.3087738e-38 328 195
0.013239419 0.83899999 0.066197097 1.2995541e-38 329 195
0.014710465 0.83899999 0.066197097 1.3178859e-38 330 195
0.016181514 0.83899999 0.066197097 1.3178859e-38 331 195
0.01765256 0.83899999 0.066197097 1.308631e-38 332 195
0.01907802 0.83700001 0.066039301 1.3178507e-38 333 195
0.020545561 0.83700001 0.066039301 1.2994109e-38 334 195
0.0220131 0.83700001 0.066039301 1.2994109e-38 335 195
0.023480639 0.83700001 0.066039301 1.2903343e-38 336 195
0.02494818 0.83700001 0.066039301 1.2903343e-38 337 195
0.026478838 0.83899999 0.066197097 1.2446313e-38 338 195
0.027949886 0.83899999 0.066197097 1.2446313e-38 339 195
0.029420931 0.83899999 0.066197097 1.2263363e-38 340 195
0.030891977 0.83899999 0.066197097 1.2355558e-38 341 195
0.032363027 0.83899999 0.066197097 1.2171548e-38 342 195
0.03383407 0.83899999 0.066197097 1.2632168e-38 343 195
0.03530512 0.83899999 0.066197097 1.2546146e-38 344 195
0.036776166 0.83899999 0.066197097 1.4297863e-38 345 195
-0.068644755 0.833 0.064263172 1.7600363e-38 273 196
-0.066700302 0.82700002 0.06380029 1.6406802e-38 274 196
-0.0652503 0.82700002 0.06380029 1.5484487e-38 275 196
-0.064108878 0.83099997 0.064108878 1.5855733e-38 276 196
-0.062501073 0.829 0.063954584 1.6316711e-38 277 196
-0.060900278 0.82700002 0.06380029 1.723506e-38 278 196
-0.059450272 0.82700002 0.06380029 1.7511287e-38 279 196
-0.058140531 0.829 0.063954584 1.788078e-38 280 196
-0.05668702 0.829 0.063954584 1.7788584e-38 281 196
-0.055233505 0.829 0.063954584 1.77893e-38 282 196
-0.053779993 0.829 0.063954584 1.7881496e-38 283 196
-0.052326478 0.829 0.063954584 1.7972976e-38 284 196
-0.050872963 0.829 0.063954584 1.7972976e-38 285 196
-0.049419452 0.829 0.063954584 1.7973341e-38 286 196
-0.04796594 0.829 0.063954584 1.7973341e-38 287 196
-0.046512425 0.829 0.063954584 1.7880793e-38 288 196
-0.04505891 0.829 0.063954584 1.7788597e-38 289 196
-0.0435002 0.82700002 0.06380029 1.751237e-38 290 196
-0.04205019 0.82700002 0.06380029 1.7327619e-38 291 196
-0.040600184 0.82700002 0.06380029 1.677625e-38 292 196
-0.039244857 0.829 0.063954584 1.65915e-38 293 196
-0.037791345 0.829 0.063954584 1.6406744e-38 294 196
-0.036425497 0.83099997 0.064108878 1.6129799e-38 295 196
-0.03496848 0.83099997 0.064108878 1.6037233e-38 296 196
-0.033511456 0.83099997 0.064108878 1.5760646e-38 297 196
-0.032131586 0.833 0.064263172 1.5576259e-38 298 196
-0.030671058 0.833 0.064263172 1.5576259e-38 299 196
-0.029210532 0.833 0.064263172 1.5392229e-38 300 196
-0.027750006 0.833 0.064263172 1.5116003e-38 301 196
-0.02628948 0.833 0.064263172 1.4930887e-38 302 196
-0.024828954 0.833 0.064263172 1.4746494e-38 303 196
-0.023368426 0.833 0.064263172 1.4654301e-38 304 196
-0.0219079 0.833 0.064263172 1.4561747e-38 305 196
-0.020447372 0.833 0.064263172 1.391746e-38 306 196
-0.019032432 0.83499998 0.064417459 1.3733068e-38 307 196
-0.017568398 0.83499998 0.064417459 1.3824538e-38 308 196
-0.016104365 0.83499998 0.064417459 1.3640148e-38 309 196
-0.014675399 0.83700001 0.064571753 1.3638352e-38 310 196
-0.013207859 0.83700001 0.064571753 1.3361406e-38 311 196
-0.011740319 0.83700001 0.064571753 1.290115e-38 312 196
-0.01027278 0.83700001 0.064571753 1.2624923e-38 313 196
-0.0088052405 0.83700001 0.064571753 1.2164669e-38 314 196
-0.0073376996 0.83700001 0.064571753 1.2072115e-38 315 196
-0.0058841864 0.83899999 0.064726055 1.161366e-38 316 196
-0.00441314 0.83899999 0.064726055 1.161366e-38 317 196
-0.0029350799 0.83700001 0.064571753 1.1979572e-38 318 196
-0.0014675399 0.83700001 0.064571753 1.1979572e-38 319 196
0 0.83700001 0.064571753 1.170443e-38 320 196
0.0014675399 0.83700001 0.064571753 1.1796625e-38 321 196
0.0029350799 0.83700001 0.064571753 1.1888824e-38 322 196
0.0044026203 0.83700001 0.064571753 1.2073216e-38 323 196
0.0058701597 0.83700001 0.064571753 1.2349443e-38 324 196
0.0073376996 0.83700001 0.064571753 1.2441639e-38 325 196
0.0088052405 0.83700001 0.064571753 1.2625664e-38 326 196
0.010297326 0.83899999 0.064726055 1.2625664e-38 327 196
0.011768373 0.83899999 0.064726055 1.262567e-38 328 196
0.013239419 0.83899999 0.064726055 1.262567e-38 329 196
0.014710465 0.83899999 0.064726055 1.2258343e-38 330 196
0.016181514 0.83899999 0.064726055 1.2258343e-38 331 196
0.01765256 0.83899999 0.064726055 1.2349826e-38 332 196
0.019123605 0.83899999 0.064726055 1.2349826e-38 333 196
0.020545561 0.83700001 0.064571753 1.2349826e-38 334 196
0.0220131 0.83700001 0.064571753 1.2442021e-38 335 196
0.023536745 0.83899999 0.064726055 1.2350892e-38 336 196
0.025007792 0.83899999 0.064726055 1.2535283e-38 337 196
0.026478838 0.83899999 0.064726055 1.2261916e-38 338 196
0.028016513 0.84100002 0.064880349 1.2354112e-38 339 196
0.029420931 0.83899999 0.064726055 1.2262995e-38 340 196
0.030891977 0.83899999 0.064726055 1.2355193e-38 341 196
0.032363027 0.83899999 0.064726055 1.2540674e-38 342 196
0.03383407 0.83899999 0.064726055 1.2725067e-38 343 196
0.03530512 0.83899999 0.064726055 1.1897512e-38 344 196
0.036776166 0.83899999 0.064726055 1.2635435e-38 345 196
0.038247209 0.83899999 0.064726055 1.3743633e-38 346 196
-0.069600314 0.82700002 0.062350284 1.6587991e-38 272 197
-0.068150312 0.82700002 0.062350284 1.6034817e-38 273 197
-0.066700302 0.82700002 0.062350284 1.5946505e-38 274 197
-0.0652503 0.82700002 0.062350284 1.585395e-38 275 197
-0.06380029 0.82700002 0.062350284 1.6592911e-38 276 197
-0.062350284 0.82700002 0.062350284 1.6961335e-38 277 197
-0.060900278 0.82700002 0.062350284 1.7511637e-38 278 197
-0.059450272 0.82700002 0.062350284 1.7696029e-38 279 197
-0.058000267 0.82700002 0.062350284 1.77893e-38 280 197
-0.056550261 0.82700002 0.062350284 1.7881496e-38 281 197
-0.055100251 0.82700002 0.062350284 1.7881499e-38 282 197
-0.053650245 0.82700002 0.062350284 1.7973694e-38 283 197
-0.052200239 0.82700002 0.062350284 1.7881146e-38 284 197
-0.050750233 0.82700002 0.062350284 1.7881146e-38 285 197
-0.049300224 0.82700002 0.062350284 1.7788594e-38 286 197
-0.047850218 0.82700002 0.062350284 1.7788594e-38 287 197
-0.046400212 0.82700002 0.062350284 1.7512366e-38 288 197
-0.04505891 0.829 0.062501073 1.742017e-38 289 197
-0.0435002 0.82700002 0.062350284 1.7143225e-38 290 197
-0.04205019 0.82700002 0.062350284 1.6866998e-38 291 197
-0.040600184 0.82700002 0.062350284 1.6590054e-38 292 197
-0.039150178 0.82700002 0.062350284 1.6313827e-38 293 197
-0.037791345 0.829 0.062501073 1.6129081e-38 294 197
-0.036425497 0.83099997 0.062651858 1.5852136e-38 295 197
-0.03496848 0.83099997 0.062651858 1.5852489e-38 296 197
-0.033511456 0.83099997 0.062651858 1.5483706e-38 297 197
-0.032054439 0.83099997 0.062651858 1.5299315e-38 298 197
-0.030671058 0.833 0.062802643 1.5207119e-38 299 197
-0.029210532 0.833 0.062802643 1.5114568e-38 300 197
-0.027750006 0.833 0.062802643 1.483834e-38 301 197
-0.02628948 0.833 0.062802643 1.4654299e-38 302 197
-0.024828954 0.833 0.062802643 1.4285518e-38 303 197
-0.023368426 0.833 0.062802643 1.4101125e-38 304 197
-0.0219079 0.833 0.062802643 1.3824538e-38 305 197
-0.020447372 0.833 0.062802643 1.3361762e-38 306 197
-0.019032432 0.83499998 0.062953427 1.2900784e-38 307 197
-0.017568398 0.83499998 0.062953427 1.280822e-38 308 197
-0.016104365 0.83499998 0.062953427 1.2439436e-38 309 197
-0.014675399 0.83700001 0.06310422 1.1885906e-38 310 197
-0.013207859 0.83700001 0.06310422 1.1517484e-38 311 197
-0.011740319 0.83700001 0.06310422 1.1241638e-38 312 197
-0.010297326 0.83899999 0.063255005 1.1702256e-38 313 197
-0.00882628 0.83899999 0.063255005 1.1425692e-38 314 197
-0.0073552327 0.83899999 0.063255005 1.1425692e-38 315 197
-0.0058841864 0.83899999 0.063255005 1.1333499e-38 316 197
-0.00441314 0.83899999 0.063255005 1.1333499e-38 317 197
-0.0029350799 0.83700001 0.06310422 1.0872877e-38 318 197
-0.0014675399 0.83700001 0.06310422 1.0780322e-38 319 197
0 0.83700001 0.06310422 1.0414414e-38 320 197
0.0014675399 0.83700001 0.06310422 1.0322218e-38 321 197
0.0029350799 0.83700001 0.06310422 1.0597729e-38 322 197
0.0044026203 0.83700001 0.06310422 1.0782121e-38 323 197
0.0058701597 0.83700001 0.06310422 1.1425692e-38 324 197
0.0073376996 0.83700001 0.06310422 1.1333496e-38 325 197
0.0088052405 0.83700001 0.06310422 1.1058341e-38 326 197
0.010297326 0.83899999 0.063255005 1.1150537e-38 327 197
0.011768373 0.83899999 0.063255005 1.0967588e-38 328 197
0.013239419 0.83899999 0.063255005 1.1059783e-38 329 197
0.014710465 0.83899999 0.063255005 1.0601343e-38 330 197
0.016181514 0.83899999 0.063255005 1.0601343e-38 331 197
0.01765256 0.83899999 0.063255005 1.0876135e-38 332 197
0.019123605 0.83899999 0.063255005 1.0968689e-38 333 197
0.020594653 0.83899999 0.063255005 1.1244916e-38 334 197
0.022065699 0.83899999 0.063255005 1.1521504e-38 335 197
0.023536745 0.83899999 0.063255005 1.1615125e-38 336 197
0.025007792 0.83899999 0.063255005 1.189207e-38 337 197
0.026478838 0.83899999 0.063255005 1.2169002e-38 338 197
0.028016513 0.84100002 0.063405797 1.2353393e-38 339 197
0.029420931 0.83899999 0.063255005 1.2355193e-38 340 197
0.030891977 0.83899999 0.063255005 1.2539224e-38 341 197
0.032363027 0.83899999 0.063255005 1.2540308e-38 342 197
0.03383407 0.83899999 0.063255005 1.2816535e-38 343 197
0.03530512 0.83899999 0.063255005 1.2814762e-38 344 197
0.036776166 0.83899999 0.063255005 1.3183545e-38 345 197
0.038247209 0.83899999 0.063255005 1.2727293e-38 346 197
0.039718259 0.83899999 0.063255005 1.4110228e-38 347 197
-0.071222149 0.829 0.061047558 1.815498e-38 271 198
-0.069600314 0.82700002 0.060900278 1.6773414e-38 272 198
-0.068150312 0.82700002 0.060900278 1.5759262e-38 273 198
-0.066700302 0.82700002 0.060900278 1.6129429e-38 274 198
-0.0652503 0.82700002 0.060900278 1.6866994e-38 275 198
-0.06380029 0.82700002 0.060900278 1.7328675e-38 276 198
-0.062350284 0.82700002 0.060900278 1.7420871e-38 277 198
-0.060900278 0.82700002 0.060900278 1.7696735e-38 278 198
-0.059450272 0.82700002 0.060900278 1.7973323e-38 279 198
-0.058000267 0.82700002 0.060900278 1.7974048e-38 280 198
-0.056550261 0.82700002 0.060900278 1.7974048e-38 281 198
-0.055100251 0.82700002 0.060900278 1.7973339e-38 282 198
-0.053650245 0.82700002 0.060900278 1.7881143e-38 283 198
-0.052200239 0.82700002 0.060900278 1.7880793e-38 284 198
-0.050750233 0.82700002 0.060900278 1.7788597e-38 285 198
-0.049300224 0.82700002 0.060900278 1.7513086e-38 286 198
-0.047850218 0.82700002 0.060900278 1.7328694e-38 287 198
-0.046400212 0.82700002 0.060900278 1.7052111e-38 288 198
-0.044950206 0.82700002 0.060900278 1.6959915e-38 289 198
-0.0435002 0.82700002 0.060900278 1.6958466e-38 290 198
-0.04205019 0.82700002 0.060900278 1.6681881e-38 291 198
-0.040600184 0.82700002 0.060900278 1.6129429e-38 292 198
-0.039150178 0.82700002 0.060900278 1.6037233e-38 293 198
-0.037700173 0.82700002 0.060900278 1.5575556e-38 294 198
-0.036337834 0.829 0.061047558 1.5391163e-38 295 198
-0.03496848 0.83099997 0.061194837 1.5024176e-38 296 198
-0.033511456 0.83099997 0.061194837 1.474759e-38 297 198
-0.032054439 0.83099997 0.061194837 1.474651e-38 298 198
-0.030671058 0.833 0.061342116 1.4562479e-38 299 198
-0.029210532 0.833 0.061342116 1.4562481e-38 300 198
-0.027750006 0.833 0.061342116 1.4285536e-38 301 198
-0.02628948 0.833 0.061342116 1.4194044e-38 302 198
-0.024828954 0.833 0.061342116 1.3733065e-38 303 198
-0.023368426 0.833 0.061342116 1.3639421e-38 304 198
-0.0219079 0.833 0.061342116 1.3178444e-38 305 198
-0.020447372 0.833 0.061342116 1.2532004e-38 306 198
-0.019032432 0.83499998 0.061489396 1.2071026e-38 307 198
-0.017610481 0.83700001 0.061636675 1.1609713e-38 308 198
-0.016142938 0.83700001 0.061636675 1.1240932e-38 309 198
-0.014675399 0.83700001 0.061636675 1.0963287e-38 310 198
-0.013207859 0.83700001 0.061636675 1.068706e-38 311 198
-0.011768373 0.83899999 0.061783955 1.0412278e-38 312 198
-0.010297326 0.83899999 0.061783955 1.0504833e-38 313 198
-0.0088473195 0.84100002 0.061931241 1.0321167e-38 314 198
-0.0073552327 0.83899999 0.061783955 1.0228972e-38 315 198
-0.0058841864 0.83899999 0.061783955 1.0320811e-38 316 198
-0.00441314 0.83899999 0.061783955 1.0228616e-38 317 198
-0.0029420932 0.83899999 0.061783955 1.0135701e-38 318 198
-0.0014675399 0.83700001 0.061636675 1.0227897e-38 319 198
0 0.83700001 0.061636675 9.8609093e-39 320 198
0.0014675399 0.83700001 0.061636675 9.8609093e-39 321 198
0.0029350799 0.83700001 0.061636675 1.0044224e-38 322 198
0.0044026203 0.83700001 0.061636675 1.013642e-38 323 198
0.0058701597 0.83700001 0.061636675 1.004495e-38 324 198
0.0073376996 0.83700001 0.061636675 9.8605589e-39 325 198
0.00882628 0.83899999 0.061783955 9.9531077e-39 326 198
0.010321873 0.84100002 0.061931241 9.9531077e-39 327 198
0.011796427 0.84100002 0.061931241 9.9538266e-39 328 198
0.01327098 0.84100002 0.061931241 9.9538266e-39 329 198
0.014745533 0.84100002 0.061931241 9.7705255e-39 330 198
0.016181514 0.83899999 0.061783955 9.8630799e-39 331 198
0.01765256 0.83899999 0.061783955 9.8620051e-39 332 198
0.019123605 0.83899999 0.061783955 1.0138232e-38 333 198
0.020594653 0.83899999 0.061783955 1.0230786e-38 334 198
0.022065699 0.83899999 0.061783955 1.0415177e-38 335 198
0.023536745 0.83899999 0.061783955 1.0876137e-38 336 198
0.025007792 0.83899999 0.061783955 1.1337114e-38 337 198
0.026478838 0.83899999 0.061783955 1.1432531e-38 338 198
0.027949886 0.83899999 0.061783955 1.1985705e-38 339 198
0.029420931 0.83899999 0.061783955 1.2722549e-38 340 198
0.030891977 0.83899999 0.061783955 1.2722549e-38 341 198
0.032363027 0.83899999 0.061783955 1.2447404e-38 342 198
0.03383407 0.83899999 0.061783955 1.2632154e-38 343 198
0.03530512 0.83899999 0.061783955 1.2907664e-38 344 198
0.036776166 0.83899999 0.061783955 1.2999861e-38 345 198
0.038247209 0.83899999 0.061783955 1.2447074e-38 346 198
0.039718259 0.83899999 0.061783955 1.3184639e-38 347 198
-0.072500333 0.82700002 0.059450272 1.7238746e-38 270 199
-0.071050331 0.82700002 0.059450272 1.548703e-38 271 199
-0.069600314 0.82700002 0.059450272 1.658865e-38 272 199
-0.068150312 0.82700002 0.059450272 1.6680845e-38 273 199
-0.066700302 0.82700002 0.059450272 1.6866645e-38 274 199
-0.065092497 0.82499999 0.059306499 1.7419817e-38 275 199
-0.063645996 0.82499999 0.059306499 1.7604916e-38 276 199
-0.062199496 0.82499999 0.059306499 1.7788947e-38 277 199
-0.060752995 0.82499999 0.059306499 1.7973694e-38 278 199
-0.059306499 0.82499999 0.059306499 1.806589e-38 279 199
-0.057859998 0.82499999 0.059306499 1.7790382e-38 280 199
-0.056413498 0.82499999 0.059306499 1.7697828e-38 281 199
-0.054966997 0.82499999 0.059306499 1.797262e-38 282 199
-0.053520497 0.82499999 0.059306499 1.7880424e-38 283 199
-0.052200239 0.82700002 0.059450272 1.7604563e-38 284 199
-0.050750233 0.82700002 0.059450272 1.7512366e-38 285 199
-0.049300224 0.82700002 0.059450272 1.7511287e-38 286 199
-0.047850218 0.82700002 0.059450272 1.7142506e-38 287 199
-0.046400212 0.82700002 0.059450272 1.6958466e-38 288 199
-0.044950206 0.82700002 0.059450272 1.6866271e-38 289 199
-0.0435002 0.82700002 0.059450272 1.6680435e-38 290 199
-0.04205019 0.82700002 0.059450272 1.6496043e-38 291 199
-0.040600184 0.82700002 0.059450272 1.6219458e-38 292 199
-0.039150178 0.82700002 0.059450272 1.594287e-38 293 199
-0.037700173 0.82700002 0.059450272 1.5114921e-38 294 199
-0.036337834 0.829 0.059594043 1.4838693e-38 295 199
-0.034884319 0.829 0.059594043 1.4838693e-38 296 199
-0.033430804 0.829 0.059594043 1.4469552e-38 297 199
-0.032054439 0.83099997 0.059737816 1.4469554e-38 298 199
-0.030671058 0.833 0.05988159 1.4285523e-38 299 199
-0.029210532 0.833 0.05988159 1.4284087e-38 300 199
-0.027750006 0.833 0.05988159 1.400786e-38 301 199
-0.02628948 0.833 0.05988159 1.3454311e-38 302 199
-0.024828954 0.833 0.05988159 1.2808941e-38 303 199
-0.023368426 0.833 0.05988159 1.2071376e-38 304 199
-0.0219079 0.833 0.05988159 1.1702594e-38 305 199
-0.020496465 0.83499998 0.060025364 1.1517146e-38 306 199
-0.01907802 0.83700001 0.060169142 1.1517146e-38 307 199
-0.017610481 0.83700001 0.060169142 1.1606843e-38 308 199
-0.016142938 0.83700001 0.060169142 1.1514646e-38 309 199
-0.014675399 0.83700001 0.060169142 1.0779603e-38 310 199
-0.013239419 0.83899999 0.060312908 1.0687408e-38 311 199
-0.011768373 0.83899999 0.060312908 1.0320067e-38 312 199
-0.010297326 0.83899999 0.060312908 1.0320067e-38 313 199
-0.0088473195 0.84100002 0.060456682 1.0044206e-38 314 199
-0.0073727663 0.84100002 0.060456682 1.0044206e-38 315 199
-0.0058982135 0.84100002 0.060456682 1.0044206e-38 316 199
-0.0044236598 0.84100002 0.060456682 1.0044206e-38 317 199
-0.0029420932 0.83899999 0.060312908 1.0135323e-38 318 199
-0.0014710466 0.83899999 0.060312908 1.0135323e-38 319 199
0 0.83899999 0.060312908 9.7683423e-39 320 199
0.0014710466 0.83899999 0.060312908 9.7683423e-39 321 199
0.0029420932 0.83899999 0.060312908 9.9516602e-39 322 199
0.00441314 0.83899999 0.060312908 9.9516602e-39 323 199
0.0058841864 0.83899999 0.060312908 9.9513042e-39 324 199
0.0073552327 0.83899999 0.060312908 9.9513042e-39 325 199
0.0088473195 0.84100002 0.060456682 9.7683451e-39 326 199
0.010321873 0.84100002 0.060456682 9.7683451e-39 327 199
0.011796427 0.84100002 0.060456682 9.7686982e-39 328 199
0.01327098 0.84100002 0.060456682 9.7686982e-39 329 199
0.014745533 0.84100002 0.060456682 9.9527322e-39 330 199
0.016220087 0.84100002 0.060456682 9.9527322e-39 331 199
0.017694639 0.84100002 0.060456682 9.9523762e-39 332 199
0.019123605 0.83899999 0.060312908 9.7683451e-39 333 199
0.020594653 0.83899999 0.060312908 1.0318645e-38 334 199
0.022065699 0.83899999 0.060312908 1.0134252e-38 335 199
0.023536745 0.83899999 0.060312908 9.0329437e-39 336 199
0.025007792 0.83899999 0.060312908 9.4939218e-39 337 199
0.026478838 0.83899999 0.060312908 9.1298112e-39 338 199
0.027949886 0.83899999 0.060312908 9.9592132e-39 339 199
0.029420931 0.83899999 0.060312908 1.1064122e-38 340 199
0.030891977 0.83899999 0.060312908 1.1617295e-38 341 199
0.032440174 0.84100002 0.060456682 1.2444888e-38 342 199
0.03383407 0.83899999 0.060312908 1.2813312e-38 343 199
0.03530512 0.83899999 0.060312908 1.3181725e-38 344 199
0.036776166 0.83899999 0.060312908 1.327392e-38 345 199
0.038247209 0.83899999 0.060312908 1.3364696e-38 346 199
0.039718259 0.83899999 0.060312908 1.3641283e-38 347 199
0.041189305 0.83899999 0.060312908 1.2631855e-38 348 199
-0.072500333 0.82700002 0.058000267 1.5855748e-38 270 200
-0.071050331 0.82700002 0.058000267 1.5302933e-38 271 200
-0.069600314 0.82700002 0.058000267 1.6407808e-38 272 200
-0.067985497 0.82499999 0.057859998 1.6684755e-38 273 200
-0.066538997 0.82499999 0.057859998 1.7419073e-38 274 200
-0.065092497 0.82499999 0.057859998 1.7788214e-38 275 200
-0.063645996 0.82499999 0.057859998 1.8064443e-38 276 200
-0.062199496 0.82499999 0.057859998 1.8156638e-38 277 200
-0.060752995 0.82499999 0.057859998 1.7973694e-38 278 200
-0.059306499 0.82499999 0.057859998 1.7973694e-38 279 200
-0.057859998 0.82499999 0.057859998 1.7973341e-38 280 200
-0.056413498 0.82499999 0.057859998 1.7881146e-38 281 200
-0.054966997 0.82499999 0.057859998 1.7605285e-38 282 200
-0.053520497 0.82499999 0.057859998 1.7420535e-38 283 200
-0.052073997 0.82499999 0.057859998 1.7237225e-38 284 200
-0.0506275 0.82499999 0.057859998 1.7052833e-38 285 200
-0.049180996 0.82499999 0.057859998 1.695955e-38 286 200
-0.047734499 0.82499999 0.057859998 1.6498211e-38 287 200
-0.046400212 0.82700002 0.058000267 1.6221978e-38 288 200
-0.044950206 0.82700002 0.058000267 1.6221978e-38 289 200
-0.0435002 0.82700002 0.058000267 1.6036514e-38 290 200
-0.04205019 0.82700002 0.058000267 1.5759927e-38 291 200
-0.040600184 0.82700002 0.058000267 1.5208198e-38 292 200
-0.039150178 0.82700002 0.058000267 1.4931611e-38 293 200
-0.037700173 0.82700002 0.058000267 1.4561747e-38 294 200
-0.036250167 0.82700002 0.058000267 1.428552e-38 295 200
-0.034884319 0.829 0.058140531 1.4103277e-38 296 200
-0.033430804 0.829 0.058140531 1.3826689e-38 297 200
-0.031977292 0.829 0.058140531 1.3824538e-38 298 200
-0.030597419 0.83099997 0.058280796 1.3547951e-38 299 200
-0.029210532 0.833 0.058421064 1.3455387e-38 300 200
-0.027750006 0.833 0.058421064 1.2901853e-38 301 200
-0.02628948 0.833 0.058421064 1.2532713e-38 302 200
-0.024828954 0.833 0.058421064 1.2071376e-38 303 200
-0.023368426 0.833 0.058421064 1.1241285e-38 304 200
-0.0219079 0.833 0.058421064 1.1056892e-38 305 200
-0.020496465 0.83499998 0.058561329 1.0873241e-38 306 200
-0.01907802 0.83700001 0.058701597 1.0781045e-38 307 200
-0.017610481 0.83700001 0.058701597 1.0229672e-38 308 200
-0.016142938 0.83700001 0.058701597 1.0137477e-38 309 200
-0.014675399 0.83700001 0.058701597 1.0045275e-38 310 200
-0.013239419 0.83899999 0.058841862 1.0045275e-38 311 200
-0.011768373 0.83899999 0.058841862 9.7694171e-39 312 200
-0.010297326 0.83899999 0.058841862 9.6772215e-39 313 200
-0.0088473195 0.84100002 0.05898213 9.7683451e-39 314 200
-0.0073727663 0.84100002 0.05898213 9.6761481e-39 315 200
-0.0058982135 0.84100002 0.05898213 9.4010031e-39 316 200
-0.0044236598 0.84100002 0.05898213 9.4010031e-39 317 200
-0.0029420932 0.83899999 0.058841862 9.4010003e-39 318 200
-0.0014710466 0.83899999 0.058841862 9.4010003e-39 319 200
0 0.83899999 0.058841862 9.6768683e-39 320 200
0.0014710466 0.83899999 0.058841862 9.5846713e-39 321 200
0.0029420932 0.83899999 0.058841862 9.5843182e-39 322 200
0.0044236598 0.84100002 0.05898213 9.6765152e-39 323 200
0.0058982135 0.84100002 0.05898213 9.5843154e-39 324 200
0.0073727663 0.84100002 0.05898213 9.5843154e-39 325 200
0.0088473195 0.84100002 0.05898213 9.4010003e-39 326 200
0.01034642 0.84299999 0.059122398 9.3088047e-39 327 200
0.011824479 0.84299999 0.059122398 9.4013562e-39 328 200
0.013302539 0.84299999 0.059122398 9.3091606e-39 329 200
0.0147806 0.84299999 0.059122398 9.4010003e-39 330 200
0.016258659 0.84299999 0.059122398 9.4010003e-39 331 200
0.01773672 0.84299999 0.059122398 9.0329437e-39 332 200
0.019169193 0.84100002 0.05898213 9.1251393e-39 333 200
0.020643746 0.84100002 0.05898213 8.7567295e-39 334 200
0.0221183 0.84100002 0.05898213 8.7567295e-39 335 200
0.023592854 0.84100002 0.05898213 9.0315241e-39 336 200
0.025067406 0.84100002 0.05898213 9.0315241e-39 337 200
0.026541959 0.84100002 0.05898213 8.4794364e-39 338 200
0.028016513 0.84100002 0.05898213 9.0326088e-39 339 200
0.029420931 0.83899999 0.058841862 8.9432942e-39 340 200
0.030891977 0.83899999 0.058841862 1.0049283e-38 341 200
0.032440174 0.84100002 0.05898213 1.0879021e-38 342 200
0.033914726 0.84100002 0.05898213 1.1432194e-38 343 200
0.03530512 0.83899999 0.058841862 1.2076476e-38 344 200
0.036776166 0.83899999 0.058841862 1.2353061e-38 345 200
0.03815604 0.83700001 0.058701597 1.244561e-38 346 200
0.039623581 0.83700001 0.058701597 1.2630003e-38 347 200
0.041189305 0.83899999 0.058841862 1.2444185e-38 348 200
0.042558659 0.83700001 0.058701597 1.2444185e-38 349 200
0.0440262 0.83700001 0.058701597 1.217052e-38 350 200
0.050872963 0.829 0.058140531 1.6594511e-38 355 200
-0.073771499 0.82499999 0.056413498 1.5118947e-38 269 201
-0.072324999 0.82499999 0.056413498 1.576139e-38 270 201
-0.070878498 0.82499999 0.056413498 1.640676e-38 271 201
-0.069431998 0.82499999 0.056413498 1.695955e-38 272 201
-0.067985497 0.82499999 0.056413498 1.7420168e-38 273 201
-0.066538997 0.82499999 0.056413498 1.7604536e-38 274 201
-0.064934701 0.82300001 0.056276739 1.7788929e-38 275 201
-0.06349171 0.82300001 0.056276739 1.7790733e-38 276 201
-0.062048711 0.82300001 0.056276739 1.7974764e-38 277 201
-0.06060572 0.82300001 0.056276739 1.7974057e-38 278 201
-0.059162725 0.82300001 0.056276739 1.7697831e-38 279 201
-0.057719734 0.82300001 0.056276739 1.788079e-38 280 201
-0.056276739 0.82300001 0.056276739 1.7604563e-38 281 201
-0.054833744 0.82300001 0.056276739 1.751237e-38 282 201
-0.053390753 0.82300001 0.056276739 1.7327619e-38 283 201
-0.052073997 0.82499999 0.056413498 1.7143228e-38 284 201
-0.0506275 0.82499999 0.056413498 1.6867001e-38 285 201
-0.049180996 0.82499999 0.056413498 1.6039032e-38 286 201
-0.047734499 0.82499999 0.056413498 1.5762444e-38 287 201
-0.046400212 0.82700002 0.056550261 1.603687e-38 288 201
-0.044950206 0.82700002 0.056550261 1.585212e-38 289 201
-0.0435002 0.82700002 0.056550261 1.5299668e-38 290 201
-0.04205019 0.82700002 0.056550261 1.5115277e-38 291 201
-0.040600184 0.82700002 0.056550261 1.5114202e-38 292 201
-0.039150178 0.82700002 0.056550261 1.4745778e-38 293 201
-0.037700173 0.82700002 0.056550261 1.4010726e-38 294 201
-0.036250167 0.82700002 0.056550261 1.3826333e-38 295 201
-0.034800157 0.82700002 0.056550261 1.3825614e-38 296 201
-0.033430804 0.829 0.05668702 1.3180245e-38 297 201
-0.031977292 0.829 0.05668702 1.2993333e-38 298 201
-0.030597419 0.83099997 0.056823779 1.2347963e-38 299 201
-0.029210532 0.833 0.056960538 1.1703313e-38 300 201
-0.027750006 0.833 0.056960538 1.1057943e-38 301 201
-0.02628948 0.833 0.056960538 1.0781376e-38 302 201
-0.024828954 0.833 0.056960538 1.0781376e-38 303 201
-0.023368426 0.833 0.056960538 1.0504814e-38 304 201
-0.0219079 0.833 0.056960538 1.059701e-38 305 201
-0.020496465 0.83499998 0.057097297 1.0596657e-38 306 201
-0.01907802 0.83700001 0.05723406 1.0412266e-38 307 201
-0.017610481 0.83700001 0.05723406 9.9545146e-39 308 201
-0.016142938 0.83700001 0.05723406 9.862319e-39 309 201
-0.014710465 0.83899999 0.057370819 9.7697646e-39 310 201
-0.013239419 0.83899999 0.057370819 9.6775676e-39 311 201
-0.011796427 0.84100002 0.057507578 9.5850188e-39 312 201
-0.010321873 0.84100002 0.057507578 9.6772159e-39 313 201
-0.0088473195 0.84100002 0.057507578 9.3087921e-39 314 201
-0.0073727663 0.84100002 0.057507578 9.3087921e-39 315 201
-0.0029491067 0.84100002 0.057507578 9.216609e-39 318 201
-0.0014745534 0.84100002 0.057507578 9.3088047e-39 319 201
0 0.84100002 0.057507578 9.3080886e-39 320 201
0.0014710466 0.83899999 0.057370819 9.4002842e-39 321 201
0.0029420932 0.83899999 0.057370819 9.3080914e-39 322 201
0.0044236598 0.84100002 0.057507578 9.5843182e-39 323 201
0.0058982135 0.84100002 0.057507578 9.2176937e-39 324 201
0.0073727663 0.84100002 0.057507578 9.1251393e-39 325 201
0.00886836 0.84299999 0.057644337 9.0325807e-39 326 201
0.01034642 0.84299999 0.057644337 9.0325807e-39 327 201
0.011824479 0.84299999 0.057644337 9.0325779e-39 328 201
0.013302539 0.84299999 0.057644337 9.0325779e-39 329 201
0.0147806 0.84299999 0.057644337 9.0325779e-39 330 201
0.016258659 0.84299999 0.057644337 9.216609e-39 331 201
0.01773672 0.84299999 0.057644337 8.757433e-39 332 201
0.019214779 0.84299999 0.057644337 8.5730417e-39 333 201
0.02069284 0.84299999 0.057644337 8.8474832e-39 334 201
0.022170898 0.84299999 0.057644337 8.6627318e-39 335 201
0.023648959 0.84299999 0.057644337 8.7542142e-39 336 201
0.02512702 0.84299999 0.057644337 8.9382467e-39 337 201
0.026605079 0.84299999 0.057644337 9.0307955e-39 338 201
0.02808314 0.84299999 0.057644337 8.9385998e-39 339 201
0.029491065 0.84100002 0.057507578 7.83729e-39 340 201
0.030965621 0.84100002 0.057507578 8.2064326e-39 341 201
0.032440174 0.84100002 0.057507578 8.7574484e-39 342 201
0.033914726 0.84100002 0.057507578 9.3106222e-39 343 201
0.03530512 0.83899999 0.057370819 1.0692112e-38 344 201
0.036688499 0.83700001 0.05723406 1.1337481e-38 345 201
0.03815604 0.83700001 0.05723406 1.1981762e-38 346 201
0.039623581 0.83700001 0.05723406 1.2350544e-38 347 201
0.041091122 0.83700001 0.05723406 1.2717526e-38 348 201
0.042456966 0.83499998 0.057097297 1.2994112e-38 349 201
0.043920998 0.83499998 0.057097297 1.2442755e-38 350 201
0.045276325 0.833 0.056960538 1.1797386e-38 351 201
0.046736851 0.833 0.056960538 1.0603557e-38 352 201
0.048081655 0.83099997 0.056823779 1.1525153e-38 353 201
0.049538679 0.83099997 0.056823779 1.2259501e-38 354 201
0.050872963 0.829 0.05668702 1.1706327e-38 355 201
0.052200239 0.82700002 0.056550261 9.8595444e-39 356 201
-0.075217992 0.82499999 0.054966997 1.5762483e-38 268 202
-0.073771499 0.82499999 0.054966997 1.5301505e-38 269 202
-0.072149664 0.82300001 0.054833744 1.6498564e-38 270 202
-0.070706673 0.82300001 0.054833744 1.7143934e-38 271 202
-0.069263682 0.82300001 0.054833744 1.7511625e-38 272 202
-0.067985497 0.82499999 0.054966997 1.7696016e-38 273 202
-0.066538997 0.82499999 0.054966997 1.7789285e-38 274 202
-0.064934701 0.82300001 0.054833744 1.7973676e-38 275 202
-0.06349171 0.82300001 0.054833744 1.7973692e-38 276 202
-0.062048711 0.82300001 0.054833744 1.7973692e-38 277 202
-0.06060572 0.82300001 0.054833744 1.7881146e-38 278 202
-0.059162725 0.82300001 0.054833744 1.778895e-38 279 202
-0.057719734 0.82300001 0.054833744 1.7604566e-38 280 202
-0.056276739 0.82300001 0.054833744 1.7419814e-38 281 202
-0.054833744 0.82300001 0.054833744 1.7235426e-38 282 202
-0.053390753 0.82300001 0.054833744 1.6958841e-38 283 202
-0.051947758 0.82300001 0.054833744 1.6682605e-38 284 202
-0.0506275 0.82499999 0.054966997 1.6313824e-38 285 202
-0.049180996 0.82499999 0.054966997 1.6037236e-38 286 202
-0.047734499 0.82499999 0.054966997 1.5852486e-38 287 202
-0.046400212 0.82700002 0.055100251 1.5576262e-38 288 202
-0.044950206 0.82700002 0.055100251 1.5299315e-38 289 202
-0.0435002 0.82700002 0.055100251 1.4931256e-38 290 202
-0.04205019 0.82700002 0.055100251 1.4746863e-38 291 202
-0.040600184 0.82700002 0.055100251 1.4379157e-38 292 202
-0.039150178 0.82700002 0.055100251 1.4102571e-38 293 202
-0.037700173 0.82700002 0.055100251 1.3733787e-38 294 202
-0.036250167 0.82700002 0.055100251 1.3272809e-38 295 202
-0.034800157 0.82700002 0.055100251 1.2902954e-38 296 202
-0.033430804 0.829 0.055233505 1.2349781e-38 297 202
-0.031977292 0.829 0.055233505 1.2255433e-38 298 202
-0.030597419 0.83099997 0.055366758 1.1886652e-38 299 202
-0.029210532 0.833 0.055500012 1.1241653e-38 300 202
-0.027750006 0.833 0.055500012 1.1057622e-38 301 202
-0.02628948 0.833 0.055500012 1.0872888e-38 302 202
-0.024828954 0.833 0.055500012 1.059666e-38 303 202
-0.023424532 0.83499998 0.055633266 1.0412987e-38 304 202
-0.021960499 0.83499998 0.055633266 1.0412987e-38 305 202
-0.020496465 0.83499998 0.055633266 9.6790165e-39 306 202
-0.01907802 0.83700001 0.055766519 9.6790165e-39 307 202
-0.017610481 0.83700001 0.055766519 9.6786536e-39 308 202
-0.016142938 0.83700001 0.055766519 9.4939036e-39 309 202
-0.014710465 0.83899999 0.055899773 9.5853748e-39 310 202
-0.01327098 0.84100002 0.056033026 9.5853748e-39 311 202
-0.011796427 0.84100002 0.056033026 9.6764956e-39 312 202
-0.010321873 0.84100002 0.056033026 9.5843e-39 313 202
-0.0029491067 0.84100002 0.056033026 8.9396788e-39 318 202
-0.0014745534 0.84100002 0.056033026 9.0318745e-39 319 202
0 0.84100002 0.056033026 9.3066593e-39 320 202
0.0014745534 0.84100002 0.056033026 9.1222694e-39 321 202
0.0029491067 0.84100002 0.056033026 8.7552876e-39 322 202
0.033914726 0.84100002 0.056033026 8.8489434e-39 343 202
0.03530512 0.83899999 0.055899773 9.2173545e-39 344 202
0.036688499 0.83700001 0.055766519 9.7705283e-39 345 202
0.03815604 0.83700001 0.055766519 1.0599193e-38 346 202
0.039623581 0.83700001 0.055766519 1.1244563e-38 347 202
0.041091122 0.83700001 0.055766519 1.1338911e-38 348 202
0.042456966 0.83499998 0.055633266 1.1707692e-38 349 202
0.043920998 0.83499998 0.055633266 1.2348742e-38 350 202
0.045276325 0.833 0.055500012 1.1887766e-38 351 202
0.046736851 0.833 0.055500012 1.0875787e-38 352 202
0.048081655 0.83099997 0.055366758 1.0230418e-38 353 202
0.049538679 0.83099997 0.055366758 1.0044614e-38 354 202
0.050872963 0.829 0.055233505 9.6761901e-39 355 202
0.052200239 0.82700002 0.055100251 7.4645866e-39 356 202
0.053650245 0.82700002 0.055100251 5.2518915e-39 357 202
-0.07629279 0.82099998 0.053261004 1.5028196e-38 267 203
-0.074853301 0.82099998 0.053261004 1.6037251e-38 268 203
-0.073413812 0.82099998 0.053261004 1.6682621e-38 269 203
-0.07197433 0.82099998 0.053261004 1.7235055e-38 270 203
-0.070534848 0.82099998 0.053261004 1.7603836e-38 271 203
-0.069263682 0.82300001 0.053390753 1.7696738e-38 272 203
-0.067820683 0.82300001 0.053390753 1.7788935e-38 273 203
-0.066377692 0.82300001 0.053390753 1.788113e-38 274 203
-0.064776897 0.82099998 0.053261004 1.7973326e-38 275 203
-0.063337415 0.82099998 0.053261004 1.815701e-38 276 203
-0.061897919 0.82099998 0.053261004 1.7880424e-38 277 203
-0.060458437 0.82099998 0.053261004 1.8063742e-38 278 203
-0.059162725 0.82300001 0.053390753 1.7787155e-38 279 203
-0.057719734 0.82300001 0.053390753 1.7695682e-38 280 203
-0.056276739 0.82300001 0.053390753 1.7234704e-38 281 203
-0.05470049 0.82099998 0.053261004 1.7142156e-38 282 203
-0.053261004 0.82099998 0.053261004 1.6865567e-38 283 203
-0.051947758 0.82300001 0.053390753 1.6588259e-38 284 203
-0.050504766 0.82300001 0.053390753 1.6311672e-38 285 203
-0.049061771 0.82300001 0.053390753 1.5944321e-38 286 203
-0.047734499 0.82499999 0.053520497 1.5667374e-38 287 203
-0.046287999 0.82499999 0.053520497 1.5298952e-38 288 203
-0.044841498 0.82499999 0.053520497 1.5114202e-38 289 203
-0.0435002 0.82700002 0.053650245 1.4746494e-38 290 203
-0.04205019 0.82700002 0.053650245 1.4469907e-38 291 203
-0.040600184 0.82700002 0.053650245 1.4376989e-38 292 203
-0.039150178 0.82700002 0.053650245 1.4100762e-38 293 203
-0.037700173 0.82700002 0.053650245 1.345539e-38 294 203
-0.036250167 0.82700002 0.053650245 1.2901856e-38 295 203
-0.034800157 0.82700002 0.053650245 1.2255786e-38 296 203
-0.033430804 0.829 0.053779993 1.1702612e-38 297 203
-0.031977292 0.829 0.053779993 1.1608641e-38 298 203
-0.030597419 0.83099997 0.053909738 1.1516445e-38 299 203
-0.029210532 0.833 0.054039486 1.1148383e-38 300 203
-0.027750006 0.833 0.054039486 1.096399e-38 301 203
-0.02628948 0.833 0.054039486 1.068848e-38 302 203
-0.024828954 0.833 0.054039486 1.0596284e-38 303 203
-0.023424532 0.83499998 0.05416923 1.0136755e-38 304 203
-0.021960499 0.83499998 0.05416923 1.0228951e-38 305 203
-0.020496465 0.83499998 0.05416923 9.6782977e-39 306 203
-0.01907802 0.83700001 0.054298978 9.586102e-39 307 203
-0.017610481 0.83700001 0.054298978 9.6772215e-39 308 203
-0.016181514 0.83899999 0.054428723 9.4006346e-39 309 203
-0.014710465 0.83899999 0.054428723 9.0325751e-39 310 203
0.035389278 0.84100002 0.054558471 9.2166357e-39 344 203
0.036776166 0.83899999 0.054428723 8.5712663e-39 345 203
0.03815604 0.83700001 0.054298978 9.6732936e-39 346 203
0.039623581 0.83700001 0.054298978 1.0595251e-38 347 203
0.041091122 0.83700001 0.054298978 1.0414471e-38 348 203
