# .PCD v.7 - Point Cloud Data file format
FIELDS x y z rgb imX imY
SIZE 4 4 4 4 4 4
TYPE F F F F F F
COUNT 1 1 1 1 1 1
WIDTH 843
HEIGHT 1
VIEWPOINT 0 0 0 1 0 0 0
POINTS 843
DATA ascii
0.031135695 0.68300003 0.0023950534 1.1576654e-38 346 238
0.032380559 0.68400002 0.0023985601 1.1576654e-38 347 238
0.033678025 0.68599999 0.0024055731 1.1117117e-38 348 238
0.034880809 0.68599999 0.0024055731 1.0840535e-38 349 238
0.036136195 0.68699998 0.0024090798 1.0381716e-38 350 238
0.037340738 0.68699998 0.0024090798 1.3331605e-38 351 238
-0.046039023 0.69099998 0.0012115532 1.3423049e-38 282 239
-0.0447626 0.69 0.0012097999 1.3515243e-38 283 239
-0.043552797 0.69 0.0012097999 1.3421256e-38 284 239
-0.042158898 0.68699998 0.0012045399 1.3237226e-38 285 239
-0.040894743 0.68599999 0.0012027866 1.3511297e-38 286 239
-0.03957624 0.68400002 0.00119928 1.3511297e-38 287 239
-0.038320854 0.68300003 0.0011975267 1.3783934e-38 288 239
-0.037068974 0.68199998 0.0011957732 1.350771e-38 289 239
-0.035873197 0.68199998 0.0011957732 1.3691381e-38 290 239
-0.034677424 0.68199998 0.0011957732 1.3507351e-38 291 239
-0.03348165 0.68199998 0.0011957732 1.3507351e-38 292 239
-0.032285877 0.68199998 0.0011957732 1.3507351e-38 293 239
-0.030998932 0.68000001 0.0011922666 1.3598469e-38 294 239
-0.029806666 0.68000001 0.0011922666 1.3598469e-38 295 239
-0.028614398 0.68000001 0.0011922666 1.3322963e-38 296 239
-0.027341479 0.67799997 0.0011887599 1.3138216e-38 297 239
-0.026152719 0.67799997 0.0011887599 1.3505199e-38 298 239
-0.024890319 0.676 0.0011852533 1.3413005e-38 299 239
-0.023705067 0.676 0.0011852533 1.3137139e-38 300 239
-0.022519812 0.676 0.0011852533 1.3044945e-38 301 239
-0.021397678 0.67799997 0.0011887599 1.332081e-38 302 239
-0.020149305 0.676 0.0011852533 1.3505199e-38 303 239
-0.018964052 0.676 0.0011852533 1.3322604e-38 304 239
-0.017778801 0.676 0.0011852533 1.3045663e-38 305 239
-0.016593546 0.676 0.0011852533 1.3228258e-38 306 239
-0.015408293 0.676 0.0011852533 1.2952034e-38 307 239
-0.014265119 0.67799997 0.0011887599 1.2769439e-38 308 239
-0.013076359 0.67799997 0.0011887599 1.2676886e-38 309 239
-0.011887599 0.67799997 0.0011887599 1.2676168e-38 310 239
-0.010698839 0.67799997 0.0011887599 1.2676168e-38 311 239
-0.0095100794 0.67799997 0.0011887599 1.2126232e-38 312 239
-0.0083213197 0.67799997 0.0011887599 1.1480872e-38 313 239
-0.0071325595 0.67799997 0.0011887599 9.9211034e-39 314 239
-0.0059437994 0.67799997 0.0011887599 1.0105133e-38 315 239
-0.0047550397 0.67799997 0.0011887599 1.0660092e-38 316 239
-0.0035505001 0.67500001 0.0011834999 1.1674592e-38 317 239
-0.0023669999 0.67500001 0.0011834999 1.3140368e-38 318 239
-0.0011834999 0.67500001 0.0011834999 1.3140368e-38 319 239
0 0.67500001 0.0011834999 1.323328e-38 320 239
0.0011834999 0.67500001 0.0011834999 1.323328e-38 321 239
0.0023669999 0.67500001 0.0011834999 1.3508428e-38 322 239
0.0035505001 0.67500001 0.0011834999 1.3508428e-38 323 239
0.0047339997 0.67500001 0.0011834999 1.3507351e-38 324 239
0.0059174998 0.67500001 0.0011834999 1.3415157e-38 325 239
0.0070904801 0.67400002 0.0011817467 1.3415875e-38 326 239
0.0082722269 0.67400002 0.0011817467 1.3508069e-38 327 239
0.0094679995 0.67500001 0.0011834999 1.3139651e-38 328 239
0.0106515 0.67500001 0.0011834999 1.3047456e-38 329 239
0.011835 0.67500001 0.0011834999 1.3229692e-38 330 239
0.0130185 0.67500001 0.0011834999 1.3044945e-38 331 239
0.014202001 0.67500001 0.0011834999 1.2952751e-38 332 239
0.015408293 0.676 0.0011852533 1.2952751e-38 333 239
0.016593546 0.676 0.0011852533 1.2769439e-38 334 239
0.017778801 0.676 0.0011852533 1.2861633e-38 335 239
0.018964052 0.676 0.0011852533 1.2770156e-38 336 239
0.020208918 0.67799997 0.0011887599 1.2677962e-38 337 239
0.021397678 0.67799997 0.0011887599 1.2218785e-38 338 239
0.022586439 0.67799997 0.0011887599 1.2218785e-38 339 239
0.023810266 0.67900002 0.0011905134 1.2034037e-38 340 239
0.025037598 0.68000001 0.0011922666 1.2034037e-38 341 239
0.026229866 0.68000001 0.0011922666 1.1759248e-38 342 239
0.027502786 0.68199998 0.0011957732 1.1759248e-38 343 239
0.02869856 0.68199998 0.0011957732 1.1575936e-38 344 239
0.029938167 0.68300003 0.0011975267 1.1575936e-38 345 239
0.031135695 0.68300003 0.0011975267 1.1575936e-38 346 239
0.032380559 0.68400002 0.00119928 1.1575936e-38 347 239
0.033678025 0.68599999 0.0012027866 1.1116041e-38 348 239
0.034880809 0.68599999 0.0012027866 1.0932011e-38 349 239
0.036083598 0.68599999 0.0012027866 1.0289163e-38 350 239
0.037286382 0.68599999 0.0012027866 1.370039e-38 351 239
0.03848917 0.68599999 0.0012027866 1.1607626e-38 352 239
-0.046039023 0.69099998 -0 1.3239021e-38 282 240
-0.044632856 0.68800002 -0 1.3146825e-38 283 240
-0.043363437 0.68699998 -0 1.3421256e-38 284 240
-0.042097531 0.68599999 -0 1.3144673e-38 285 240
-0.040775519 0.68400002 -0 1.3511297e-38 286 240
-0.039518382 0.68300003 -0 1.3234715e-38 287 240
-0.038264744 0.68199998 -0 1.3509145e-38 288 240
-0.037068974 0.68199998 -0 1.3324757e-38 289 240
-0.035873197 0.68199998 -0 1.3232562e-38 290 240
-0.034575731 0.68000001 -0 1.3232562e-38 291 240
-0.033383466 0.68000001 -0 1.3232562e-38 292 240
-0.032191198 0.68000001 -0 1.3232562e-38 293 240
-0.030998932 0.68000001 -0 1.3232562e-38 294 240
-0.029762832 0.67900002 -0 1.3140368e-38 295 240
-0.028572321 0.67900002 -0 1.3139292e-38 296 240
-0.027341479 0.67799997 -0 1.2954903e-38 297 240
-0.026075572 0.676 -0 1.3045663e-38 298 240
-0.024890319 0.676 -0 1.2861633e-38 299 240
-0.023669999 0.67500001 -0 1.2860557e-38 300 240
-0.022486499 0.67500001 -0 1.2952751e-38 301 240
-0.021334561 0.676 -0 1.2954545e-38 302 240
-0.020149305 0.676 -0 1.3046739e-38 303 240
-0.018964052 0.676 -0 1.3137857e-38 304 240
-0.017778801 0.676 -0 1.3045663e-38 305 240
-0.016593546 0.676 -0 1.2770156e-38 306 240
-0.015408293 0.676 -0 1.2677603e-38 307 240
-0.014223038 0.676 -0 1.2493574e-38 308 240
-0.013076359 0.67799997 -0 1.2493574e-38 309 240
-0.011887599 0.67799997 -0 1.2584692e-38 310 240
-0.010698839 0.67799997 -0 1.2676886e-38 311 240
-0.0095100794 0.67799997 -0 1.2583974e-38 312 240
-0.0083213197 0.67799997 -0 1.2583974e-38 313 240
-0.0071325595 0.67799997 -0 1.221735e-38 314 240
-0.0059262668 0.676 -0 1.2309544e-38 315 240
-0.0047410131 0.676 -0 1.2129819e-38 316 240
-0.0035557596 0.676 -0 1.2314207e-38 317 240
-0.0023669999 0.67500001 -0 1.3139292e-38 318 240
-0.0011834999 0.67500001 -0 1.3415875e-38 319 240
0 0.67400002 -0 1.3415875e-38 320 240
0.0011817467 0.67400002 -0 1.3415875e-38 321 240
0.0023634934 0.67400002 -0 1.3415875e-38 322 240
0.00354524 0.67400002 -0 1.3508069e-38 323 240
0.0047269869 0.67400002 -0 1.3691381e-38 324 240
0.0059087332 0.67400002 -0 1.3507351e-38 325 240
0.0070904801 0.67400002 -0 1.3415875e-38 326 240
0.0082722269 0.67400002 -0 1.332368e-38 327 240
0.0094539737 0.67400002 -0 1.2955621e-38 328 240
0.01063572 0.67400002 -0 1.2679397e-38 329 240
0.011817466 0.67400002 -0 1.2769439e-38 330 240
0.0130185 0.67500001 -0 1.2769439e-38 331 240
0.014202001 0.67500001 -0 1.249465e-38 332 240
0.0153855 0.67500001 -0 1.249465e-38 333 240
0.016569 0.67500001 -0 1.2218785e-38 334 240
0.017778801 0.676 -0 1.2218785e-38 335 240
0.018964052 0.676 -0 1.2310979e-38 336 240
0.020149305 0.676 -0 1.2310979e-38 337 240
0.021397678 0.67799997 -0 1.2126232e-38 338 240
0.022586439 0.67799997 -0 1.2126232e-38 339 240
0.023810266 0.67900002 -0 1.1941843e-38 340 240
0.025000781 0.67900002 -0 1.184929e-38 341 240
0.026229866 0.68000001 -0 1.1575577e-38 342 240
0.027502786 0.68199998 -0 1.1575577e-38 343 240
0.02869856 0.68199998 -0 1.1300071e-38 344 240
0.029938167 0.68300003 -0 1.1115324e-38 345 240
0.031135695 0.68300003 -0 1.1116041e-38 346 240
0.032380559 0.68400002 -0 1.1116041e-38 347 240
0.033678025 0.68599999 -0 1.0933446e-38 348 240
0.034880809 0.68599999 -0 1.0564669e-38 349 240
0.036083598 0.68599999 -0 1.0105492e-38 350 240
0.037177678 0.68400002 -0 1.4070254e-38 351 240
0.038376961 0.68400002 -0 1.1795257e-38 352 240
-0.044632856 0.68800002 -0.0012062934 1.3236508e-38 283 241
-0.043363437 0.68699998 -0.0012045399 1.3237585e-38 284 241
-0.041974798 0.68400002 -0.00119928 1.3237585e-38 285 241
-0.040715907 0.68300003 -0.0011975267 1.3510939e-38 286 241
-0.039460517 0.68199998 -0.0011957732 1.3234356e-38 287 241
-0.038264744 0.68199998 -0.0011957732 1.3324757e-38 288 241
-0.036960267 0.68000001 -0.0011922666 1.3324757e-38 289 241
-0.035767999 0.68000001 -0.0011922666 1.3415875e-38 290 241
-0.034575731 0.68000001 -0.0011922666 1.332368e-38 291 241
-0.033383466 0.68000001 -0.0011922666 1.332368e-38 292 241
-0.032191198 0.68000001 -0.0011922666 1.3415875e-38 293 241
-0.030953348 0.67900002 -0.0011905134 1.332368e-38 294 241
-0.029762832 0.67900002 -0.0011905134 1.3139651e-38 295 241
-0.028530238 0.67799997 -0.0011887599 1.3139292e-38 296 241
-0.027260827 0.676 -0.0011852533 1.3047098e-38 297 241
-0.026075572 0.676 -0.0011852533 1.3045663e-38 298 241
-0.0248535 0.67500001 -0.0011834999 1.2769439e-38 299 241
-0.023669999 0.67500001 -0.0011834999 1.2769439e-38 300 241
-0.022486499 0.67500001 -0.0011834999 1.2769439e-38 301 241
-0.021334561 0.676 -0.0011852533 1.2861633e-38 302 241
-0.020149305 0.676 -0.0011852533 1.3045663e-38 303 241
-0.018964052 0.676 -0.0011852533 1.3044945e-38 304 241
-0.017778801 0.676 -0.0011852533 1.2952751e-38 305 241
-0.016593546 0.676 -0.0011852533 1.2769439e-38 306 241
-0.015408293 0.676 -0.0011852533 1.2676886e-38 307 241
-0.014223038 0.676 -0.0011852533 1.2676886e-38 308 241
-0.013037786 0.676 -0.0011852533 1.2584692e-38 309 241
-0.011887599 0.67799997 -0.0011887599 1.2401379e-38 310 241
-0.010698839 0.67799997 -0.0011887599 1.2493574e-38 311 241
-0.0095100794 0.67799997 -0.0011887599 1.2586485e-38 312 241
-0.0083213197 0.67799997 -0.0011887599 1.2402097e-38 313 241
-0.0071115191 0.676 -0.0011852533 1.2495367e-38 314 241
-0.0059262668 0.676 -0.0011852533 1.2679756e-38 315 241
-0.0047410131 0.676 -0.0011852533 1.286235e-38 316 241
-0.0035557596 0.676 -0.0011852533 1.2954903e-38 317 241
-0.0023669999 0.67500001 -0.0011834999 1.323041e-38 318 241
-0.0011834999 0.67500001 -0.0011834999 1.323041e-38 319 241
0 0.67400002 -0.0011817467 1.3506275e-38 320 241
0.0011817467 0.67400002 -0.0011817467 1.3506275e-38 321 241
0.0023634934 0.67400002 -0.0011817467 1.3322963e-38 322 241
0.00354524 0.67400002 -0.0011817467 1.3415157e-38 323 241
0.0047269869 0.67400002 -0.0011817467 1.3415875e-38 324 241
0.0059087332 0.67400002 -0.0011817467 1.3415875e-38 325 241
0.0070694401 0.67199999 -0.0011782399 1.3139651e-38 326 241
0.00824768 0.67199999 -0.0011782399 1.3047456e-38 327 241
0.0094259195 0.67199999 -0.0011782399 1.2861633e-38 328 241
0.010604159 0.67199999 -0.0011782399 1.2769439e-38 329 241
0.011817466 0.67400002 -0.0011817467 1.2676886e-38 330 241
0.012999214 0.67400002 -0.0011817467 1.2676886e-38 331 241
0.01418096 0.67400002 -0.0011817467 1.2402097e-38 332 241
0.0153855 0.67500001 -0.0011834999 1.2309903e-38 333 241
0.016569 0.67500001 -0.0011834999 1.2402097e-38 334 241
0.0177525 0.67500001 -0.0011834999 1.2402097e-38 335 241
0.018935999 0.67500001 -0.0011834999 1.2309544e-38 336 241
0.020149305 0.676 -0.0011852533 1.221735e-38 337 241
0.021334561 0.676 -0.0011852533 1.203332e-38 338 241
0.022586439 0.67799997 -0.0011887599 1.203332e-38 339 241
0.023775198 0.67799997 -0.0011887599 1.1758172e-38 340 241
0.025000781 0.67900002 -0.0011905134 1.1758172e-38 341 241
0.026229866 0.68000001 -0.0011922666 1.1482666e-38 342 241
0.027422134 0.68000001 -0.0011922666 1.1482666e-38 343 241
0.02869856 0.68199998 -0.0011957732 1.1298636e-38 344 241
0.029938167 0.68300003 -0.0011975267 1.139083e-38 345 241
0.031135695 0.68300003 -0.0011975267 1.1116041e-38 346 241
0.032380559 0.68400002 -0.00119928 1.1116041e-38 347 241
0.033678025 0.68599999 -0.0012027866 1.0933446e-38 348 241
0.034880809 0.68599999 -0.0012027866 1.0657222e-38 349 241
0.036083598 0.68599999 -0.0012027866 9.9218209e-39 350 241
0.037177678 0.68400002 -0.00119928 1.4531595e-38 351 241
0.038376961 0.68400002 -0.00119928 1.1889977e-38 352 241
-0.043363437 0.68699998 -0.0024090798 1.2961719e-38 284 242
-0.041974798 0.68400002 -0.0023985601 1.2777331e-38 285 242
-0.040715907 0.68300003 -0.0023950534 1.3142879e-38 286 242
-0.039460517 0.68199998 -0.0023915465 1.2958132e-38 287 242
-0.038264744 0.68199998 -0.0023915465 1.3049967e-38 288 242
-0.036960267 0.68000001 -0.0023845332 1.2957773e-38 289 242
-0.035767999 0.68000001 -0.0023845332 1.3140368e-38 290 242
-0.034575731 0.68000001 -0.0023845332 1.3140368e-38 291 242
-0.033383466 0.68000001 -0.0023845332 1.3141086e-38 292 242
-0.032191198 0.68000001 -0.0023845332 1.2957056e-38 293 242
-0.030953348 0.67900002 -0.0023810267 1.3141086e-38 294 242
-0.029718997 0.67799997 -0.0023775198 1.2957056e-38 295 242
-0.028530238 0.67799997 -0.0023775198 1.2956697e-38 296 242
-0.027260827 0.676 -0.0023705065 1.2864503e-38 297 242
-0.026075572 0.676 -0.0023705065 1.2863068e-38 298 242
-0.0248535 0.67500001 -0.0023669999 1.2679038e-38 299 242
-0.023669999 0.67500001 -0.0023669999 1.2770156e-38 300 242
-0.022486499 0.67500001 -0.0023669999 1.2493932e-38 301 242
-0.021303 0.67500001 -0.0023669999 1.2494291e-38 302 242
-0.020149305 0.676 -0.0023705065 1.2494291e-38 303 242
-0.018964052 0.676 -0.0023705065 1.2493574e-38 304 242
-0.017778801 0.676 -0.0023705065 1.2401379e-38 305 242
-0.016593546 0.676 -0.0023705065 1.2401379e-38 306 242
-0.015408293 0.676 -0.0023705065 1.2401379e-38 307 242
-0.014223038 0.676 -0.0023705065 1.2308826e-38 308 242
-0.013037786 0.676 -0.0023705065 1.2401379e-38 309 242
-0.011887599 0.67799997 -0.0023775198 1.2126232e-38 310 242
-0.010698839 0.67799997 -0.0023775198 1.2310979e-38 311 242
-0.0095100794 0.67799997 -0.0023775198 1.2587203e-38 312 242
-0.0083213197 0.67799997 -0.0023775198 1.2310979e-38 313 242
-0.0071115191 0.676 -0.0023705065 1.286235e-38 314 242
-0.0059262668 0.676 -0.0023705065 1.2770156e-38 315 242
-0.0047410131 0.676 -0.0023705065 1.3045663e-38 316 242
-0.0035557596 0.676 -0.0023705065 1.3045663e-38 317 242
-0.0023669999 0.67500001 -0.0023669999 1.3137498e-38 318 242
-0.0011834999 0.67500001 -0.0023669999 1.3137498e-38 319 242
0 0.67400002 -0.0023634934 1.3138216e-38 320 242
0.0011817467 0.67400002 -0.0023634934 1.3138216e-38 321 242
0.0023634934 0.67400002 -0.0023634934 1.3047098e-38 322 242
0.00354524 0.67400002 -0.0023634934 1.3139292e-38 323 242
0.0047269869 0.67400002 -0.0023634934 1.2956697e-38 324 242
0.0059087332 0.67400002 -0.0023634934 1.2772309e-38 325 242
0.0070694401 0.67199999 -0.0023564799 1.2863068e-38 326 242
0.00824768 0.67199999 -0.0023564799 1.2586844e-38 327 242
0.0094259195 0.67199999 -0.0023564799 1.2677962e-38 328 242
0.010604159 0.67199999 -0.0023564799 1.2493932e-38 329 242
0.011782399 0.67199999 -0.0023564799 1.2218785e-38 330 242
0.012960639 0.67199999 -0.0023564799 1.2218785e-38 331 242
0.01418096 0.67400002 -0.0023634934 1.212659e-38 332 242
0.015362706 0.67400002 -0.0023634934 1.212659e-38 333 242
0.016569 0.67500001 -0.0023669999 1.1850725e-38 334 242
0.0177525 0.67500001 -0.0023669999 1.1850725e-38 335 242
0.018935999 0.67500001 -0.0023669999 1.1850725e-38 336 242
0.020149305 0.676 -0.0023705065 1.1758172e-38 337 242
0.021334561 0.676 -0.0023705065 1.1758172e-38 338 242
0.022586439 0.67799997 -0.0023775198 1.1850725e-38 339 242
0.023775198 0.67799997 -0.0023775198 1.1666695e-38 340 242
0.025000781 0.67900002 -0.0023810267 1.1666695e-38 341 242
0.026229866 0.68000001 -0.0023845332 1.1483383e-38 342 242
0.027422134 0.68000001 -0.0023845332 1.139083e-38 343 242
0.02869856 0.68199998 -0.0023915465 1.1115324e-38 344 242
0.029938167 0.68300003 -0.0023950534 1.1115324e-38 345 242
0.031135695 0.68300003 -0.0023950534 1.0749417e-38 346 242
0.032380559 0.68400002 -0.0023985601 1.0657222e-38 347 242
0.033678025 0.68599999 -0.0024055731 1.0657581e-38 348 242
0.034880809 0.68599999 -0.0024055731 1.0288804e-38 349 242
0.035978399 0.68400002 -0.0023985601 9.8303441e-39 350 242
0.037177678 0.68400002 -0.0023985601 1.5177691e-38 351 242
0.038376961 0.68400002 -0.0023985601 1.2444595e-38 352 242
-0.043363437 0.68699998 -0.0036136196 1.2776613e-38 284 243
-0.041974798 0.68400002 -0.00359784 1.2591866e-38 285 243
-0.040715907 0.68300003 -0.0035925799 1.2957415e-38 286 243
-0.039460517 0.68199998 -0.00358732 1.2957415e-38 287 243
-0.038152531 0.68000001 -0.0035767998 1.2957773e-38 288 243
-0.036960267 0.68000001 -0.0035767998 1.2957773e-38 289 243
-0.035767999 0.68000001 -0.0035767998 1.2957773e-38 290 243
-0.034575731 0.68000001 -0.0035767998 1.2957773e-38 291 243
-0.033383466 0.68000001 -0.0035767998 1.2774102e-38 292 243
-0.032143861 0.67900002 -0.0035715401 1.2958132e-38 293 243
-0.030907756 0.67799997 -0.0035662798 1.2958132e-38 294 243
-0.029718997 0.67799997 -0.0035662798 1.3050685e-38 295 243
-0.028446076 0.676 -0.0035557596 1.2959567e-38 296 243
-0.027260827 0.676 -0.0035557596 1.2959567e-38 297 243
-0.026037 0.67500001 -0.0035505001 1.2867014e-38 298 243
-0.0248535 0.67500001 -0.0035505001 1.2406402e-38 299 243
-0.023634933 0.67400002 -0.00354524 1.2586844e-38 300 243
-0.022453187 0.67400002 -0.00354524 1.2402097e-38 301 243
-0.021303 0.67500001 -0.0035505001 1.2309903e-38 302 243
-0.020119499 0.67500001 -0.0035505001 1.2309903e-38 303 243
-0.018935999 0.67500001 -0.0035505001 1.221735e-38 304 243
-0.017778801 0.676 -0.0035557596 1.221735e-38 305 243
-0.016593546 0.676 -0.0035557596 1.221735e-38 306 243
-0.015408293 0.676 -0.0035557596 1.203332e-38 307 243
-0.014223038 0.676 -0.0035557596 1.2124438e-38 308 243
-0.013037786 0.676 -0.0035557596 1.2216632e-38 309 243
-0.011852534 0.676 -0.0035557596 1.212659e-38 310 243
-0.01066728 0.676 -0.0035557596 1.2218785e-38 311 243
-0.0094820261 0.676 -0.0035557596 1.2495367e-38 312 243
-0.0082967728 0.676 -0.0035557596 1.2495367e-38 313 243
-0.0071115191 0.676 -0.0035557596 1.2770156e-38 314 243
-0.0059262668 0.676 -0.0035557596 1.2770156e-38 315 243
-0.0047339997 0.67500001 -0.0035505001 1.2861633e-38 316 243
-0.0035505001 0.67500001 -0.0035505001 1.2861633e-38 317 243
-0.0023669999 0.67500001 -0.0035505001 1.2861633e-38 318 243
-0.0011817467 0.67400002 -0.00354524 1.3045663e-38 319 243
0 0.67400002 -0.00354524 1.2861633e-38 320 243
0.0011817467 0.67400002 -0.00354524 1.3045663e-38 321 243
0.0023634934 0.67400002 -0.00354524 1.2679038e-38 322 243
0.00353472 0.67199999 -0.00353472 1.2863068e-38 323 243
0.0047129598 0.67199999 -0.00353472 1.2587561e-38 324 243
0.0058911997 0.67199999 -0.00353472 1.2495367e-38 325 243
0.0070694401 0.67199999 -0.00353472 1.2494291e-38 326 243
0.00824768 0.67199999 -0.00353472 1.2402097e-38 327 243
0.0094259195 0.67199999 -0.00353472 1.2126232e-38 328 243
0.010604159 0.67199999 -0.00353472 1.2034037e-38 329 243
0.011782399 0.67199999 -0.00353472 1.2034755e-38 330 243
0.012960639 0.67199999 -0.00353472 1.1850725e-38 331 243
0.01413888 0.67199999 -0.00353472 1.1941843e-38 332 243
0.015362706 0.67400002 -0.00354524 1.1941843e-38 333 243
0.016544454 0.67400002 -0.00354524 1.1758531e-38 334 243
0.0177525 0.67500001 -0.0035505001 1.1850725e-38 335 243
0.018935999 0.67500001 -0.0035505001 1.1759248e-38 336 243
0.020149305 0.676 -0.0035557596 1.1759248e-38 337 243
0.021397678 0.67799997 -0.0035662798 1.1484101e-38 338 243
0.022586439 0.67799997 -0.0035662798 1.1484101e-38 339 243
0.023810266 0.67900002 -0.0035715401 1.1300071e-38 340 243
0.025000781 0.67900002 -0.0035715401 1.1207877e-38 341 243
0.026229866 0.68000001 -0.0035767998 1.1207518e-38 342 243
0.027422134 0.68000001 -0.0035767998 1.1115324e-38 343 243
0.028740639 0.68300003 -0.0035925799 1.0839817e-38 344 243
0.029938167 0.68300003 -0.0035925799 1.0839817e-38 345 243
0.031135695 0.68300003 -0.0035925799 1.0564669e-38 346 243
0.032380559 0.68400002 -0.00359784 1.0564669e-38 347 243
0.033579841 0.68400002 -0.00359784 1.0381716e-38 348 243
0.03477912 0.68400002 -0.00359784 1.0105133e-38 349 243
0.035978399 0.68400002 -0.00359784 9.9225426e-39 350 243
0.037177678 0.68400002 -0.00359784 1.5915259e-38 351 243
-0.044567976 0.68699998 -0.0048181596 1.2408913e-38 283 244
-0.043300316 0.68599999 -0.0048111463 1.2682267e-38 284 244
-0.041974798 0.68400002 -0.0047971201 1.2406043e-38 285 244
-0.040715907 0.68300003 -0.0047901068 1.2589355e-38 286 244
-0.039460517 0.68199998 -0.004783093 1.2681549e-38 287 244
-0.038152531 0.68000001 -0.0047690663 1.2774102e-38 288 244
-0.036960267 0.68000001 -0.0047690663 1.2774102e-38 289 244
-0.035767999 0.68000001 -0.0047690663 1.2774102e-38 290 244
-0.034575731 0.68000001 -0.0047690663 1.2958132e-38 291 244
-0.033383466 0.68000001 -0.0047690663 1.277482e-38 292 244
-0.032143861 0.67900002 -0.0047620535 1.2867014e-38 293 244
-0.030907756 0.67799997 -0.0047550397 1.2684419e-38 294 244
-0.029718997 0.67799997 -0.0047550397 1.3052837e-38 295 244
-0.028446076 0.676 -0.0047410131 1.2779125e-38 296 244
-0.027260827 0.676 -0.0047410131 1.2963513e-38 297 244
-0.026037 0.67500001 -0.0047339997 1.2776972e-38 298 244
-0.0248535 0.67500001 -0.0047339997 1.2223807e-38 299 244
-0.023634933 0.67400002 -0.0047269869 1.2495367e-38 300 244
-0.022453187 0.67400002 -0.0047269869 1.2218785e-38 301 244
-0.021303 0.67500001 -0.0047339997 1.2217708e-38 302 244
-0.020119499 0.67500001 -0.0047339997 1.2217708e-38 303 244
-0.018935999 0.67500001 -0.0047339997 1.203332e-38 304 244
-0.0177525 0.67500001 -0.0047339997 1.203332e-38 305 244
-0.016569 0.67500001 -0.0047339997 1.2124079e-38 306 244
-0.0153855 0.67500001 -0.0047339997 1.2124079e-38 307 244
-0.014202001 0.67500001 -0.0047339997 1.1940767e-38 308 244
-0.013037786 0.676 -0.0047410131 1.2032961e-38 309 244
-0.011852534 0.676 -0.0047410131 1.2034037e-38 310 244
-0.01066728 0.676 -0.0047410131 1.2126232e-38 311 244
-0.0094820261 0.676 -0.0047410131 1.2310979e-38 312 244
-0.0082967728 0.676 -0.0047410131 1.2495008e-38 313 244
-0.0071115191 0.676 -0.0047410131 1.2770156e-38 314 244
-0.0059174998 0.67500001 -0.0047339997 1.2677962e-38 315 244
-0.0047339997 0.67500001 -0.0047339997 1.2769439e-38 316 244
-0.0035505001 0.67500001 -0.0047339997 1.2769439e-38 317 244
-0.0023634934 0.67400002 -0.0047269869 1.2770156e-38 318 244
-0.0011817467 0.67400002 -0.0047269869 1.2770156e-38 319 244
0 0.67199999 -0.0047129598 1.2677603e-38 320 244
0.0011782399 0.67199999 -0.0047129598 1.2677603e-38 321 244
0.0023564799 0.67199999 -0.0047129598 1.2494291e-38 322 244
0.00353472 0.67199999 -0.0047129598 1.2494291e-38 323 244
0.0047129598 0.67199999 -0.0047129598 1.2402097e-38 324 244
0.0058824331 0.671 -0.0047059464 1.2309903e-38 325 244
0.0070589199 0.671 -0.0047059464 1.2126232e-38 326 244
0.0082354061 0.671 -0.0047059464 1.2034037e-38 327 244
0.0094118929 0.671 -0.0047059464 1.1941843e-38 328 244
0.01058838 0.671 -0.0047059464 1.1941843e-38 329 244
0.011782399 0.67199999 -0.0047129598 1.184929e-38 330 244
0.012960639 0.67199999 -0.0047129598 1.184929e-38 331 244
0.01413888 0.67199999 -0.0047129598 1.184929e-38 332 244
0.01531712 0.67199999 -0.0047129598 1.184929e-38 333 244
0.016544454 0.67400002 -0.0047269869 1.1665978e-38 334 244
0.0177525 0.67500001 -0.0047339997 1.1758172e-38 335 244
0.018935999 0.67500001 -0.0047339997 1.1483383e-38 336 244
0.020149305 0.676 -0.0047410131 1.1575577e-38 337 244
0.021334561 0.676 -0.0047410131 1.1484101e-38 338 244
0.022586439 0.67799997 -0.0047550397 1.1300071e-38 339 244
0.023775198 0.67799997 -0.0047550397 1.1207518e-38 340 244
0.025000781 0.67900002 -0.0047620535 1.1207518e-38 341 244
0.026191294 0.67900002 -0.0047620535 1.1115324e-38 342 244
0.027422134 0.68000001 -0.0047690663 1.1115324e-38 343 244
0.028740639 0.68300003 -0.0047901068 1.0932011e-38 344 244
0.029938167 0.68300003 -0.0047901068 1.0839458e-38 345 244
0.031135695 0.68300003 -0.0047901068 1.0655787e-38 346 244
0.032380559 0.68400002 -0.0047971201 1.0655787e-38 347 244
0.033579841 0.68400002 -0.0047971201 1.0381716e-38 348 244
0.03477912 0.68400002 -0.0047971201 1.0104774e-38 349 244
0.035978399 0.68400002 -0.0047971201 1.0200215e-38 350 244
0.037177678 0.68400002 -0.0047971201 1.6285487e-38 351 244
-0.044567976 0.68699998 -0.0060226996 1.2131971e-38 283 245
-0.043300316 0.68599999 -0.0060139326 1.2406043e-38 284 245
-0.041974798 0.68400002 -0.0059964 1.2313849e-38 285 245
-0.040715907 0.68300003 -0.0059876335 1.2589714e-38 286 245
-0.039460517 0.68199998 -0.005978866 1.2681908e-38 287 245
-0.038152531 0.68000001 -0.0059613334 1.2590431e-38 288 245
-0.036960267 0.68000001 -0.0059613334 1.2406043e-38 289 245
-0.035767999 0.68000001 -0.0059613334 1.2590431e-38 290 245
-0.034524884 0.67900002 -0.0059525664 1.2682626e-38 291 245
-0.033334374 0.67900002 -0.0059525664 1.2592225e-38 292 245
-0.032143861 0.67900002 -0.0059525664 1.2776972e-38 293 245
-0.030907756 0.67799997 -0.0059437994 1.2687648e-38 294 245
-0.029718997 0.67799997 -0.0059437994 1.2964232e-38 295 245
-0.028446076 0.676 -0.0059262668 1.2782004e-38 296 245
-0.027260827 0.676 -0.0059262668 1.2782004e-38 297 245
-0.026037 0.67500001 -0.0059174998 1.2594377e-38 298 245
-0.0248535 0.67500001 -0.0059174998 1.1949018e-38 299 245
-0.023634933 0.67400002 -0.0059087332 1.2312414e-38 300 245
-0.022453187 0.67400002 -0.0059087332 1.1943637e-38 301 245
-0.021303 0.67500001 -0.0059174998 1.2126232e-38 302 245
-0.020119499 0.67500001 -0.0059174998 1.1941843e-38 303 245
-0.018935999 0.67500001 -0.0059174998 1.1940767e-38 304 245
-0.0177525 0.67500001 -0.0059174998 1.1848573e-38 305 245
-0.016569 0.67500001 -0.0059174998 1.184929e-38 306 245
-0.0153855 0.67500001 -0.0059174998 1.184929e-38 307 245
-0.014202001 0.67500001 -0.0059174998 1.184929e-38 308 245
-0.013037786 0.676 -0.0059262668 1.184929e-38 309 245
-0.011852534 0.676 -0.0059262668 1.1941843e-38 310 245
-0.01066728 0.676 -0.0059262668 1.2126232e-38 311 245
-0.0094820261 0.676 -0.0059262668 1.2127308e-38 312 245
-0.0082967728 0.676 -0.0059262668 1.240389e-38 313 245
-0.0071010003 0.67500001 -0.0059174998 1.2586844e-38 314 245
-0.0059174998 0.67500001 -0.0059174998 1.2679038e-38 315 245
-0.0047339997 0.67500001 -0.0059174998 1.2586844e-38 316 245
-0.0035505001 0.67500001 -0.0059174998 1.2679038e-38 317 245
-0.0023634934 0.67400002 -0.0059087332 1.2404249e-38 318 245
-0.0011782399 0.67199999 -0.0058911997 1.2404249e-38 319 245
0 0.67199999 -0.0058911997 1.2218785e-38 320 245
0.0011782399 0.67199999 -0.0058911997 1.2218785e-38 321 245
0.0023564799 0.67199999 -0.0058911997 1.2034755e-38 322 245
0.00353472 0.67199999 -0.0058911997 1.2034755e-38 323 245
0.0047059464 0.671 -0.0058824331 1.2034755e-38 324 245
0.0058824331 0.671 -0.0058824331 1.1758172e-38 325 245
0.0070589199 0.671 -0.0058824331 1.1941843e-38 326 245
0.0082354061 0.671 -0.0058824331 1.184929e-38 327 245
0.0094118929 0.671 -0.0058824331 1.1573784e-38 328 245
0.01058838 0.671 -0.0058824331 1.1665978e-38 329 245
0.011764866 0.671 -0.0058824331 1.1573784e-38 330 245
0.012941353 0.671 -0.0058824331 1.1573784e-38 331 245
0.01413888 0.67199999 -0.0058911997 1.1573784e-38 332 245
0.01531712 0.67199999 -0.0058911997 1.1573784e-38 333 245
0.01649536 0.67199999 -0.0058911997 1.1390113e-38 334 245
0.0177525 0.67500001 -0.0059174998 1.1390113e-38 335 245
0.018935999 0.67500001 -0.0059174998 1.1298636e-38 336 245
0.020149305 0.676 -0.0059262668 1.139083e-38 337 245
0.021334561 0.676 -0.0059262668 1.1208235e-38 338 245
0.022586439 0.67799997 -0.0059437994 1.1116041e-38 339 245
0.023775198 0.67799997 -0.0059437994 1.1116041e-38 340 245
0.024963958 0.67799997 -0.0059437994 1.0932011e-38 341 245
0.026191294 0.67900002 -0.0059525664 1.0932011e-38 342 245
0.027422134 0.68000001 -0.0059613334 1.0839458e-38 343 245
0.028740639 0.68300003 -0.0059876335 1.0747264e-38 344 245
0.029938167 0.68300003 -0.0059876335 1.065507e-38 345 245
0.03118128 0.68400002 -0.0059964 1.065507e-38 346 245
0.032380559 0.68400002 -0.0059964 1.065507e-38 347 245
0.033579841 0.68400002 -0.0059964 1.0382075e-38 348 245
0.03477912 0.68400002 -0.0059964 1.0198045e-38 349 245
0.035978399 0.68400002 -0.0059964 1.0571875e-38 350 245
-0.044567976 0.68699998 -0.0072272392 1.2131971e-38 283 246
-0.043300316 0.68599999 -0.0072167199 1.2314566e-38 284 246
-0.041974798 0.68400002 -0.0071956799 1.2314566e-38 285 246
-0.040715907 0.68300003 -0.0071851597 1.2313849e-38 286 246
-0.039460517 0.68199998 -0.00717464 1.2313849e-38 287 246
-0.038152531 0.68000001 -0.0071535995 1.2497161e-38 288 246
-0.036960267 0.68000001 -0.0071535995 1.2404967e-38 289 246
-0.035767999 0.68000001 -0.0071535995 1.2589355e-38 290 246
-0.034524884 0.67900002 -0.0071430802 1.2958132e-38 291 246
-0.033334374 0.67900002 -0.0071430802 1.2591866e-38 292 246
-0.03209652 0.67799997 -0.0071325595 1.3145032e-38 293 246
-0.030907756 0.67799997 -0.0071325595 1.2596544e-38 294 246
-0.029718997 0.67799997 -0.0071325595 1.2688739e-38 295 246
-0.028446076 0.676 -0.0071115191 1.2503276e-38 296 246
-0.027260827 0.676 -0.0071115191 1.2318525e-38 297 246
-0.026037 0.67500001 -0.0071010003 1.2407488e-38 298 246
-0.0248535 0.67500001 -0.0071010003 1.2038345e-38 299 246
-0.023634933 0.67400002 -0.0070904801 1.212659e-38 300 246
-0.022453187 0.67400002 -0.0070904801 1.1850366e-38 301 246
-0.021303 0.67500001 -0.0071010003 1.184929e-38 302 246
-0.020119499 0.67500001 -0.0071010003 1.166526e-38 303 246
-0.018935999 0.67500001 -0.0071010003 1.1847855e-38 304 246
-0.0177525 0.67500001 -0.0071010003 1.1847855e-38 305 246
-0.016569 0.67500001 -0.0071010003 1.175602e-38 306 246
-0.0153855 0.67500001 -0.0071010003 1.1848573e-38 307 246
-0.014202001 0.67500001 -0.0071010003 1.1756378e-38 308 246
-0.0130185 0.67500001 -0.0071010003 1.1848573e-38 309 246
-0.011852534 0.676 -0.0071115191 1.184929e-38 310 246
-0.01066728 0.676 -0.0071115191 1.2034037e-38 311 246
-0.0094820261 0.676 -0.0071115191 1.2126949e-38 312 246
-0.0082967728 0.676 -0.0071115191 1.2126949e-38 313 246
-0.0071010003 0.67500001 -0.0071010003 1.2312414e-38 314 246
-0.0059174998 0.67500001 -0.0071010003 1.2128384e-38 315 246
-0.0047339997 0.67500001 -0.0071010003 1.2311696e-38 316 246
-0.0035505001 0.67500001 -0.0071010003 1.2311696e-38 317 246
-0.0023634934 0.67400002 -0.0070904801 1.2218785e-38 318 246
-0.0011782399 0.67199999 -0.0070694401 1.212659e-38 319 246
0 0.67199999 -0.0070694401 1.221735e-38 320 246
0.0011782399 0.67199999 -0.0070694401 1.221735e-38 321 246
0.0023564799 0.67199999 -0.0070694401 1.1941843e-38 322 246
0.00353472 0.67199999 -0.0070694401 1.2034037e-38 323 246
0.0047059464 0.671 -0.0070589199 1.184929e-38 324 246
0.0058824331 0.671 -0.0070589199 1.1573066e-38 325 246
0.0070589199 0.671 -0.0070589199 1.1664902e-38 326 246
0.0082354061 0.671 -0.0070589199 1.1572707e-38 327 246
0.0094118929 0.671 -0.0070589199 1.1390113e-38 328 246
0.01058838 0.671 -0.0070589199 1.1390113e-38 329 246
0.011764866 0.671 -0.0070589199 1.1481231e-38 330 246
0.012941353 0.671 -0.0070589199 1.1389036e-38 331 246
0.01413888 0.67199999 -0.0070694401 1.1480513e-38 332 246
0.01531712 0.67199999 -0.0070694401 1.1572707e-38 333 246
0.01649536 0.67199999 -0.0070694401 1.1297918e-38 334 246
0.0177525 0.67500001 -0.0071010003 1.1205724e-38 335 246
0.018935999 0.67500001 -0.0071010003 1.1114606e-38 336 246
0.020119499 0.67500001 -0.0071010003 1.1298636e-38 337 246
0.021334561 0.676 -0.0071115191 1.1116041e-38 338 246
0.022519812 0.676 -0.0071115191 1.0932011e-38 339 246
0.023775198 0.67799997 -0.0071325595 1.1023129e-38 340 246
0.024963958 0.67799997 -0.0071325595 1.1023129e-38 341 246
0.026191294 0.67900002 -0.0071430802 1.0839458e-38 342 246
0.027422134 0.68000001 -0.0071535995 1.0747264e-38 343 246
0.028740639 0.68300003 -0.0071851597 1.065507e-38 344 246
0.029938167 0.68300003 -0.0071851597 1.065507e-38 345 246
0.03118128 0.68400002 -0.0071956799 1.065507e-38 346 246
0.032380559 0.68400002 -0.0071956799 1.065507e-38 347 246
0.033579841 0.68400002 -0.0071956799 1.0565028e-38 348 246
0.03477912 0.68400002 -0.0071956799 1.0657222e-38 349 246
-0.048602402 0.69300002 -0.0085054198 1.2042288e-38 280 247
-0.047387339 0.69300002 -0.0085054198 1.1858258e-38 281 247
-0.045972396 0.69 -0.0084686 1.2223807e-38 282 247
-0.044567976 0.68699998 -0.0084317802 1.2131254e-38 283 247
-0.043300316 0.68599999 -0.0084195063 1.2313849e-38 284 247
-0.041913435 0.68300003 -0.0083826864 1.2313849e-38 285 247
-0.040656291 0.68199998 -0.0083704125 1.2313849e-38 286 247
-0.039460517 0.68199998 -0.0083704125 1.212946e-38 287 247
-0.038152531 0.68000001 -0.0083458666 1.2312772e-38 288 247
-0.036960267 0.68000001 -0.0083458666 1.2312772e-38 289 247
-0.035767999 0.68000001 -0.0083458666 1.2221296e-38 290 247
-0.034524884 0.67900002 -0.0083335936 1.2589714e-38 291 247
-0.033334374 0.67900002 -0.0083335936 1.2316008e-38 292 247
-0.03209652 0.67799997 -0.0083213197 1.2500758e-38 293 247
-0.030816587 0.676 -0.0082967728 1.2134146e-38 294 247
-0.029631332 0.676 -0.0082967728 1.2041592e-38 295 247
-0.028446076 0.676 -0.0082967728 1.2131995e-38 296 247
-0.027260827 0.676 -0.0082967728 1.1855048e-38 297 247
-0.026037 0.67500001 -0.0082844999 1.1761765e-38 298 247
-0.0248535 0.67500001 -0.0082844999 1.1392983e-38 299 247
-0.023634933 0.67400002 -0.0082722269 1.175889e-38 300 247
-0.022453187 0.67400002 -0.0082722269 1.1390113e-38 301 247
-0.021303 0.67500001 -0.0082844999 1.1573425e-38 302 247
-0.020119499 0.67500001 -0.0082844999 1.1481231e-38 303 247
-0.018935999 0.67500001 -0.0082844999 1.1663825e-38 304 247
-0.0177525 0.67500001 -0.0082844999 1.1571631e-38 305 247
-0.016569 0.67500001 -0.0082844999 1.1572707e-38 306 247
-0.0153855 0.67500001 -0.0082844999 1.1388319e-38 307 247
-0.014202001 0.67500001 -0.0082844999 1.1572707e-38 308 247
-0.0130185 0.67500001 -0.0082844999 1.1572707e-38 309 247
-0.011835 0.67500001 -0.0082844999 1.1573425e-38 310 247
-0.0106515 0.67500001 -0.0082844999 1.1758172e-38 311 247
-0.0094679995 0.67500001 -0.0082844999 1.1668489e-38 312 247
-0.0082844999 0.67500001 -0.0082844999 1.1853236e-38 313 247
-0.0071010003 0.67500001 -0.0082844999 1.1761401e-38 314 247
-0.0059174998 0.67500001 -0.0082844999 1.1577371e-38 315 247
-0.0047269869 0.67400002 -0.0082722269 1.1943278e-38 316 247
-0.00354524 0.67400002 -0.0082722269 1.175889e-38 317 247
-0.0023634934 0.67400002 -0.0082722269 1.1758172e-38 318 247
-0.0011782399 0.67199999 -0.00824768 1.1758172e-38 319 247
0 0.67199999 -0.00824768 1.1482666e-38 320 247
0.0011782399 0.67199999 -0.00824768 1.1482666e-38 321 247
0.0023564799 0.67199999 -0.00824768 1.1482666e-38 322 247
0.0035294599 0.671 -0.0082354061 1.1482666e-38 323 247
0.0047059464 0.671 -0.0082354061 1.1390113e-38 324 247
0.0058824331 0.671 -0.0082354061 1.1297918e-38 325 247
0.0070589199 0.671 -0.0082354061 1.1481231e-38 326 247
0.0082354061 0.671 -0.0082354061 1.1573425e-38 327 247
0.0094118929 0.671 -0.0082354061 1.1298636e-38 328 247
0.01058838 0.671 -0.0082354061 1.1114606e-38 329 247
0.011764866 0.671 -0.0082354061 1.1205365e-38 330 247
0.012941353 0.671 -0.0082354061 1.1113171e-38 331 247
0.01413888 0.67199999 -0.00824768 1.0930576e-38 332 247
0.01531712 0.67199999 -0.00824768 1.0838382e-38 333 247
0.01649536 0.67199999 -0.00824768 1.1022412e-38 334 247
0.0177525 0.67500001 -0.0082844999 1.1022412e-38 335 247
0.018935999 0.67500001 -0.0082844999 1.0930576e-38 336 247
0.020119499 0.67500001 -0.0082844999 1.1115324e-38 337 247
0.021334561 0.676 -0.0082967728 1.0932011e-38 338 247
0.022519812 0.676 -0.0082967728 1.0839817e-38 339 247
0.023775198 0.67799997 -0.0083213197 1.0839458e-38 340 247
0.024963958 0.67799997 -0.0083213197 1.0839458e-38 341 247
0.026191294 0.67900002 -0.0083335936 1.0747982e-38 342 247
0.027422134 0.68000001 -0.0083458666 1.0655787e-38 343 247
0.028740639 0.68300003 -0.0083826864 1.065507e-38 344 247
0.029982001 0.68400002 -0.0083949603 1.065507e-38 345 247
0.03118128 0.68400002 -0.0083949603 1.0472116e-38 346 247
0.032380559 0.68400002 -0.0083949603 1.0379922e-38 347 247
0.033579841 0.68400002 -0.0083949603 1.0196969e-38 348 247
0.03477912 0.68400002 -0.0083949603 1.1027075e-38 349 247
0.035978399 0.68400002 -0.0083949603 1.205275e-38 350 247
-0.048602402 0.69300002 -0.0097204801 1.195117e-38 280 248
-0.047387339 0.69300002 -0.0097204801 1.1674229e-38 281 248
-0.045972396 0.69 -0.0096783992 1.1948659e-38 282 248
-0.044567976 0.68699998 -0.0096363192 1.1856465e-38 283 248
-0.043300316 0.68599999 -0.0096222926 1.2313849e-38 284 248
-0.041913435 0.68300003 -0.0095802136 1.2221654e-38 285 248
-0.040656291 0.68199998 -0.009566186 1.2312414e-38 286 248
-0.039460517 0.68199998 -0.009566186 1.2312414e-38 287 248
-0.038152531 0.68000001 -0.0095381327 1.2311696e-38 288 248
-0.036960267 0.68000001 -0.0095381327 1.2311696e-38 289 248
-0.035767999 0.68000001 -0.0095381327 1.2312414e-38 290 248
-0.034524884 0.67900002 -0.009524107 1.2404608e-38 291 248
-0.033334374 0.67900002 -0.009524107 1.2130178e-38 292 248
-0.03209652 0.67799997 -0.0095100794 1.2222373e-38 293 248
-0.030816587 0.676 -0.0094820261 1.222202e-38 294 248
-0.029631332 0.676 -0.0094820261 1.1945433e-38 295 248
-0.028446076 0.676 -0.0094820261 1.1943637e-38 296 248
-0.027260827 0.676 -0.0094820261 1.157486e-38 297 248
-0.026037 0.67500001 -0.0094679995 1.1757813e-38 298 248
-0.0248535 0.67500001 -0.0094679995 1.1665619e-38 299 248
-0.023634933 0.67400002 -0.0094539737 1.1665619e-38 300 248
-0.022453187 0.67400002 -0.0094539737 1.1481231e-38 301 248
-0.021303 0.67500001 -0.0094679995 1.1297918e-38 302 248
-0.020119499 0.67500001 -0.0094679995 1.1205724e-38 303 248
-0.018935999 0.67500001 -0.0094679995 1.1571631e-38 304 248
-0.0177525 0.67500001 -0.0094679995 1.1295766e-38 305 248
-0.016544454 0.67400002 -0.0094539737 1.1387602e-38 306 248
-0.015362706 0.67400002 -0.0094539737 1.1387602e-38 307 248
-0.014202001 0.67500001 -0.0094679995 1.1480513e-38 308 248
-0.0130185 0.67500001 -0.0094679995 1.1480513e-38 309 248
-0.011835 0.67500001 -0.0094679995 1.1481231e-38 310 248
-0.0106515 0.67500001 -0.0094679995 1.1665619e-38 311 248
-0.0094679995 0.67500001 -0.0094679995 1.1483383e-38 312 248
-0.0082844999 0.67500001 -0.0094679995 1.1575577e-38 313 248
-0.0071010003 0.67500001 -0.0094679995 1.1575577e-38 314 248
-0.0059174998 0.67500001 -0.0094679995 1.1483383e-38 315 248
-0.0047269869 0.67400002 -0.0094539737 1.184929e-38 316 248
-0.00354524 0.67400002 -0.0094539737 1.1572707e-38 317 248
-0.0023634934 0.67400002 -0.0094539737 1.175602e-38 318 248
-0.0011782399 0.67199999 -0.0094259195 1.1848573e-38 319 248
0 0.67199999 -0.0094259195 1.1481231e-38 320 248
0.0011782399 0.67199999 -0.0094259195 1.1481231e-38 321 248
0.0023529732 0.671 -0.0094118929 1.1297918e-38 322 248
0.0035294599 0.671 -0.0094118929 1.1297918e-38 323 248
0.0047059464 0.671 -0.0094118929 1.1297918e-38 324 248
0.0058824331 0.671 -0.0094118929 1.1390113e-38 325 248
0.0070589199 0.671 -0.0094118929 1.1297918e-38 326 248
0.0082354061 0.671 -0.0094118929 1.1297918e-38 327 248
0.0094118929 0.671 -0.0094118929 1.1114606e-38 328 248
0.01058838 0.671 -0.0094118929 1.1022412e-38 329 248
0.011764866 0.671 -0.0094118929 1.0929859e-38 330 248
0.012960639 0.67199999 -0.0094259195 1.0929859e-38 331 248
0.01413888 0.67199999 -0.0094259195 1.1113171e-38 332 248
0.01531712 0.67199999 -0.0094259195 1.1113171e-38 333 248
0.016544454 0.67400002 -0.0094539737 1.0929859e-38 334 248
0.0177525 0.67500001 -0.0094679995 1.0929859e-38 335 248
0.018935999 0.67500001 -0.0094679995 1.0929859e-38 336 248
0.020119499 0.67500001 -0.0094679995 1.0929859e-38 337 248
0.021334561 0.676 -0.0094820261 1.0747264e-38 338 248
0.022519812 0.676 -0.0094820261 1.0839458e-38 339 248
0.023775198 0.67799997 -0.0095100794 1.0839458e-38 340 248
0.024963958 0.67799997 -0.0095100794 1.0839458e-38 341 248
0.026229866 0.68000001 -0.0095381327 1.0655787e-38 342 248
0.027502786 0.68199998 -0.009566186 1.0471399e-38 343 248
0.028740639 0.68300003 -0.0095802136 1.05618e-38 344 248
0.029982001 0.68400002 -0.0095942402 1.0838382e-38 345 248
0.03118128 0.68400002 -0.0095942402 1.0379922e-38 346 248
0.032380559 0.68400002 -0.0095942402 1.0472116e-38 347 248
0.033579841 0.68400002 -0.0095942402 1.0103698e-38 348 248
0.03477912 0.68400002 -0.0095942402 1.1670641e-38 349 248
-0.048602402 0.69300002 -0.010935539 1.195117e-38 280 249
-0.047250576 0.69099998 -0.01090398 1.1766423e-38 281 249
-0.045839146 0.68800002 -0.010856641 1.2040853e-38 282 249
-0.044567976 0.68699998 -0.010840859 1.1764271e-38 283 249
-0.043174081 0.68400002 -0.01079352 1.2129819e-38 284 249
-0.041913435 0.68300003 -0.01077774 1.1853595e-38 285 249
-0.040656291 0.68199998 -0.010761959 1.2128384e-38 286 249
-0.039460517 0.68199998 -0.010761959 1.203619e-38 287 249
-0.038152531 0.68000001 -0.0107304 1.203619e-38 288 249
-0.036960267 0.68000001 -0.0107304 1.203619e-38 289 249
-0.035767999 0.68000001 -0.0107304 1.2036548e-38 290 249
-0.034524884 0.67900002 -0.010714619 1.2036548e-38 291 249
-0.033334374 0.67900002 -0.010714619 1.2035831e-38 292 249
-0.03209652 0.67799997 -0.010698839 1.2035831e-38 293 249
-0.030816587 0.676 -0.01066728 1.2035474e-38 294 249
-0.029631332 0.676 -0.01066728 1.1667054e-38 295 249
-0.028446076 0.676 -0.01066728 1.1665978e-38 296 249
-0.027260827 0.676 -0.01066728 1.1481948e-38 297 249
-0.026037 0.67500001 -0.0106515 1.1389754e-38 298 249
-0.0248535 0.67500001 -0.0106515 1.1389754e-38 299 249
-0.023669999 0.67500001 -0.0106515 1.1298636e-38 300 249
-0.022486499 0.67500001 -0.0106515 1.1298636e-38 301 249
-0.021303 0.67500001 -0.0106515 1.1114606e-38 302 249
-0.020119499 0.67500001 -0.0106515 1.1022412e-38 303 249
-0.018935999 0.67500001 -0.0106515 1.1295766e-38 304 249
-0.0177525 0.67500001 -0.0106515 1.1295766e-38 305 249
-0.016544454 0.67400002 -0.01063572 1.1295766e-38 306 249
-0.015362706 0.67400002 -0.01063572 1.1387602e-38 307 249
-0.01418096 0.67400002 -0.01063572 1.1204648e-38 308 249
-0.012999214 0.67400002 -0.01063572 1.1204648e-38 309 249
-0.011835 0.67500001 -0.0106515 1.1022053e-38 310 249
-0.0106515 0.67500001 -0.0106515 1.1114247e-38 311 249
-0.0094679995 0.67500001 -0.0106515 1.1115324e-38 312 249
-0.0082844999 0.67500001 -0.0106515 1.1207518e-38 313 249
-0.0071010003 0.67500001 -0.0106515 1.1207159e-38 314 249
-0.0059174998 0.67500001 -0.0106515 1.1114965e-38 315 249
-0.0047339997 0.67500001 -0.0106515 1.1390113e-38 316 249
-0.00354524 0.67400002 -0.01063572 1.1297918e-38 317 249
-0.0023634934 0.67400002 -0.01063572 1.1389036e-38 318 249
-0.0011782399 0.67199999 -0.010604159 1.1389036e-38 319 249
0 0.67199999 -0.010604159 1.1205724e-38 320 249
0.0011782399 0.67199999 -0.010604159 1.1205724e-38 321 249
0.0023529732 0.671 -0.01058838 1.1022412e-38 322 249
0.0035294599 0.671 -0.01058838 1.1114606e-38 323 249
0.0047059464 0.671 -0.01058838 1.1114606e-38 324 249
0.0058824331 0.671 -0.01058838 1.1022412e-38 325 249
0.0070589199 0.671 -0.01058838 1.0929859e-38 326 249
0.0082354061 0.671 -0.01058838 1.1022412e-38 327 249
0.0094259195 0.67199999 -0.010604159 1.0930576e-38 328 249
0.010604159 0.67199999 -0.010604159 1.0930576e-38 329 249
0.011782399 0.67199999 -0.010604159 1.0838382e-38 330 249
0.012960639 0.67199999 -0.010604159 1.0838382e-38 331 249
0.01413888 0.67199999 -0.010604159 1.0929859e-38 332 249
0.01531712 0.67199999 -0.010604159 1.0837665e-38 333 249
0.016544454 0.67400002 -0.01063572 1.0838382e-38 334 249
0.0177525 0.67500001 -0.0106515 1.0838382e-38 335 249
0.018935999 0.67500001 -0.0106515 1.0838382e-38 336 249
0.020149305 0.676 -0.01066728 1.0930576e-38 337 249
0.021334561 0.676 -0.01066728 1.0930576e-38 338 249
0.022519812 0.676 -0.01066728 1.1023129e-38 339 249
0.023775198 0.67799997 -0.010698839 1.0747982e-38 340 249
0.024963958 0.67799997 -0.010698839 1.0747982e-38 341 249
0.026229866 0.68000001 -0.0107304 1.0472116e-38 342 249
0.027543113 0.68300003 -0.01077774 1.0287728e-38 343 249
0.02878272 0.68400002 -0.01079352 1.0379205e-38 344 249
0.029982001 0.68400002 -0.01079352 1.0471399e-38 345 249
0.03118128 0.68400002 -0.01079352 1.019661e-38 346 249
0.032380559 0.68400002 -0.01079352 1.019661e-38 347 249
0.033579841 0.68400002 -0.01079352 9.8263981e-39 348 249
0.03477912 0.68400002 -0.01079352 1.1946149e-38 349 249
0.035978399 0.68400002 -0.01079352 1.3255609e-38 350 249
-0.048602402 0.69300002 -0.012150601 1.2043006e-38 280 250
-0.047250576 0.69099998 -0.012115533 1.1766423e-38 281 250
-0.045839146 0.68800002 -0.012062933 1.1856465e-38 282 250
-0.044308487 0.68300003 -0.011975267 1.1764271e-38 283 250
-0.043110959 0.68300003 -0.011975267 1.1945789e-38 284 250
-0.041852064 0.68199998 -0.011957732 1.1761401e-38 285 250
-0.040656291 0.68199998 -0.011957732 1.203619e-38 286 250
-0.039344799 0.68000001 -0.011922667 1.203619e-38 287 250
-0.038152531 0.68000001 -0.011922667 1.1944354e-38 288 250
-0.036960267 0.68000001 -0.011922667 1.1944354e-38 289 250
-0.035767999 0.68000001 -0.011922667 1.1668848e-38 290 250
-0.034524884 0.67900002 -0.011905133 1.1668848e-38 291 250
-0.033334374 0.67900002 -0.011905133 1.175889e-38 292 250
-0.03209652 0.67799997 -0.011887599 1.175889e-38 293 250
-0.030816587 0.676 -0.011852534 1.1666695e-38 294 250
-0.029631332 0.676 -0.011852534 1.1482666e-38 295 250
-0.028446076 0.676 -0.011852534 1.1390113e-38 296 250
-0.027260827 0.676 -0.011852534 1.1390113e-38 297 250
-0.026075572 0.676 -0.011852534 1.1297918e-38 298 250
-0.0248535 0.67500001 -0.011835 1.1297918e-38 299 250
-0.023669999 0.67500001 -0.011835 1.1023129e-38 300 250
-0.022486499 0.67500001 -0.011835 1.1023129e-38 301 250
-0.021303 0.67500001 -0.011835 1.1022412e-38 302 250
-0.020119499 0.67500001 -0.011835 1.0929859e-38 303 250
-0.018935999 0.67500001 -0.011835 1.1020977e-38 304 250
-0.0177525 0.67500001 -0.011835 1.1020977e-38 305 250
-0.016544454 0.67400002 -0.011817466 1.1112454e-38 306 250
-0.015362706 0.67400002 -0.011817466 1.1204648e-38 307 250
-0.01418096 0.67400002 -0.011817466 1.1020977e-38 308 250
-0.012999214 0.67400002 -0.011817466 1.1113171e-38 309 250
-0.011817466 0.67400002 -0.011817466 1.0929859e-38 310 250
-0.0106515 0.67500001 -0.011835 1.0929859e-38 311 250
-0.0094679995 0.67500001 -0.011835 1.1023129e-38 312 250
-0.0082844999 0.67500001 -0.011835 1.1023129e-38 313 250
-0.0071010003 0.67500001 -0.011835 1.1023129e-38 314 250
-0.0059174998 0.67500001 -0.011835 1.0930576e-38 315 250
-0.0047269869 0.67400002 -0.011817466 1.0929859e-38 316 250
-0.00354524 0.67400002 -0.011817466 1.0837665e-38 317 250
-0.0023634934 0.67400002 -0.011817466 1.1113171e-38 318 250
-0.0011782399 0.67199999 -0.011782399 1.1113171e-38 319 250
0 0.67199999 -0.011782399 1.1113171e-38 320 250
0.0011782399 0.67199999 -0.011782399 1.1205365e-38 321 250
0.0023564799 0.67199999 -0.011782399 1.1022053e-38 322 250
0.00353472 0.67199999 -0.011782399 1.1022053e-38 323 250
0.0047129598 0.67199999 -0.011782399 1.0929859e-38 324 250
0.0058911997 0.67199999 -0.011782399 1.0837665e-38 325 250
0.0070694401 0.67199999 -0.011782399 1.0837665e-38 326 250
0.00824768 0.67199999 -0.011782399 1.0837665e-38 327 250
0.0094259195 0.67199999 -0.011782399 1.0654352e-38 328 250
0.010604159 0.67199999 -0.011782399 1.0838382e-38 329 250
0.011782399 0.67199999 -0.011782399 1.0654711e-38 330 250
0.012999214 0.67400002 -0.011817466 1.0562517e-38 331 250
0.01418096 0.67400002 -0.011817466 1.0653994e-38 332 250
0.015362706 0.67400002 -0.011817466 1.05618e-38 333 250
0.016569 0.67500001 -0.011835 1.0562517e-38 334 250
0.017778801 0.676 -0.011852534 1.0562517e-38 335 250
0.018964052 0.676 -0.011852534 1.0562517e-38 336 250
0.020149305 0.676 -0.011852534 1.0562517e-38 337 250
0.021334561 0.676 -0.011852534 1.0838382e-38 338 250
0.022519812 0.676 -0.011852534 1.0838382e-38 339 250
0.023810266 0.67900002 -0.011905133 1.0471399e-38 340 250
0.025037598 0.68000001 -0.011922667 1.0471399e-38 341 250
0.026307013 0.68199998 -0.011957732 1.0471399e-38 342 250
0.027543113 0.68300003 -0.011975267 1.0379205e-38 343 250
0.02878272 0.68400002 -0.0119928 1.0287728e-38 344 250
0.029982001 0.68400002 -0.0119928 1.0379922e-38 345 250
0.03118128 0.68400002 -0.0119928 1.0197327e-38 346 250
0.032380559 0.68400002 -0.0119928 1.0197327e-38 347 250
0.033579841 0.68400002 -0.0119928 9.9182336e-39 348 250
0.03477912 0.68400002 -0.0119928 1.2498607e-38 349 250
0.035978399 0.68400002 -0.0119928 1.3627635e-38 350 250
-0.04670354 0.68300003 -0.013172794 1.1491634e-38 281 251
