# .PCD v.7 - Point Cloud Data file format
FIELDS x y z rgb imX imY
SIZE 4 4 4 4 4 4
TYPE F F F F F F
COUNT 1 1 1 1 1 1
WIDTH 842
HEIGHT 1
VIEWPOINT 0 0 0 1 0 0 0
POINTS 842
DATA ascii
0.070718944 0.602 -0.047497798 7.2831773e-39 387 285
0.071774453 0.602 -0.047497798 8.5753202e-39 388 285
0.072708979 0.60100001 -0.0474189 9.5898323e-39 389 285
0.07376273 0.60100001 -0.0474189 1.0876605e-38 390 285
0.074816488 0.60100001 -0.0474189 9.6780622e-39 391 285
0.075870238 0.60100001 -0.0474189 7.0951805e-39 392 285
0.076923996 0.60100001 -0.0474189 3.1307684e-39 393 285
0.077977739 0.60100001 -0.0474189 2.6705259e-39 394 285
0.079031497 0.60100001 -0.0474189 3.592841e-39 395 285
0.080085255 0.60100001 -0.0474189 6.8978034e-39 396 285
0.081139006 0.60100001 -0.0474189 7.6353684e-39 397 285
0.082192764 0.60100001 -0.0474189 1.212773e-38 398 285
0.083246514 0.60100001 -0.0474189 1.2035534e-38 399 285
0.084300265 0.60100001 -0.0474189 1.2400355e-38 400 285
0.085354015 0.60100001 -0.0474189 1.2492909e-38 401 285
0.086263999 0.60000002 -0.047340002 1.2492909e-38 402 285
0.087315999 0.60000002 -0.047340002 1.2585105e-38 403 285
0.088515282 0.60100001 -0.0474189 1.2676216e-38 404 285
0.089420006 0.60000002 -0.047340002 1.2676216e-38 405 285
0.090471998 0.60000002 -0.047340002 1.2585452e-38 406 285
0.091523997 0.60000002 -0.047340002 1.2585452e-38 407 285
0.092576005 0.60000002 -0.047340002 1.2585452e-38 408 285
0.093471944 0.59899998 -0.047261097 1.2585452e-38 409 285
0.094522193 0.59899998 -0.047261097 1.2860963e-38 410 285
0.095732003 0.60000002 -0.047340002 1.2768768e-38 411 285
0.096622683 0.59899998 -0.047261097 1.2952083e-38 412 285
0.097509876 0.59799999 -0.047182199 1.3044278e-38 413 285
0.098558366 0.59799999 -0.047182199 1.2953159e-38 414 285
0.099606857 0.59799999 -0.047182199 1.2953159e-38 415 285
0.10065535 0.59799999 -0.047182199 1.2953515e-38 416 285
0.10170385 0.59799999 -0.047182199 1.3137547e-38 417 285
0.10258052 0.597 -0.047103297 1.2953879e-38 418 285
0.10362726 0.597 -0.047103297 1.2953879e-38 419 285
0.104674 0.597 -0.047103297 1.2954232e-38 420 285
0.10572074 0.597 -0.047103297 1.3046428e-38 421 285
0.10676748 0.597 -0.047103297 1.2954588e-38 422 285
0.10781422 0.597 -0.047103297 1.2954588e-38 423 285
0.10886096 0.597 -0.047103297 1.3136824e-38 424 285
0.1099077 0.597 -0.047103297 1.3044629e-38 425 285
0.11095444 0.597 -0.047103297 1.3137547e-38 426 285
0.11200118 0.597 -0.047103297 1.3137547e-38 427 285
0.11304791 0.597 -0.047103297 1.3229024e-38 428 285
0.11390355 0.59600002 -0.047024403 1.3229024e-38 429 285
0.11494854 0.59600002 -0.047024403 1.322974e-38 430 285
0.11599351 0.59600002 -0.047024403 1.3322294e-38 431 285
0.1170385 0.59600002 -0.047024403 1.3139342e-38 432 285
0.11808349 0.59600002 -0.047024403 1.3324092e-38 433 285
0.11912847 0.59600002 -0.047024403 1.3234046e-38 434 285
0.11997183 0.59500003 -0.046945501 1.4340392e-38 435 285
0.12101507 0.59500003 -0.046945501 1.472714e-38 436 285
0.1220583 0.59500003 -0.046945501 1.749301e-38 437 285
0.12310154 0.59500003 -0.046945501 1.5384365e-38 438 285
0.12414476 0.59500003 -0.046945501 1.529217e-38 439 285
-0.16711369 0.64399999 -0.051940747 1.3622206e-38 172 286
-0.16598456 0.64399999 -0.051940747 1.0026216e-38 173 286
-0.16485541 0.64399999 -0.051940747 1.1945433e-38 174 286
-0.16372626 0.64399999 -0.051940747 1.222202e-38 175 286
-0.16259712 0.64399999 -0.051940747 1.1670682e-38 176 286
-0.16146797 0.64399999 -0.051940747 1.1578486e-38 177 286
-0.16033882 0.64399999 -0.051940747 1.1578484e-38 178 286
-0.15920968 0.64399999 -0.051940747 1.1855431e-38 179 286
-0.15808052 0.64399999 -0.051940747 1.1763231e-38 180 286
-0.15695138 0.64399999 -0.051940747 1.1763231e-38 181 286
-0.15582223 0.64399999 -0.051940747 1.1580283e-38 182 286
-0.15469308 0.64399999 -0.051940747 1.1580283e-38 183 286
-0.15356395 0.64399999 -0.051940747 1.1488806e-38 184 286
-0.1524348 0.64399999 -0.051940747 1.1673197e-38 185 286
-0.1510707 0.64300001 -0.051860094 1.1398408e-38 186 286
-0.14994331 0.64300001 -0.051860094 1.15828e-38 187 286
-0.14881591 0.64300001 -0.051860094 1.1399487e-38 188 286
-0.14745885 0.64200002 -0.051779442 1.1307292e-38 189 286
-0.14633319 0.64200002 -0.051779442 1.1675351e-38 190 286
-0.14498137 0.64099997 -0.051698782 1.1583156e-38 191 286
-0.14385748 0.64099997 -0.051698782 1.1583153e-38 192 286
-0.1427336 0.64099997 -0.051698782 1.1675348e-38 193 286
-0.14160971 0.64099997 -0.051698782 1.1399487e-38 194 286
-0.14026666 0.63999999 -0.051618129 1.1399487e-38 195 286
-0.13914452 0.63999999 -0.051618129 1.1307657e-38 196 286
-0.13823804 0.64099997 -0.051698782 1.1215462e-38 197 286
-0.13711417 0.64099997 -0.051698782 1.1306941e-38 198 286
-0.13577811 0.63999999 -0.051618129 1.1214746e-38 199 286
-0.13465598 0.63999999 -0.051618129 1.112291e-38 200 286
-0.13353385 0.63999999 -0.051618129 1.0938879e-38 201 286
-0.13241172 0.63999999 -0.051618129 1.1122547e-38 202 286
-0.13128959 0.63999999 -0.051618129 1.1122547e-38 203 286
-0.13016745 0.63999999 -0.051618129 1.1030352e-38 204 286
-0.12904532 0.63999999 -0.051618129 1.1030352e-38 205 286
-0.12792319 0.63999999 -0.051618129 1.1305862e-38 206 286
-0.12680106 0.63999999 -0.051618129 1.1305862e-38 207 286
-0.12528619 0.63800001 -0.051456824 1.1029996e-38 208 286
-0.12416755 0.63800001 -0.051456824 1.1029996e-38 209 286
-0.12304893 0.63800001 -0.051456824 1.0846681e-38 210 286
-0.1217392 0.63700002 -0.051376175 1.0846681e-38 211 286
-0.12062232 0.63700002 -0.051376175 1.0846681e-38 212 286
-0.11950545 0.63700002 -0.051376175 1.0662288e-38 213 286
-0.11838858 0.63700002 -0.051376175 1.0846681e-38 214 286
-0.1170876 0.63599998 -0.051295515 1.0754485e-38 215 286
-0.11597247 0.63599998 -0.051295515 1.0938156e-38 216 286
-0.11485735 0.63599998 -0.051295515 1.0938156e-38 217 286
-0.11374222 0.63599998 -0.051295515 1.0937803e-38 218 286
-0.11262712 0.63599998 -0.051295515 1.075377e-38 219 286
-0.11151199 0.63599998 -0.051295515 1.0936364e-38 220 286
-0.11022329 0.63499999 -0.051214863 1.1120395e-38 221 286
-0.10910993 0.63499999 -0.051214863 1.0753768e-38 222 286
-0.10799656 0.63499999 -0.051214863 1.09378e-38 223 286
-0.1068832 0.63499999 -0.051214863 1.0571173e-38 224 286
-0.10560326 0.634 -0.05113421 1.0478976e-38 225 286
-0.10449165 0.634 -0.05113421 1.0754485e-38 226 286
-0.10338004 0.634 -0.05113421 1.0570092e-38 227 286
-0.10194581 0.63200003 -0.050972905 1.0661569e-38 228 286
-0.10083771 0.63200003 -0.050972905 1.0753765e-38 229 286
-0.099729598 0.63200003 -0.050972905 1.0662288e-38 230 286
-0.098621495 0.63200003 -0.050972905 1.0662288e-38 231 286
-0.097513385 0.63200003 -0.050972905 1.0753765e-38 232 286
-0.096405275 0.63200003 -0.050972905 1.0753765e-38 233 286
-0.09514638 0.63099998 -0.050892249 1.0662288e-38 234 286
-0.094040029 0.63099998 -0.050892249 1.0662288e-38 235 286
-0.09293367 0.63099998 -0.050892249 1.0661569e-38 236 286
-0.091827318 0.63099998 -0.050892249 1.0477178e-38 237 286
-0.090720966 0.63099998 -0.050892249 1.0477541e-38 238 286
-0.089614615 0.63099998 -0.050892249 1.0570095e-38 239 286
-0.088367999 0.63 -0.050811596 1.0203112e-38 240 286
-0.087263398 0.63 -0.050811596 1.0110916e-38 241 286
-0.086158797 0.63 -0.050811596 1.0477541e-38 242 286
-0.085054196 0.63 -0.050811596 1.0477541e-38 243 286
-0.083949596 0.63 -0.050811596 1.0569374e-38 244 286
-0.082713492 0.62900001 -0.050730944 1.0569374e-38 245 286
-0.081480905 0.62800002 -0.050650291 1.0477897e-38 246 286
-0.080379814 0.62800002 -0.050650291 1.0477897e-38 247 286
-0.079278722 0.62800002 -0.050650291 1.0477541e-38 248 286
-0.078177623 0.62800002 -0.050650291 1.0477541e-38 249 286
-0.077076539 0.62800002 -0.050650291 1.0294229e-38 250 286
-0.07597544 0.62800002 -0.050650291 1.0294229e-38 251 286
-0.074755117 0.62699997 -0.050569635 1.0110916e-38 252 286
-0.073655777 0.62699997 -0.050569635 1.0018721e-38 253 286
-0.072556436 0.62699997 -0.050569635 1.0293513e-38 254 286
-0.071457095 0.62699997 -0.050569635 1.0201317e-38 255 286
-0.070357755 0.62699997 -0.050569635 1.0384632e-38 256 286
-0.069258414 0.62699997 -0.050569635 1.0476828e-38 257 286
-0.067941666 0.625 -0.05040833 1.0293513e-38 258 286
-0.066845834 0.625 -0.05040833 1.0477544e-38 259 286
-0.065749995 0.625 -0.05040833 1.0384626e-38 260 286
-0.064654164 0.625 -0.05040833 1.0476822e-38 261 286
-0.063558333 0.625 -0.05040833 1.0384629e-38 262 286
-0.062462498 0.625 -0.05040833 1.0384629e-38 263 286
-0.061268479 0.62400001 -0.050327681 1.0384629e-38 264 286
-0.060174398 0.62400001 -0.050327681 1.0476825e-38 265 286
-0.059080318 0.62400001 -0.050327681 1.020203e-38 266 286
-0.057893313 0.62300003 -0.050247028 1.020203e-38 267 286
-0.056800984 0.62300003 -0.050247028 1.020167e-38 268 286
-0.055708658 0.62300003 -0.050247028 1.0109116e-38 269 286
-0.054616336 0.62300003 -0.050247028 1.029171e-38 270 286
-0.053524006 0.62300003 -0.050247028 1.0383907e-38 271 286
-0.05243168 0.62300003 -0.050247028 1.0384629e-38 272 286
-0.051256943 0.62199998 -0.050166372 1.0384629e-38 273 286
-0.050166372 0.62199998 -0.050166372 1.0201317e-38 274 286
-0.049075797 0.62199998 -0.050166372 1.0293513e-38 275 286
-0.047985226 0.62199998 -0.050166372 1.0384629e-38 276 286
-0.046819258 0.62099999 -0.05008572 1.0108401e-38 277 286
-0.045730438 0.62099999 -0.05008572 1.0291713e-38 278 286
-0.044641618 0.62099999 -0.05008572 1.0291713e-38 279 286
-0.043552797 0.62099999 -0.05008572 1.029171e-38 280 286
-0.042463977 0.62099999 -0.05008572 1.029171e-38 281 286
-0.041375156 0.62099999 -0.05008572 1.0292066e-38 282 286
-0.040286336 0.62099999 -0.05008572 1.0476459e-38 283 286
-0.039197516 0.62099999 -0.05008572 1.0292787e-38 284 286
-0.038108699 0.62099999 -0.05008572 1.0108395e-38 285 286
-0.037019879 0.62099999 -0.05008572 1.0108395e-38 286 286
-0.035873201 0.62 -0.050005067 1.0108395e-38 287 286
-0.034786131 0.62 -0.050005067 1.029171e-38 288 286
-0.033699065 0.62 -0.050005067 1.029171e-38 289 286
-0.032612 0.62 -0.050005067 1.029171e-38 290 286
-0.03152493 0.62 -0.050005067 1.029171e-38 291 286
-0.030437866 0.62 -0.050005067 1.0199515e-38 292 286
-0.029350799 0.62 -0.050005067 1.0199515e-38 293 286
-0.028263735 0.62 -0.050005067 1.029171e-38 294 286
-0.027132833 0.61900002 -0.049924415 1.0383907e-38 295 286
-0.02604752 0.61900002 -0.049924415 1.0291713e-38 296 286
-0.024962207 0.61900002 -0.049924415 1.0291713e-38 297 286
-0.023876892 0.61900002 -0.049924415 1.0109121e-38 298 286
-0.022791579 0.61900002 -0.049924415 9.9243699e-39 299 286
-0.021706266 0.61900002 -0.049924415 9.9286368e-39 300 286
-0.020587638 0.61799997 -0.049843758 1.3893045e-38 301 286
-0.019504078 0.61799997 -0.049843758 1.014355e-38 302 286
-0.018420519 0.61799997 -0.049843758 1.1249897e-38 303 286
-0.017336959 0.61799997 -0.049843758 1.2725072e-38 304 286
-0.016200799 0.616 -0.049682453 1.3738864e-38 305 286
-0.015120746 0.616 -0.049682453 1.382642e-38 306 286
-0.014040694 0.616 -0.049682453 1.3365082e-38 307 286
-0.01296064 0.616 -0.049682453 1.3549473e-38 308 286
-0.0118613 0.61500001 -0.049601801 1.3549473e-38 309 286
-0.010783 0.61500001 -0.049601801 1.3550548e-38 310 286
-0.0097046997 0.61500001 -0.049601801 1.3366517e-38 311 286
-0.0086123729 0.61400002 -0.049521148 1.3182841e-38 312 286
-0.0075358269 0.61400002 -0.049521148 1.3182841e-38 313 286
-0.0064592799 0.61400002 -0.049521148 1.3000245e-38 314 286
-0.0053827334 0.61400002 -0.049521148 1.272366e-38 315 286
-0.0043061865 0.61400002 -0.049521148 1.2724013e-38 316 286
-0.00322964 0.61400002 -0.049521148 1.3000598e-38 317 286
-0.0021530932 0.61400002 -0.049521148 1.2725088e-38 318 286
-0.0010765466 0.61400002 -0.049521148 1.2909479e-38 319 286
0 0.61299998 -0.049440488 1.2909482e-38 320 286
0.0010747933 0.61299998 -0.049440488 1.2816927e-38 321 286
0.0021495866 0.61299998 -0.049440488 1.2725085e-38 322 286
0.0032243798 0.61299998 -0.049440488 1.2725085e-38 323 286
0.0042921598 0.61199999 -0.049359839 1.235628e-38 324 286
0.0053651999 0.61199999 -0.049359839 1.1434684e-38 325 286
0.0064382395 0.61199999 -0.049359839 1.0146851e-38 326 286
0.0074990061 0.611 -0.049279187 5.0760902e-39 327 286
0.008570293 0.611 -0.049279187 3.9612045e-39 328 286
0.0096573597 0.61199999 -0.049359839 3.3158351e-39 329 286
0.0107304 0.61199999 -0.049359839 2.855992e-39 330 286
0.01180344 0.61199999 -0.049359839 2.6719609e-39 331 286
0.012876479 0.61199999 -0.049359839 2.0287565e-39 332 286
0.013949519 0.61199999 -0.049359839 1.9365608e-39 333 286
0.014998012 0.611 -0.049279187 2.11952e-39 334 286
0.016069299 0.611 -0.049279187 2.11952e-39 335 286
0.017140586 0.611 -0.049279187 1.9362077e-39 336 286
0.018211873 0.611 -0.049279187 1.9362077e-39 337 286
0.019283159 0.611 -0.049279187 2.11952e-39 338 286
0.020321133 0.61000001 -0.049198534 2.11952e-39 339 286
0.021390667 0.61000001 -0.049198534 3.6792731e-39 340 286
0.0224602 0.61000001 -0.049198534 4.4168381e-39 341 286
0.023529733 0.61000001 -0.049198534 8.4589858e-39 342 286
0.024599267 0.61000001 -0.049198534 9.7497246e-39 343 286
0.0256688 0.61000001 -0.049198534 1.2591561e-38 344 286
0.026738333 0.61000001 -0.049198534 1.2315333e-38 345 286
0.027807867 0.61000001 -0.049198534 9.0067688e-39 346 286
0.028830061 0.60900003 -0.049117882 8.2692024e-39 347 286
0.029897839 0.60900003 -0.049117882 4.3231753e-39 348 286
0.030965621 0.60900003 -0.049117882 4.1387841e-39 349 286
0.032033399 0.60900003 -0.049117882 6.1605859e-39 350 286
0.033101182 0.60900003 -0.049117882 6.4368126e-39 351 286
0.034168959 0.60900003 -0.049117882 8.7327113e-39 352 286
0.035178877 0.60799998 -0.049037222 7.8103962e-39 353 286
0.036244903 0.60799998 -0.049037222 3.0392917e-39 354 286
0.037249565 0.60699999 -0.048956569 3.1314873e-39 355 286
0.038313836 0.60699999 -0.048956569 2.6719735e-39 356 286
0.03937811 0.60699999 -0.048956569 2.4875822e-39 357 286
0.040442385 0.60699999 -0.048956569 2.2117156e-39 358 286
0.041438282 0.60600001 -0.048875917 2.30427e-39 359 286
0.042500798 0.60600001 -0.048875917 3.2226109e-39 360 286
0.043563321 0.60600001 -0.048875917 4.0520115e-39 361 286
0.044625837 0.60600001 -0.048875917 7.355567e-39 362 286
0.045688361 0.60600001 -0.048875917 6.4339708e-39 363 286
0.046750877 0.60600001 -0.048875917 5.1457515e-39 364 286
0.047813401 0.60600001 -0.048875917 5.2379486e-39 365 286
0.048875917 0.60600001 -0.048875917 3.1279e-39 366 286
0.04993844 0.60600001 -0.048875917 2.94315e-39 367 286
0.05100096 0.60600001 -0.048875917 2.1166361e-39 368 286
0.051891651 0.60399997 -0.048714608 2.1166361e-39 369 286
0.052950662 0.60399997 -0.048714608 1.9336868e-39 370 286
0.05418852 0.60600001 -0.048875917 2.0262411e-39 371 286
0.05525104 0.60600001 -0.048875917 2.5797779e-39 372 286
0.056313559 0.60600001 -0.048875917 2.5797779e-39 373 286
0.057186712 0.60399997 -0.048714608 2.029125e-39 374 286
0.058245726 0.60399997 -0.048714608 2.029125e-39 375 286
0.05930474 0.60399997 -0.048714608 2.0287691e-39 376 286
0.060363755 0.60399997 -0.048714608 2.0287691e-39 377 286
0.061422769 0.60399997 -0.048714608 2.3046357e-39 378 286
0.062378336 0.60299999 -0.048633955 2.489027e-39 379 286
0.063435599 0.60299999 -0.048633955 2.2153183e-39 380 286
0.064492859 0.60299999 -0.048633955 2.2153183e-39 381 286
0.065550111 0.60299999 -0.048633955 2.3986278e-39 382 286
0.066607378 0.60299999 -0.048633955 2.5833778e-39 383 286
0.067552425 0.602 -0.048553303 3.5020915e-39 384 286
0.068607934 0.602 -0.048553303 4.6080789e-39 385 286
0.069663435 0.602 -0.048553303 1.0598605e-38 386 286
0.070718944 0.602 -0.048553303 1.133617e-38 387 286
0.071774453 0.602 -0.048553303 1.0414904e-38 388 286
0.072829954 0.602 -0.048553303 9.3085566e-39 389 286
0.073885463 0.602 -0.048553303 9.3982369e-39 390 286
0.074816488 0.60100001 -0.04847265 9.8588564e-39 391 286
0.075870238 0.60100001 -0.04847265 8.3830453e-39 392 286
0.076923996 0.60100001 -0.04847265 4.0498507e-39 393 286
0.077977739 0.60100001 -0.04847265 1.7521682e-39 394 286
0.079031497 0.60100001 -0.04847265 2.9503526e-39 395 286
0.080085255 0.60100001 -0.04847265 7.7221691e-39 396 286
0.081139006 0.60100001 -0.04847265 8.5519297e-39 397 286
0.082192764 0.60100001 -0.04847265 1.1943335e-38 398 286
0.083246514 0.60100001 -0.04847265 1.1574913e-38 399 286
0.084300265 0.60100001 -0.04847265 1.230851e-38 400 286
0.085354015 0.60100001 -0.04847265 1.230851e-38 401 286
0.086263999 0.60000002 -0.048391998 1.2398906e-38 402 286
0.087315999 0.60000002 -0.048391998 1.2583657e-38 403 286
0.088515282 0.60100001 -0.04847265 1.2583657e-38 404 286
0.089569032 0.60100001 -0.04847265 1.2675853e-38 405 286
0.090471998 0.60000002 -0.048391998 1.2584373e-38 406 286
0.091523997 0.60000002 -0.048391998 1.2492178e-38 407 286
0.092576005 0.60000002 -0.048391998 1.2676206e-38 408 286
0.093627997 0.60000002 -0.048391998 1.2860237e-38 409 286
0.094680004 0.60000002 -0.048391998 1.2860237e-38 410 286
0.095732003 0.60000002 -0.048391998 1.2860237e-38 411 286
0.096622683 0.59899998 -0.048311342 1.2952433e-38 412 286
0.097672932 0.59899998 -0.048311342 1.2952433e-38 413 286
0.098723181 0.59899998 -0.048311342 1.2952433e-38 414 286
0.099606857 0.59799999 -0.048230689 1.2952433e-38 415 286
0.10065535 0.59799999 -0.048230689 1.2951714e-38 416 286
0.10187392 0.59899998 -0.048311342 1.304391e-38 417 286
0.10275234 0.59799999 -0.048230689 1.3044631e-38 418 286
0.10362726 0.597 -0.048150036 1.3044631e-38 419 286
0.104674 0.597 -0.048150036 1.276984e-38 420 286
0.10589782 0.59799999 -0.048230689 1.276984e-38 421 286
0.10694631 0.59799999 -0.048230689 1.295243e-38 422 286
0.10781422 0.597 -0.048150036 1.2860234e-38 423 286
0.10886096 0.597 -0.048150036 1.2951711e-38 424 286
0.1099077 0.597 -0.048150036 1.3044266e-38 425 286
0.11095444 0.597 -0.048150036 1.3227578e-38 426 286
0.11200118 0.597 -0.048150036 1.3319774e-38 427 286
0.11304791 0.597 -0.048150036 1.3136461e-38 428 286
0.11390355 0.59600002 -0.048069384 1.3320492e-38 429 286
0.11494854 0.59600002 -0.048069384 1.313718e-38 430 286
0.11599351 0.59600002 -0.048069384 1.313718e-38 431 286
0.1170385 0.59600002 -0.048069384 1.3230096e-38 432 286
0.11808349 0.59600002 -0.048069384 1.31379e-38 433 286
0.11912847 0.59600002 -0.048069384 1.313933e-38 434 286
0.11997183 0.59500003 -0.047988731 1.4891045e-38 435 286
0.12101507 0.59500003 -0.047988731 1.4912607e-38 436 286
0.1220583 0.59500003 -0.047988731 1.7309692e-38 437 286
0.12310154 0.59500003 -0.047988731 1.5292523e-38 438 286
0.12435342 0.59600002 -0.048069384 1.5292523e-38 439 286
-0.16650005 0.64600003 -0.053234708 1.2247566e-38 173 287
-0.16536738 0.64600003 -0.053234708 1.2881798e-38 174 287
-0.16372626 0.64399999 -0.05306989 1.2236428e-38 175 287
-0.16259712 0.64399999 -0.05306989 1.2415434e-38 176 287
-0.16146797 0.64399999 -0.05306989 1.1770065e-38 177 287
-0.16083677 0.64600003 -0.053234708 1.1860465e-38 178 287
-0.15920968 0.64399999 -0.05306989 1.1860465e-38 179 287
-0.15808052 0.64399999 -0.05306989 1.195014e-38 180 287
-0.15695138 0.64399999 -0.05306989 1.1765749e-38 181 287
-0.15630616 0.64600003 -0.053234708 1.2133808e-38 182 287
-0.15469308 0.64399999 -0.05306989 1.2041613e-38 183 287
-0.15356395 0.64399999 -0.05306989 1.1766102e-38 184 287
-0.15290821 0.64600003 -0.053234708 1.1766102e-38 185 287
-0.15130565 0.64399999 -0.05306989 1.1582784e-38 186 287
-0.1501765 0.64399999 -0.05306989 1.1582784e-38 187 287
-0.14904734 0.64399999 -0.05306989 1.1766099e-38 188 287
-0.14768852 0.64300001 -0.052987486 1.1581708e-38 189 287
-0.14656113 0.64300001 -0.052987486 1.2317108e-38 190 287
-0.14520755 0.64200002 -0.052905083 1.2317108e-38 191 287
-0.14408192 0.64200002 -0.052905083 1.2133437e-38 192 287
-0.1427336 0.64099997 -0.052822668 1.2041241e-38 193 287
-0.14160971 0.64099997 -0.052822668 1.1766102e-38 194 287
-0.14048582 0.64099997 -0.052822668 1.1950493e-38 195 287
-0.13936193 0.64099997 -0.052822668 1.1858661e-38 196 287
-0.13823804 0.64099997 -0.052822668 1.1490238e-38 197 287
-0.13711417 0.64099997 -0.052822668 1.1673553e-38 198 287
-0.13599028 0.64099997 -0.052822668 1.1488803e-38 199 287
-0.13486639 0.64099997 -0.052822668 1.1580286e-38 200 287
-0.13374251 0.64099997 -0.052822668 1.1672481e-38 201 287
-0.13261862 0.64099997 -0.052822668 1.1580286e-38 202 287
-0.13149473 0.64099997 -0.052822668 1.1672481e-38 203 287
-0.13037084 0.64099997 -0.052822668 1.1763598e-38 204 287
-0.12904532 0.63999999 -0.052740265 1.1763598e-38 205 287
-0.12792319 0.63999999 -0.052740265 1.1672481e-38 206 287
-0.12680106 0.63999999 -0.052740265 1.1580286e-38 207 287
-0.12567893 0.63999999 -0.052740265 1.1488806e-38 208 287
-0.12455679 0.63999999 -0.052740265 1.1488806e-38 209 287
-0.12304893 0.63800001 -0.05257545 1.148809e-38 210 287
-0.1217392 0.63700002 -0.052493047 1.1580286e-38 211 287
-0.12062232 0.63700002 -0.052493047 1.1488809e-38 212 287
-0.11950545 0.63700002 -0.052493047 1.1304419e-38 213 287
-0.11838858 0.63700002 -0.052493047 1.148809e-38 214 287
-0.1172717 0.63700002 -0.052493047 1.1395534e-38 215 287
-0.11615483 0.63700002 -0.052493047 1.148809e-38 216 287
-0.11503795 0.63700002 -0.052493047 1.148809e-38 217 287
-0.11392108 0.63700002 -0.052493047 1.1487734e-38 218 287
-0.11280421 0.63700002 -0.052493047 1.1395537e-38 219 287
-0.11151199 0.63599998 -0.052410636 1.1578486e-38 220 287
-0.11039687 0.63599998 -0.052410636 1.1670682e-38 221 287
-0.10928176 0.63599998 -0.052410636 1.1395534e-38 222 287
-0.10799656 0.63499999 -0.052328229 1.148809e-38 223 287
-0.1068832 0.63499999 -0.052328229 1.1304775e-38 224 287
-0.10576983 0.63499999 -0.052328229 1.1304775e-38 225 287
-0.10465646 0.63499999 -0.052328229 1.139589e-38 226 287
-0.1035431 0.63499999 -0.052328229 1.1211499e-38 227 287
-0.10226842 0.634 -0.052245826 1.1395171e-38 228 287
-0.10115681 0.634 -0.052245826 1.1487367e-38 229 287
-0.1000452 0.634 -0.052245826 1.1212578e-38 230 287
-0.098621495 0.63200003 -0.052081011 1.1120382e-38 231 287
-0.097513385 0.63200003 -0.052081011 1.1395171e-38 232 287
-0.096405275 0.63200003 -0.052081011 1.1395171e-38 233 287
-0.095297173 0.63200003 -0.052081011 1.1120026e-38 234 287
-0.094189063 0.63200003 -0.052081011 1.1120026e-38 235 287
-0.09293367 0.63099998 -0.051998604 1.1027831e-38 236 287
-0.091827318 0.63099998 -0.051998604 1.1120026e-38 237 287
-0.090720966 0.63099998 -0.051998604 1.1120745e-38 238 287
-0.089614615 0.63099998 -0.051998604 1.1120745e-38 239 287
-0.088367999 0.63 -0.051916201 1.0845237e-38 240 287
-0.087263398 0.63 -0.051916201 1.0845237e-38 241 287
-0.086158797 0.63 -0.051916201 1.0936714e-38 242 287
-0.085054196 0.63 -0.051916201 1.0936714e-38 243 287
-0.083949596 0.63 -0.051916201 1.1027828e-38 244 287
-0.082844995 0.63 -0.051916201 1.1027828e-38 245 287
-0.08161065 0.62900001 -0.05183379 1.1027831e-38 246 287
-0.0805078 0.62900001 -0.05183379 1.1027831e-38 247 287
-0.079404958 0.62900001 -0.05183379 1.1027831e-38 248 287
-0.078302108 0.62900001 -0.05183379 1.1120026e-38 249 287
-0.077076539 0.62800002 -0.051751386 1.0661922e-38 250 287
-0.07597544 0.62800002 -0.051751386 1.0661922e-38 251 287
-0.074874349 0.62800002 -0.051751386 1.0753042e-38 252 287
-0.07377325 0.62800002 -0.051751386 1.0660487e-38 253 287
-0.072672158 0.62800002 -0.051751386 1.0935279e-38 254 287
-0.071457095 0.62699997 -0.051668976 1.1027834e-38 255 287
-0.070357755 0.62699997 -0.051668976 1.0752689e-38 256 287
-0.069258414 0.62699997 -0.051668976 1.0752689e-38 257 287
-0.068159074 0.62699997 -0.051668976 1.056902e-38 258 287
-0.067059733 0.62699997 -0.051668976 1.056902e-38 259 287
-0.065960392 0.62699997 -0.051668976 1.0660493e-38 260 287
-0.064861059 0.62699997 -0.051668976 1.0660493e-38 261 287
-0.063558333 0.625 -0.051504165 1.0476822e-38 262 287
-0.062462498 0.625 -0.051504165 1.0384626e-38 263 287
-0.061366666 0.625 -0.051504165 1.0476103e-38 264 287
-0.060174398 0.62400001 -0.051421762 1.0476103e-38 265 287
-0.059080318 0.62400001 -0.051421762 1.0477178e-38 266 287
-0.057986241 0.62400001 -0.051421762 1.0384982e-38 267 287
-0.05689216 0.62400001 -0.051421762 1.0659769e-38 268 287
-0.05579808 0.62400001 -0.051421762 1.0659769e-38 269 287
-0.054703999 0.62400001 -0.051421762 1.0475379e-38 270 287
-0.053609919 0.62400001 -0.051421762 1.0567576e-38 271 287
-0.052515838 0.62400001 -0.051421762 1.0476103e-38 272 287
-0.051339354 0.62300003 -0.051339354 1.0660493e-38 273 287
-0.050166372 0.62199998 -0.051256943 1.0477897e-38 274 287
-0.049075797 0.62199998 -0.051256943 1.020167e-38 275 287
-0.047985226 0.62199998 -0.051256943 1.0383907e-38 276 287
-0.046894647 0.62199998 -0.051256943 1.029171e-38 277 287
-0.045804076 0.62199998 -0.051256943 1.0475023e-38 278 287
-0.044713505 0.62199998 -0.051256943 1.0567578e-38 279 287
-0.04362293 0.62199998 -0.051256943 1.0292784e-38 280 287
-0.042532358 0.62199998 -0.051256943 1.0384979e-38 281 287
-0.041441783 0.62199998 -0.051256943 1.0292784e-38 282 287
-0.040286336 0.62099999 -0.05117454 1.0292784e-38 283 287
-0.039197516 0.62099999 -0.05117454 1.0384263e-38 284 287
-0.038108699 0.62099999 -0.05117454 1.0292066e-38 285 287
-0.037019879 0.62099999 -0.05117454 1.0567576e-38 286 287
-0.035931058 0.62099999 -0.05117454 1.0567576e-38 287 287
-0.034786131 0.62 -0.051092129 1.0292066e-38 288 287
-0.033699065 0.62 -0.051092129 1.0292066e-38 289 287
-0.032612 0.62 -0.051092129 1.0382827e-38 290 287
-0.03152493 0.62 -0.051092129 1.0475023e-38 291 287
-0.030437866 0.62 -0.051092129 1.0382827e-38 292 287
-0.029350799 0.62 -0.051092129 1.0475023e-38 293 287
-0.028263735 0.62 -0.051092129 1.0108401e-38 294 287
-0.027176665 0.62 -0.051092129 1.0108401e-38 295 287
-0.026089599 0.62 -0.051092129 1.0199518e-38 296 287
-0.025002534 0.62 -0.051092129 1.0199518e-38 297 287
-0.023915466 0.62 -0.051092129 1.0291357e-38 298 287
-0.0228284 0.62 -0.051092129 1.0199162e-38 299 287
-0.021706266 0.61900002 -0.051009726 1.020379e-38 300 287
-0.020620953 0.61900002 -0.051009726 1.398381e-38 301 287
-0.01953564 0.61900002 -0.051009726 9.8680545e-39 302 287
-0.018450327 0.61900002 -0.051009726 1.0882567e-38 303 287
-0.017336959 0.61799997 -0.050927319 1.2541419e-38 304 287
-0.016253399 0.61799997 -0.050927319 1.3832158e-38 305 287
-0.015169838 0.61799997 -0.050927319 1.3180716e-38 306 287
-0.014040694 0.616 -0.050762504 1.2903769e-38 307 287
-0.01296064 0.616 -0.050762504 1.2628258e-38 308 287
-0.011919159 0.61799997 -0.050927319 1.2813009e-38 309 287
-0.010800533 0.616 -0.050762504 1.2813007e-38 310 287
-0.0097204801 0.616 -0.050762504 1.2259833e-38 311 287
-0.0086263996 0.61500001 -0.050680101 1.207616e-38 312 287
-0.0075481003 0.61500001 -0.050680101 1.2537497e-38 313 287
-0.0064592799 0.61400002 -0.050597694 1.2720444e-38 314 287
-0.0053827334 0.61400002 -0.050597694 1.2443498e-38 315 287
-0.0043061865 0.61400002 -0.050597694 1.2353098e-38 316 287
-0.00322964 0.61400002 -0.050597694 1.2906271e-38 317 287
-0.0021530932 0.61400002 -0.050597694 1.2905552e-38 318 287
-0.0010765466 0.61400002 -0.050597694 1.3274334e-38 319 287
0 0.61400002 -0.050597694 1.2815874e-38 320 287
0.0010747933 0.61299998 -0.050515283 1.2631482e-38 321 287
0.0021495866 0.61299998 -0.050515283 1.2815874e-38 322 287
0.0032243798 0.61299998 -0.050515283 1.2908069e-38 323 287
0.0042991731 0.61299998 -0.050515283 1.3275061e-38 324 287
0.0053739659 0.61299998 -0.050515283 1.2445299e-38 325 287
0.0064382395 0.61199999 -0.050432879 1.2627905e-38 326 287
0.0075112795 0.61199999 -0.050432879 1.1060939e-38 327 287
0.0085843196 0.61199999 -0.050432879 9.7601769e-39 328 287
0.0096731391 0.61299998 -0.050515283 5.7957648e-39 329 287
0.010747932 0.61299998 -0.050515283 2.7627118e-39 330 287
0.011822726 0.61299998 -0.050515283 3.1311342e-39 331 287
0.012897519 0.61299998 -0.050515283 2.7627244e-39 332 287
0.013949519 0.61199999 -0.050432879 2.6705288e-39 333 287
0.015022559 0.61199999 -0.050432879 2.3946649e-39 334 287
0.016095599 0.61199999 -0.050432879 2.3946649e-39 335 287
0.017140586 0.611 -0.050350472 2.3035483e-39 336 287
0.018211873 0.611 -0.050350472 2.3035483e-39 337 287
0.019283159 0.611 -0.050350472 2.3946621e-39 338 287
0.020354446 0.611 -0.050350472 2.4872165e-39 339 287
0.021425733 0.611 -0.050350472 2.8559766e-39 340 287
0.022497021 0.611 -0.050350472 3.4091504e-39 341 287
0.023568306 0.611 -0.050350472 6.8088125e-39 342 287
0.024639593 0.611 -0.050350472 7.8226043e-39 343 287
0.0256688 0.61000001 -0.050268065 1.204126e-38 344 287
0.026738333 0.61000001 -0.050268065 1.204126e-38 345 287
0.027807867 0.61000001 -0.050268065 8.7305435e-39 346 287
0.028877402 0.61000001 -0.050268065 7.7160328e-39 347 287
0.029897839 0.60900003 -0.050185662 4.9667427e-39 348 287
0.030965621 0.60900003 -0.050185662 5.2436897e-39 349 287
0.032033399 0.60900003 -0.050185662 1.0017329e-38 350 287
0.033101182 0.60900003 -0.050185662 1.0017329e-38 351 287
0.034168959 0.60900003 -0.050185662 1.16675e-38 352 287
0.035178877 0.60799998 -0.050103247 1.1483108e-38 353 287
0.036244903 0.60799998 -0.050103247 6.1613454e-39 354 287
0.037310928 0.60799998 -0.050103247 5.3315847e-39 355 287
0.038313836 0.60699999 -0.050020844 2.0294781e-39 356 287
0.03937811 0.60699999 -0.050020844 2.0294781e-39 357 287
0.040442385 0.60699999 -0.050020844 2.2117156e-39 358 287
0.041506659 0.60699999 -0.050020844 2.11952e-39 359 287
0.042500798 0.60600001 -0.04993844 5.6996386e-39 360 287
0.043563321 0.60600001 -0.04993844 6.8063463e-39 361 287
0.044699479 0.60699999 -0.050020844 1.176651e-38 362 287
0.045688361 0.60600001 -0.04993844 1.1213336e-38 363 287
0.046750877 0.60600001 -0.04993844 1.1852592e-38 364 287
0.047813401 0.60600001 -0.04993844 1.1576005e-38 365 287
0.048875917 0.60600001 -0.04993844 1.0932456e-38 366 287
0.04993844 0.60600001 -0.04993844 1.0932456e-38 367 287
0.05100096 0.60600001 -0.04993844 1.0473645e-38 368 287
0.051891651 0.60399997 -0.049773622 1.0473645e-38 369 287
0.052950662 0.60399997 -0.049773622 1.028962e-38 370 287
0.05418852 0.60600001 -0.04993844 9.9208372e-39 371 287
0.05525104 0.60600001 -0.04993844 7.7182412e-39 372 287
0.056313559 0.60600001 -0.04993844 6.8884806e-39 373 287
0.057376076 0.60600001 -0.04993844 2.85492e-39 374 287
0.058438603 0.60600001 -0.04993844 2.7627244e-39 375 287
0.059501119 0.60600001 -0.04993844 1.7532584e-39 376 287
0.060363755 0.60399997 -0.049773622 1.8458128e-39 377 287
0.061422769 0.60399997 -0.049773622 2.1220395e-39 378 287
0.06248178 0.60399997 -0.049773622 2.2142351e-39 379 287
0.063540794 0.60399997 -0.049773622 2.1231227e-39 380 287
0.064492859 0.60299999 -0.049691219 2.1231227e-39 381 287
0.065550111 0.60299999 -0.049691219 2.213166e-39 382 287
0.066607378 0.60299999 -0.049691219 2.3053616e-39 383 287
0.067664638 0.60299999 -0.049691219 2.9510813e-39 384 287
0.068721898 0.60299999 -0.049691219 4.1496245e-39 385 287
0.069663435 0.602 -0.049608812 6.3648027e-39 386 287
0.070718944 0.602 -0.049608812 8.3931066e-39 387 287
0.071774453 0.602 -0.049608812 9.2185246e-39 388 287
0.072829954 0.602 -0.049608812 8.2969285e-39 389 287
0.073885463 0.602 -0.049608812 9.3028155e-39 390 287
0.074940972 0.602 -0.049608812 9.3950112e-39 391 287
0.075996481 0.602 -0.049608812 7.0047968e-39 392 287
0.076923996 0.60100001 -0.049526405 2.855992e-39 393 287
0.077977739 0.60100001 -0.049526405 2.1173578e-39 394 287
0.079031497 0.60100001 -0.049526405 3.5002922e-39 395 287
0.080085255 0.60100001 -0.049526405 7.0793136e-39 396 287
0.081139006 0.60100001 -0.049526405 7.724683e-39 397 287
0.082192764 0.60100001 -0.049526405 1.1667825e-38 398 287
0.083246514 0.60100001 -0.049526405 1.1391598e-38 399 287
0.084300265 0.60100001 -0.049526405 1.1757858e-38 400 287
0.085354015 0.60100001 -0.049526405 1.1757858e-38 401 287
0.086407773 0.60100001 -0.049526405 1.194117e-38 402 287
0.087461524 0.60100001 -0.049526405 1.194117e-38 403 287
0.088515282 0.60100001 -0.049526405 1.2033723e-38 404 287
0.089569032 0.60100001 -0.049526405 1.2033723e-38 405 287
0.090622783 0.60100001 -0.049526405 1.1942607e-38 406 287
0.091523997 0.60000002 -0.049444001 1.1757855e-38 407 287
0.092576005 0.60000002 -0.049444001 1.2216313e-38 408 287
0.093627997 0.60000002 -0.049444001 1.2216313e-38 409 287
0.094680004 0.60000002 -0.049444001 1.2309229e-38 410 287
0.095732003 0.60000002 -0.049444001 1.2309229e-38 411 287
0.096622683 0.59899998 -0.04936159 1.2309231e-38 412 287
0.097672932 0.59899998 -0.04936159 1.2309231e-38 413 287
0.098723181 0.59899998 -0.04936159 1.2400708e-38 414 287
0.099773429 0.59899998 -0.04936159 1.2400708e-38 415 287
0.10082367 0.59899998 -0.04936159 1.2400708e-38 416 287
0.10187392 0.59899998 -0.04936159 1.2492904e-38 417 287
0.10275234 0.59799999 -0.049279183 1.2401427e-38 418 287
0.10362726 0.597 -0.04919678 1.2493623e-38 419 287
0.104674 0.597 -0.04919678 1.240178e-38 420 287
0.10589782 0.59799999 -0.049279183 1.2309584e-38 421 287
0.10694631 0.59799999 -0.049279183 1.2401061e-38 422 287
0.10781422 0.597 -0.04919678 1.2401061e-38 423 287
0.10886096 0.597 -0.04919678 1.2584373e-38 424 287
0.1099077 0.597 -0.04919678 1.2676569e-38 425 287
0.11095444 0.597 -0.04919678 1.2675853e-38 426 287
0.11200118 0.597 -0.04919678 1.2675853e-38 427 287
0.11304791 0.597 -0.04919678 1.276877e-38 428 287
0.11390355 0.59600002 -0.049114373 1.276877e-38 429 287
0.11494854 0.59600002 -0.049114373 1.295208e-38 430 287
0.11599351 0.59600002 -0.049114373 1.3044275e-38 431 287
0.1170385 0.59600002 -0.049114373 1.2953882e-38 432 287
0.11808349 0.59600002 -0.049114373 1.3046077e-38 433 287
0.11912847 0.59600002 -0.049114373 1.2773434e-38 434 287
0.11997183 0.59500003 -0.049031969 1.4709542e-38 435 287
0.12101507 0.59500003 -0.049031969 1.5096998e-38 436 287
0.1220583 0.59500003 -0.049031969 1.7401889e-38 437 287
0.12310154 0.59500003 -0.049031969 1.5109929e-38 438 287
0.12456205 0.597 -0.04919678 1.5017734e-38 439 287
-0.16536738 0.64600003 -0.05436736 1.5938282e-38 174 288
-0.16423474 0.64600003 -0.05436736 1.5846085e-38 175 288
-0.16310208 0.64600003 -0.05436736 1.5936488e-38 176 288
-0.16196944 0.64600003 -0.05436736 1.547551e-38 177 288
-0.16083677 0.64600003 -0.05436736 1.5474784e-38 178 288
-0.15920968 0.64399999 -0.054199036 1.5013806e-38 179 288
-0.15808052 0.64399999 -0.054199036 1.4919088e-38 180 288
-0.15743881 0.64600003 -0.05436736 1.4458469e-38 181 288
-0.15630616 0.64600003 -0.05436736 1.4639982e-38 182 288
-0.15517351 0.64600003 -0.05436736 1.4271201e-38 183 288
-0.15404086 0.64600003 -0.05436736 1.3993893e-38 184 288
-0.15290821 0.64600003 -0.05436736 1.3348524e-38 185 288
-0.15177555 0.64600003 -0.05436736 1.3528596e-38 186 288
-0.1506429 0.64600003 -0.05436736 1.3159814e-38 187 288
-0.14904734 0.64399999 -0.054199036 1.2880713e-38 188 288
-0.14791821 0.64399999 -0.054199036 1.2143148e-38 189 288
-0.14678906 0.64399999 -0.054199036 1.2231025e-38 190 288
-0.14543374 0.64300001 -0.054114878 1.149346e-38 191 288
-0.14430635 0.64300001 -0.054114878 1.1856847e-38 192 288
-0.14295629 0.64200002 -0.05403072 1.1672455e-38 193 288
-0.14183065 0.64200002 -0.05403072 1.1307642e-38 194 288
-0.14048582 0.64099997 -0.053946555 1.1215446e-38 195 288
-0.13936193 0.64099997 -0.053946555 1.102963e-38 196 288
-0.13845372 0.64200002 -0.05403072 1.0753042e-38 197 288
-0.13711417 0.64099997 -0.053946555 1.093456e-38 198 288
-0.13599028 0.64099997 -0.053946555 1.0750168e-38 199 288
-0.13486639 0.64099997 -0.053946555 1.1395537e-38 200 288
-0.13374251 0.64099997 -0.053946555 1.157993e-38 201 288
-0.13261862 0.64099997 -0.053946555 1.1488806e-38 202 288
-0.13149473 0.64099997 -0.053946555 1.1673197e-38 203 288
-0.13037084 0.64099997 -0.053946555 1.1949058e-38 204 288
-0.12924695 0.64099997 -0.053946555 1.1949058e-38 205 288
-0.12812307 0.64099997 -0.053946555 1.1856863e-38 206 288
-0.12699918 0.64099997 -0.053946555 1.1949058e-38 207 288
-0.12567893 0.63999999 -0.053862397 1.1672834e-38 208 288
-0.12455679 0.63999999 -0.053862397 1.1856866e-38 209 288
-0.12343466 0.63999999 -0.053862397 1.1672478e-38 210 288
-0.1219303 0.63800001 -0.053694081 1.1580283e-38 211 288
-0.12081168 0.63800001 -0.053694081 1.157993e-38 212 288
-0.11969305 0.63800001 -0.053694081 1.157993e-38 213 288
-0.11857442 0.63800001 -0.053694081 1.1580286e-38 214 288
-0.1174558 0.63800001 -0.053694081 1.148809e-38 215 288
-0.11633718 0.63800001 -0.053694081 1.1580286e-38 216 288
-0.11521855 0.63800001 -0.053694081 1.148809e-38 217 288
-0.11409992 0.63800001 -0.053694081 1.1762882e-38 218 288
-0.11280421 0.63700002 -0.053609919 1.1762882e-38 219 288
-0.11168733 0.63700002 -0.053609919 1.1671046e-38 220 288
-0.11039687 0.63599998 -0.053525757 1.1763601e-38 221 288
-0.10928176 0.63599998 -0.053525757 1.1580286e-38 222 288
-0.10816664 0.63599998 -0.053525757 1.1672481e-38 223 288
-0.10705151 0.63599998 -0.053525757 1.1488806e-38 224 288
-0.10576983 0.63499999 -0.053441599 1.1212578e-38 225 288
-0.10465646 0.63499999 -0.053441599 1.1671402e-38 226 288
-0.1035431 0.63499999 -0.053441599 1.148737e-38 227 288
-0.10242973 0.63499999 -0.053441599 1.148737e-38 228 288
-0.10131636 0.63499999 -0.053441599 1.1671402e-38 229 288
-0.10020299 0.63499999 -0.053441599 1.139589e-38 230 288
-0.09908963 0.63499999 -0.053441599 1.139589e-38 231 288
-0.09797626 0.63499999 -0.053441599 1.139589e-38 232 288
-0.096710362 0.634 -0.053357437 1.1488087e-38 233 288
-0.09559875 0.634 -0.053357437 1.139589e-38 234 288
-0.094487131 0.634 -0.053357437 1.139589e-38 235 288
-0.09308096 0.63200003 -0.053189121 1.1304775e-38 236 288
-0.09197285 0.63200003 -0.053189121 1.1304775e-38 237 288
-0.090864748 0.63200003 -0.053189121 1.1212945e-38 238 288
-0.089756638 0.63200003 -0.053189121 1.1120748e-38 239 288
-0.088508263 0.63099998 -0.053104956 1.1212589e-38 240 288
-0.087401912 0.63099998 -0.053104956 1.1120392e-38 241 288
-0.086295553 0.63099998 -0.053104956 1.1304422e-38 242 288
-0.085189201 0.63099998 -0.053104956 1.1212225e-38 243 288
-0.084082849 0.63099998 -0.053104956 1.1395534e-38 244 288
-0.082844995 0.63 -0.053020798 1.1395534e-38 245 288
-0.081740394 0.63 -0.053020798 1.1395534e-38 246 288
-0.080635794 0.63 -0.053020798 1.148809e-38 247 288
-0.079404958 0.62900001 -0.05293664 1.1027831e-38 248 288
-0.078302108 0.62900001 -0.05293664 1.1120026e-38 249 288
-0.077199265 0.62900001 -0.05293664 1.093743e-38 250 288
-0.076096416 0.62900001 -0.05293664 1.093743e-38 251 288
-0.074993573 0.62900001 -0.05293664 1.084559e-38 252 288
-0.073890723 0.62900001 -0.05293664 1.084559e-38 253 288
-0.072787881 0.62900001 -0.05293664 1.093743e-38 254 288
-0.071571067 0.62800002 -0.052852482 1.0845235e-38 255 288
-0.070469975 0.62800002 -0.052852482 1.0753768e-38 256 288
-0.069368884 0.62800002 -0.052852482 1.0661572e-38 257 288
-0.068159074 0.62699997 -0.052768316 1.0844165e-38 258 288
-0.067059733 0.62699997 -0.052768316 1.0844165e-38 259 288
-0.065960392 0.62699997 -0.052768316 1.0845237e-38 260 288
-0.064861059 0.62699997 -0.052768316 1.0937433e-38 261 288
-0.063761711 0.62699997 -0.052768316 1.0844518e-38 262 288
-0.062662378 0.62699997 -0.052768316 1.0752323e-38 263 288
-0.061366666 0.625 -0.0526 1.066049e-38 264 288
-0.060270831 0.625 -0.0526 1.0752686e-38 265 288
-0.059175 0.625 -0.0526 1.0661569e-38 266 288
-0.058079164 0.625 -0.0526 1.0569374e-38 267 288
-0.056983333 0.625 -0.0526 1.0752323e-38 268 288
-0.055887498 0.625 -0.0526 1.0659769e-38 269 288
-0.054791667 0.625 -0.0526 1.0567576e-38 270 288
-0.053695831 0.625 -0.0526 1.0659771e-38 271 288
-0.052515838 0.62400001 -0.052515838 1.0569374e-38 272 288
-0.051421762 0.62400001 -0.052515838 1.0477178e-38 273 288
-0.050327681 0.62400001 -0.052515838 1.0569374e-38 274 288
-0.049233597 0.62400001 -0.052515838 1.0477178e-38 275 288
-0.04813952 0.62400001 -0.052515838 1.0384982e-38 276 288
-0.047045439 0.62400001 -0.052515838 1.0292787e-38 277 288
-0.045877717 0.62300003 -0.05243168 1.0567573e-38 278 288
-0.044785395 0.62300003 -0.05243168 1.0752323e-38 279 288
-0.043693069 0.62300003 -0.05243168 1.0477175e-38 280 288
-0.042532358 0.62199998 -0.052347515 1.0292784e-38 281 288
-0.041441783 0.62199998 -0.052347515 1.0384982e-38 282 288
-0.040351212 0.62199998 -0.052347515 1.0384982e-38 283 288
-0.039260637 0.62199998 -0.052347515 1.0476459e-38 284 288
-0.038108699 0.62099999 -0.052263357 1.0476459e-38 285 288
-0.037019879 0.62099999 -0.052263357 1.0476456e-38 286 288
-0.035931058 0.62099999 -0.052263357 1.0384261e-38 287 288
-0.034842238 0.62099999 -0.052263357 1.0292784e-38 288 288
-0.033753417 0.62099999 -0.052263357 1.0384979e-38 289 288
-0.032664597 0.62099999 -0.052263357 1.0384261e-38 290 288
-0.031575777 0.62099999 -0.052263357 1.0384261e-38 291 288
-0.03048696 0.62099999 -0.052263357 1.0384261e-38 292 288
-0.02939814 0.62099999 -0.052263357 1.0384261e-38 293 288
-0.028309319 0.62099999 -0.052263357 1.0109118e-38 294 288
-0.027220499 0.62099999 -0.052263357 1.0016921e-38 295 288
-0.026089599 0.62 -0.052179199 1.0292434e-38 296 288
-0.025002534 0.62 -0.052179199 1.0292434e-38 297 288
-0.023954039 0.62099999 -0.052263357 1.029171e-38 298 288
-0.022865219 0.62099999 -0.052263357 1.029171e-38 299 288
-0.021741332 0.62 -0.052179199 1.0113025e-38 300 288
-0.020654265 0.62 -0.052179199 1.3708652e-38 301 288
-0.01953564 0.61900002 -0.052095041 9.7754931e-39 302 288
-0.018450327 0.61900002 -0.052095041 1.0881481e-38 303 288
-0.017365014 0.61900002 -0.052095041 1.2265909e-38 304 288
-0.016279699 0.61900002 -0.052095041 1.3464452e-38 305 288
-0.015169838 0.61799997 -0.052010875 1.2810857e-38 306 288
-0.014086278 0.61799997 -0.052010875 1.2165488e-38 307 288
-0.013002719 0.61799997 -0.052010875 1.1981819e-38 308 288
-0.011919159 0.61799997 -0.052010875 1.1981819e-38 309 288
-0.010835599 0.61799997 -0.052010875 1.1430085e-38 310 288
-0.0097520389 0.61799997 -0.052010875 9.9553147e-39 311 288
-0.0086404262 0.616 -0.051842559 9.8620387e-39 312 288
-0.0075603728 0.616 -0.051842559 1.0599604e-38 313 288
-0.0064697997 0.61500001 -0.051758397 1.0687837e-38 314 288
-0.0053915 0.61500001 -0.051758397 9.5814904e-39 315 288
-0.0043131998 0.61500001 -0.051758397 8.9436767e-39 316 288
-0.00322964 0.61400002 -0.051674239 9.7734374e-39 317 288
-0.0021530932 0.61400002 -0.051674239 1.0597087e-38 318 288
-0.0010782999 0.61500001 -0.051758397 1.0781478e-38 319 288
0 0.61400002 -0.051674239 1.1061658e-38 320 288
0.0010765466 0.61400002 -0.051674239 1.1707028e-38 321 288
0.0021530932 0.61400002 -0.051674239 1.2259482e-38 322 288
0.00322964 0.61400002 -0.051674239 1.207509e-38 323 288
0.0043061865 0.61400002 -0.051674239 1.1613033e-38 324 288
0.0053827334 0.61400002 -0.051674239 1.170523e-38 325 288
0.0064487597 0.61299998 -0.051590078 1.3085296e-38 326 288
0.007523553 0.61299998 -0.051590078 1.5205795e-38 327 288
0.0085983463 0.61299998 -0.051590078 1.2987024e-38 328 288
0.0096731391 0.61299998 -0.051590078 6.6255255e-39 329 288
0.010747932 0.61299998 -0.051590078 2.8563395e-39 330 288
0.011822726 0.61299998 -0.051590078 3.0410895e-39 331 288
0.012897519 0.61299998 -0.051590078 2.6705259e-39 332 288
0.013949519 0.61199999 -0.051505916 2.5783303e-39 333 288
0.015022559 0.61199999 -0.051505916 2.3035483e-39 334 288
0.016095599 0.61199999 -0.051505916 2.3035483e-39 335 288
0.017168639 0.61199999 -0.051505916 2.3035483e-39 336 288
0.018211873 0.611 -0.051421758 2.3035483e-39 337 288
0.019283159 0.611 -0.051421758 2.4879354e-39 338 288
0.020354446 0.611 -0.051421758 2.4879354e-39 339 288
0.021425733 0.611 -0.051421758 3.4062763e-39 340 288
0.022497021 0.611 -0.051421758 3.8672545e-39 341 288
0.023568306 0.611 -0.051421758 7.4491541e-39 342 288
0.024639593 0.611 -0.051421758 8.1870779e-39 343 288
0.025710879 0.611 -0.051421758 1.1670696e-38 344 288
0.026782164 0.611 -0.051421758 1.2961435e-38 345 288
0.027807867 0.61000001 -0.0513376 8.547248e-39 346 288
0.028877402 0.61000001 -0.0513376 6.8877253e-39 347 288
0.029946933 0.61000001 -0.0513376 5.0596473e-39 348 288
0.031016467 0.61000001 -0.0513376 6.0738007e-39 349 288
0.032086 0.61000001 -0.0513376 1.2504781e-38 350 288
0.033101182 0.60900003 -0.051253442 1.2227835e-38 351 288
0.034168959 0.60900003 -0.051253442 1.3418105e-38 352 288
0.035236739 0.60900003 -0.051253442 1.2864932e-38 353 288
0.036304522 0.60900003 -0.051253442 7.8129396e-39 354 288
0.037310928 0.60799998 -0.051169276 6.4300051e-39 355 288
0.038376957 0.60799998 -0.051169276 1.8443638e-39 356 288
0.039442983 0.60799998 -0.051169276 2.0287565e-39 357 288
0.040442385 0.60699999 -0.051085118 2.2117058e-39 358 288
0.041506659 0.60699999 -0.051085118 1.9347588e-39 359 288
0.04257093 0.60699999 -0.051085118 7.0778759e-39 360 288
0.043635204 0.60699999 -0.051085118 8.5526458e-39 361 288
0.044699479 0.60699999 -0.051085118 1.4068847e-38 362 288
0.045763753 0.60699999 -0.051085118 1.3976293e-38 363 288
0.046828024 0.60699999 -0.051085118 1.4891042e-38 364 288
0.047813401 0.60600001 -0.05100096 1.4706651e-38 365 288
0.048875917 0.60600001 -0.05100096 1.4247125e-38 366 288
0.04993844 0.60600001 -0.05100096 1.433932e-38 367 288
0.05100096 0.60600001 -0.05100096 1.4523352e-38 368 288
0.051891651 0.60399997 -0.050832637 1.433932e-38 369 288
0.052950662 0.60399997 -0.050832637 1.4063822e-38 370 288
0.05418852 0.60600001 -0.05100096 1.3787235e-38 371 288
0.05525104 0.60600001 -0.05100096 1.0841705e-38 372 288
0.056313559 0.60600001 -0.05100096 9.2754552e-39 373 288
0.057376076 0.60600001 -0.05100096 3.3155282e-39 374 288
0.058438603 0.60600001 -0.05100096 2.7623558e-39 375 288
0.059501119 0.60600001 -0.05100096 1.8458072e-39 376 288
0.060363755 0.60399997 -0.050832637 2.1223926e-39 377 288
0.061422769 0.60399997 -0.050832637 2.1223926e-39 378 288
0.06248178 0.60399997 -0.050832637 2.1223926e-39 379 288
0.063540794 0.60399997 -0.050832637 2.3046329e-39 380 288
0.064599805 0.60399997 -0.050832637 2.3046329e-39 381 288
0.065550111 0.60299999 -0.050748479 2.2113653e-39 382 288
0.066607378 0.60299999 -0.050748479 2.2113653e-39 383 288
0.067664638 0.60299999 -0.050748479 3.0396812e-39 384 288
0.068721898 0.60299999 -0.050748479 3.500658e-39 385 288
0.069779158 0.60299999 -0.050748479 2.6845361e-39 386 288
0.07083641 0.60299999 -0.050748479 6.0957744e-39 387 288
0.071893677 0.60299999 -0.050748479 1.0415627e-38 388 288
0.072829954 0.602 -0.050664317 9.6780622e-39 389 288
0.073885463 0.602 -0.050664317 9.3100014e-39 390 288
0.074940972 0.602 -0.050664317 8.1114596e-39 391 288
0.075996481 0.602 -0.050664317 6.0824733e-39 392 288
0.077051982 0.602 -0.050664317 2.5786792e-39 393 288
0.078107491 0.602 -0.050664317 4.2285008e-39 394 288
0.079163 0.602 -0.050664317 4.8738702e-39 395 288
0.080085255 0.60100001 -0.050580159 7.6292476e-39 396 288
0.081139006 0.60100001 -0.050580159 7.813999e-39 397 288
0.082192764 0.60100001 -0.050580159 1.1389799e-38 398 288
0.083246514 0.60100001 -0.050580159 1.1481994e-38 399 288
0.084300265 0.60100001 -0.050580159 1.1573461e-38 400 288
0.085354015 0.60100001 -0.050580159 1.1573461e-38 401 288
0.086407773 0.60100001 -0.050580159 1.1573098e-38 402 288
0.087461524 0.60100001 -0.050580159 1.1665294e-38 403 288
0.088515282 0.60100001 -0.050580159 1.1666013e-38 404 288
0.089569032 0.60100001 -0.050580159 1.1758209e-38 405 288
0.090622783 0.60100001 -0.050580159 1.1758209e-38 406 288
0.091523997 0.60000002 -0.050496001 1.1573817e-38 407 288
0.092576005 0.60000002 -0.050496001 1.184789e-38 408 288
0.093627997 0.60000002 -0.050496001 1.184789e-38 409 288
0.094680004 0.60000002 -0.050496001 1.2031919e-38 410 288
0.095732003 0.60000002 -0.050496001 1.2124114e-38 411 288
0.096783996 0.60000002 -0.050496001 1.2124114e-38 412 288
0.097672932 0.59899998 -0.050411835 1.2124114e-38 413 288
0.098723181 0.59899998 -0.050411835 1.2123395e-38 414 288
0.099773429 0.59899998 -0.050411835 1.2308145e-38 415 288
0.10082367 0.59899998 -0.050411835 1.2216669e-38 416 288
0.10187392 0.59899998 -0.050411835 1.2216669e-38 417 288
0.10275234 0.59799999 -0.050327677 1.2308866e-38 418 288
0.10362726 0.597 -0.050243519 1.2308866e-38 419 288
0.104674 0.597 -0.050243519 1.2216669e-38 420 288
0.10589782 0.59799999 -0.050327677 1.2124114e-38 421 288
0.10694631 0.59799999 -0.050327677 1.2399259e-38 422 288
0.10781422 0.597 -0.050243519 1.2399259e-38 423 288
0.10886096 0.597 -0.050243519 1.2308143e-38 424 288
0.1099077 0.597 -0.050243519 1.2308143e-38 425 288
0.11095444 0.597 -0.050243519 1.2490739e-38 426 288
0.11200118 0.597 -0.050243519 1.267477e-38 427 288
