# .PCD v.7 - Point Cloud Data file format
FIELDS x y z rgb imX imY
SIZE 4 4 4 4 4 4
TYPE F F F F F F
COUNT 1 1 1 1 1 1
WIDTH 833
HEIGHT 1
VIEWPOINT 0 0 0 1 0 0 0
POINTS 833
DATA ascii
0.058764715 0.68400002 -0.03477912 1.3369092e-38 369 269
0.059964001 0.68400002 -0.03477912 1.5304845e-38 370 269
-0.068672806 0.73900002 -0.0388714 1.4016622e-38 267 270
-0.06737709 0.73900002 -0.0388714 1.4384686e-38 268 270
-0.064091347 0.74599999 -0.039239597 1.4197058e-38 271 270
-0.062783353 0.74599999 -0.039239597 1.3276894e-38 272 270
-0.061557774 0.74699998 -0.039292198 1.2815916e-38 273 270
-0.060409348 0.74900001 -0.0393974 1.272372e-38 274 270
-0.059175 0.75 -0.039449997 1.272372e-38 275 270
-0.058014289 0.75199997 -0.039555199 1.3091426e-38 276 270
-0.056695782 0.75199997 -0.039555199 1.3183622e-38 277 270
-0.055377278 0.75199997 -0.039555199 1.3092501e-38 278 270
-0.054202545 0.75400001 -0.039660402 1.3184697e-38 279 270
-0.052880533 0.75400001 -0.039660402 1.3184694e-38 280 270
-0.051626898 0.755 -0.039712999 1.3276891e-38 281 270
-0.050303131 0.755 -0.039712999 1.3460558e-38 282 270
0.041036766 0.755 -0.039712999 1.6133162e-38 351 270
0.042360533 0.755 -0.039712999 1.6410119e-38 352 270
0.043684296 0.755 -0.039712999 1.6317923e-38 353 270
0.045008067 0.755 -0.039712999 1.5856572e-38 354 270
0.04633183 0.755 -0.039712999 1.5027172e-38 355 270
0.047655597 0.755 -0.039712999 1.5210113e-38 356 270
0.043594878 0.67199999 -0.035347197 1.502572e-38 357 270
0.045039624 0.676 -0.035557602 1.3920814e-38 358 270
0.046224877 0.676 -0.035557602 1.2999218e-38 359 270
0.047410134 0.676 -0.035557602 1.1985435e-38 360 270
0.048595384 0.676 -0.035557602 1.1708489e-38 361 270
0.050001562 0.67900002 -0.035715401 1.0881978e-38 362 270
0.051418249 0.68199998 -0.035873197 1.0789781e-38 363 270
0.052614026 0.68199998 -0.035873197 1.0421722e-38 364 270
0.053809796 0.68199998 -0.035873197 1.0606113e-38 365 270
0.055086225 0.68300003 -0.035925802 1.0699382e-38 366 270
0.056283753 0.68300003 -0.035925802 1.1160359e-38 367 270
0.057481278 0.68300003 -0.035925802 1.2447856e-38 368 270
0.058764715 0.68400002 -0.035978399 1.4291767e-38 369 270
0.059964001 0.68400002 -0.035978399 1.5948415e-38 370 270
-0.06417726 0.74699998 -0.040601939 1.4843872e-38 271 271
-0.062867515 0.74699998 -0.040601939 1.4382884e-38 272 271
-0.061722592 0.74900001 -0.040710647 1.3461288e-38 273 271
-0.060409348 0.74900001 -0.040710647 1.3275092e-38 274 271
-0.059175 0.75 -0.040764999 1.2998865e-38 275 271
-0.058014289 0.75199997 -0.040873703 1.2815918e-38 276 271
-0.056695782 0.75199997 -0.040873703 1.3092145e-38 277 271
-0.055377278 0.75199997 -0.040873703 1.3276174e-38 278 271
-0.054058768 0.75199997 -0.040873703 1.3276174e-38 279 271
-0.052880533 0.75400001 -0.040982414 1.3460562e-38 280 271
-0.051558517 0.75400001 -0.040982414 1.3276171e-38 281 271
-0.050236505 0.75400001 -0.040982414 1.3460558e-38 282 271
0.040060159 0.67199999 -0.036525436 1.5303749e-38 354 271
0.041238401 0.67199999 -0.036525436 1.4750575e-38 355 271
0.042416636 0.67199999 -0.036525436 1.4473269e-38 356 271
0.043594878 0.67199999 -0.036525436 1.38279e-38 357 271
0.044773117 0.67199999 -0.036525436 1.2354214e-38 358 271
0.046224877 0.676 -0.036742851 1.1155671e-38 359 271
0.047410134 0.676 -0.036742851 1.0143693e-38 360 271
0.048739154 0.67799997 -0.036851559 1.0143693e-38 361 271
0.050001562 0.67900002 -0.036905911 1.0329173e-38 362 271
0.051418249 0.68199998 -0.037068974 1.0513564e-38 363 271
0.052614026 0.68199998 -0.037068974 1.051392e-38 364 271
0.053888701 0.68300003 -0.037123326 1.0790148e-38 365 271
0.055086225 0.68300003 -0.037123326 1.0974174e-38 366 271
0.056283753 0.68300003 -0.037123326 1.1619543e-38 367 271
0.057565439 0.68400002 -0.037177678 1.3459856e-38 368 271
0.058936544 0.68599999 -0.037286382 1.5672551e-38 369 271
0.060139328 0.68599999 -0.037286382 1.6317201e-38 370 271
-0.06312 0.75 -0.04208 1.5304847e-38 272 272
-0.061804999 0.75 -0.04208 1.5212652e-38 273 272
-0.060489997 0.75 -0.04208 1.511577e-38 274 272
-0.059175 0.75 -0.04208 1.4285651e-38 275 272
0.040060159 0.67199999 -0.037703678 1.3092133e-38 354 272
0.041238401 0.67199999 -0.037703678 1.1985785e-38 355 272
0.042416636 0.67199999 -0.037703678 1.124787e-38 356 272
0.043594878 0.67199999 -0.037703678 1.0694696e-38 357 272
0.044773117 0.67199999 -0.037703678 1.0327002e-38 358 272
0.046224877 0.676 -0.037928104 1.0695785e-38 359 272
0.047410134 0.676 -0.037928104 1.0786908e-38 360 272
0.048739154 0.67799997 -0.038040318 1.0786908e-38 361 272
0.050001562 0.67900002 -0.038096428 1.0512482e-38 362 272
0.051418249 0.68199998 -0.038264744 1.0697232e-38 363 272
0.052614026 0.68199998 -0.038264744 1.0789425e-38 364 272
0.053888701 0.68300003 -0.038320854 1.1066372e-38 365 272
0.055086225 0.68300003 -0.038320854 1.1617022e-38 366 272
0.056366164 0.68400002 -0.038376961 1.2907761e-38 367 272
0.057565439 0.68400002 -0.038376961 1.4289616e-38 368 272
0.058936544 0.68599999 -0.03848917 1.631792e-38 369 272
0.060139328 0.68599999 -0.03848917 1.650267e-38 370 272
-0.056555521 0.67199999 -0.03888192 1.4291787e-38 272 273
-0.055377278 0.67199999 -0.03888192 1.466057e-38 273 273
0.037591465 0.67000002 -0.038766202 1.3459836e-38 352 273
0.038766202 0.67000002 -0.038766202 1.2814467e-38 353 273
0.040000543 0.671 -0.038824059 1.152553e-38 354 273
0.041238401 0.67199999 -0.03888192 1.0695769e-38 355 273
0.042416636 0.67199999 -0.03888192 9.9592958e-39 356 273
0.043724626 0.67400002 -0.038997639 9.9592958e-39 357 273
0.044972997 0.67500001 -0.039055496 9.8681946e-39 358 273
0.046224877 0.676 -0.039113361 1.0144782e-38 359 273
0.047550395 0.67799997 -0.039229076 9.9611133e-39 360 273
0.048811045 0.67900002 -0.039286941 1.0053309e-38 361 273
0.050075196 0.68000001 -0.039344799 1.0421366e-38 362 273
0.051418249 0.68199998 -0.039460517 1.0606117e-38 363 273
0.052691177 0.68300003 -0.039518382 1.060683e-38 364 273
0.053967599 0.68400002 -0.03957624 1.079158e-38 365 273
0.055166878 0.68400002 -0.03957624 1.2168394e-38 366 273
0.056530971 0.68599999 -0.039691959 1.4197058e-38 367 273
0.057817914 0.68699998 -0.039749816 1.4935342e-38 368 273
0.059022456 0.68699998 -0.039749816 1.6502667e-38 369 273
-0.056555521 0.67199999 -0.040060159 1.125365e-38 272 274
-0.055377278 0.67199999 -0.040060159 1.1345846e-38 273 274
-0.054199036 0.67199999 -0.040060159 1.2452546e-38 274 274
-0.052941896 0.671 -0.040000543 1.3190111e-38 275 274
0.026655925 0.66100001 -0.039404415 1.5856922e-38 343 274
0.02781488 0.66100001 -0.039404415 1.5672891e-38 344 274
0.029017664 0.662 -0.039464023 1.5580696e-38 345 274
0.030178372 0.662 -0.039464023 1.5210831e-38 346 274
0.031528439 0.66600001 -0.039702479 1.4381069e-38 347 274
0.032696161 0.66600001 -0.039702479 1.327688e-38 348 274
0.033914726 0.667 -0.039762091 1.244676e-38 349 274
0.037591465 0.67000002 -0.039940935 9.5912364e-39 352 274
0.038766202 0.67000002 -0.039940935 9.5912364e-39 353 274
0.040000543 0.671 -0.040000543 9.5004855e-39 354 274
0.041238401 0.67199999 -0.040060159 9.869268e-39 355 274
0.042606 0.67500001 -0.040238999 1.05114e-38 356 274
0.043789499 0.67500001 -0.040238999 1.05114e-38 357 274
0.044972997 0.67500001 -0.040238999 1.0144779e-38 358 274
0.046224877 0.676 -0.040298611 1.0144779e-38 359 274
0.047550395 0.67799997 -0.040417835 1.0236974e-38 360 274
0.048811045 0.67900002 -0.040477451 1.032917e-38 361 274
0.050075196 0.68000001 -0.040537067 1.0605037e-38 362 274
0.051418249 0.68199998 -0.040656291 1.0789429e-38 363 274
0.052691177 0.68300003 -0.040715907 1.1066369e-38 364 274
0.053967599 0.68400002 -0.040775519 1.12504e-38 365 274
0.055166878 0.68400002 -0.040775519 1.2446779e-38 366 274
0.056366164 0.68400002 -0.040775519 1.4659475e-38 367 274
-0.059087332 0.67400002 -0.041361131 1.2540792e-38 270 275
-0.057733759 0.67199999 -0.041238401 1.2264206e-38 271 275
-0.056555521 0.67199999 -0.041238401 1.1712473e-38 272 275
-0.055377278 0.67199999 -0.041238401 1.1528442e-38 273 275
-0.054199036 0.67199999 -0.041238401 1.1712829e-38 274 275
-0.052941896 0.671 -0.041177034 1.2173808e-38 275 275
-0.051765412 0.671 -0.041177034 1.2909932e-38 276 275
-0.050513536 0.67000002 -0.041115668 1.337055e-38 277 275
-0.04919152 0.66799998 -0.040992931 1.3280506e-38 278 275
-0.048020288 0.66799998 -0.040992931 1.3465256e-38 279 275
0.02076648 0.65799999 -0.040379263 1.5581059e-38 338 275
0.021886859 0.65700001 -0.0403179 1.5488863e-38 339 275
0.023038799 0.65700001 -0.0403179 1.5212632e-38 340 275
0.02422756 0.65799999 -0.040379263 1.5028241e-38 341 275
0.025381252 0.65799999 -0.040379263 1.5118636e-38 342 275
0.026655925 0.66100001 -0.040563367 1.4934243e-38 343 275
0.02781488 0.66100001 -0.040563367 1.4290676e-38 344 275
0.029017664 0.662 -0.04062473 1.3737502e-38 345 275
0.030178372 0.662 -0.04062473 1.2907383e-38 346 275
0.031433757 0.66399997 -0.040747464 1.2262013e-38 347 275
0.032696161 0.66600001 -0.040870197 1.1616647e-38 348 275
0.03386388 0.66600001 -0.040870197 1.1248223e-38 349 275
0.035031598 0.66600001 -0.040870197 1.0420271e-38 350 275
0.036471087 0.671 -0.041177034 1.0051847e-38 351 275
0.037591465 0.67000002 -0.041115668 9.8663968e-39 352 275
0.038766202 0.67000002 -0.041115668 1.0050788e-38 353 275
0.040000543 0.671 -0.041177034 1.0051512e-38 354 275
0.041238401 0.67199999 -0.041238401 1.014371e-38 355 275
0.042542879 0.67400002 -0.041361131 1.0051507e-38 356 275
0.043854371 0.676 -0.041483864 1.0144063e-38 357 275
0.045039624 0.676 -0.041483864 9.8692708e-39 358 275
0.046361636 0.67799997 -0.041606598 9.9614664e-39 359 275
0.047620531 0.67900002 -0.041667968 1.0053662e-38 360 275
0.048882935 0.68000001 -0.041729335 1.0145858e-38 361 275
0.050075196 0.68000001 -0.041729335 1.0605037e-38 362 275
0.051418249 0.68199998 -0.041852064 1.0789429e-38 363 275
0.052691177 0.68300003 -0.041913435 1.1067088e-38 364 275
0.053888701 0.68300003 -0.041913435 1.1712458e-38 365 275
-0.06044792 0.676 -0.042669121 1.2450025e-38 269 276
-0.059087332 0.67400002 -0.042542879 1.2541145e-38 270 276
-0.057733759 0.67199999 -0.042416636 1.2264559e-38 271 276
-0.056555521 0.67199999 -0.042416636 1.2080531e-38 272 276
-0.055377278 0.67199999 -0.042416636 1.2080531e-38 273 276
-0.054199036 0.67199999 -0.042416636 1.1804306e-38 274 276
-0.052941896 0.671 -0.042353518 1.1619556e-38 275 276
-0.051765412 0.671 -0.042353518 1.1344048e-38 276 276
-0.050513536 0.67000002 -0.042290401 1.1344048e-38 277 276
-0.04919152 0.66799998 -0.042164158 1.1162173e-38 278 276
-0.047876518 0.66600001 -0.042037919 1.1899738e-38 279 276
-0.046498399 0.66299999 -0.041848559 1.3187958e-38 280 276
-0.045335937 0.66299999 -0.041848559 1.3372708e-38 281 276
-0.044106852 0.662 -0.041785441 1.438397e-38 282 276
-0.042946145 0.662 -0.041785441 1.4752392e-38 283 276
-0.0091874655 0.65499997 -0.041343596 1.7332406e-38 312 276
-0.008039033 0.65499997 -0.041343596 1.8346918e-38 313 276
-0.0068905996 0.65499997 -0.041343596 1.861811e-38 314 276
-0.0057421662 0.65499997 -0.041343596 1.7880545e-38 315 276
-0.0022968664 0.65499997 -0.041343596 1.8161467e-38 318 276
-0.0011484332 0.65499997 -0.041343596 1.8899032e-38 319 276
0.01384432 0.65799999 -0.04153296 1.5395947e-38 332 276
0.014998012 0.65799999 -0.04153296 1.5488143e-38 333 276
0.016151706 0.65799999 -0.04153296 1.548886e-38 334 276
0.017305398 0.65799999 -0.04153296 1.548886e-38 335 276
0.01843104 0.65700001 -0.041469838 1.5672891e-38 336 276
0.019582979 0.65700001 -0.041469838 1.5672891e-38 337 276
0.02076648 0.65799999 -0.04153296 1.5395944e-38 338 276
0.021886859 0.65700001 -0.041469838 1.4935326e-38 339 276
0.023038799 0.65700001 -0.041469838 1.4289601e-38 340 276
0.02422756 0.65799999 -0.04153296 1.3644232e-38 341 276
0.025381252 0.65799999 -0.04153296 1.2999584e-38 342 276
0.026655925 0.66100001 -0.04172232 1.2354214e-38 343 276
0.027856959 0.662 -0.041785441 1.1341151e-38 344 276
0.029017664 0.662 -0.041785441 1.0419554e-38 345 276
0.030223956 0.66299999 -0.041848559 9.8660282e-39 346 276
0.031433757 0.66399997 -0.041911677 9.5894399e-39 347 276
0.032696161 0.66600001 -0.042037919 9.4983233e-39 348 276
0.03386388 0.66600001 -0.042037919 9.9589427e-39 349 276
0.035084199 0.667 -0.042101037 9.9596644e-39 350 276
0.036471087 0.671 -0.042353518 1.005186e-38 351 276
0.037647571 0.671 -0.042353518 1.0050788e-38 352 276
0.038824059 0.671 -0.042353518 1.0050788e-38 353 276
0.040000543 0.671 -0.042353518 9.7759962e-39 354 276
0.041238401 0.67199999 -0.042416636 9.8685505e-39 355 276
0.042542879 0.67400002 -0.042542879 9.8681946e-39 356 276
0.043854371 0.676 -0.042669121 9.9603916e-39 357 276
0.045172878 0.67799997 -0.042795356 9.9603916e-39 358 276
0.046361636 0.67799997 -0.042795356 1.0144782e-38 359 276
0.047830928 0.68199998 -0.043047838 1.0329173e-38 360 276
0.049026705 0.68199998 -0.043047838 1.0421368e-38 361 276
0.050222475 0.68199998 -0.043047838 1.051392e-38 362 276
0.051493648 0.68300003 -0.043110959 1.0882344e-38 363 276
0.052691177 0.68300003 -0.043110959 1.1159284e-38 364 276
0.053888701 0.68300003 -0.043110959 1.208124e-38 365 276
-0.06044792 0.676 -0.043854371 1.2450025e-38 269 277
-0.059262663 0.676 -0.043854371 1.2265278e-38 270 277
-0.057905588 0.67400002 -0.043724626 1.2173083e-38 271 277
-0.056555521 0.67199999 -0.043594878 1.2080534e-38 272 277
-0.055377278 0.67199999 -0.043594878 1.2080534e-38 273 277
-0.054199036 0.67199999 -0.043594878 1.1805026e-38 274 277
-0.053020798 0.67199999 -0.043594878 1.1712829e-38 275 277
-0.051765412 0.671 -0.043530006 1.1528439e-38 276 277
-0.050513536 0.67000002 -0.043465134 1.1344048e-38 277 277
-0.04919152 0.66799998 -0.043335386 1.1161101e-38 278 277
-0.047876518 0.66600001 -0.043205637 1.1161101e-38 279 277
-0.046498399 0.66299999 -0.043011017 1.1436612e-38 280 277
-0.045335937 0.66299999 -0.043011017 1.1621005e-38 281 277
-0.044106852 0.662 -0.042946145 1.2173808e-38 282 277
-0.042946145 0.662 -0.042946145 1.2450394e-38 283 277
-0.04172232 0.66100001 -0.042881273 1.2360348e-38 284 277
-0.040563367 0.66100001 -0.042881273 1.2820966e-38 285 277
-0.039404415 0.66100001 -0.042881273 1.309791e-38 286 277
-0.038245458 0.66100001 -0.042881273 1.3466691e-38 287 277
-0.037086505 0.66100001 -0.042881273 1.4109541e-38 288 277
-0.035818845 0.65899998 -0.042751525 1.4109541e-38 289 277
-0.034663398 0.65899998 -0.042751525 1.4752027e-38 290 277
-0.033507951 0.65899998 -0.042751525 1.4844222e-38 291 277
-0.011519399 0.65700001 -0.04262178 1.7056192e-38 310 277
-0.01036746 0.65700001 -0.04262178 1.7240583e-38 311 277
-0.0091874655 0.65499997 -0.042492028 1.7701911e-38 312 277
-0.008039033 0.65499997 -0.042492028 1.8255085e-38 313 277
-0.0068905996 0.65499997 -0.042492028 1.8986535e-38 314 277
-0.0057421662 0.65499997 -0.042492028 1.7972384e-38 315 277
-0.0045937328 0.65499997 -0.042492028 1.6780681e-38 316 277
-0.0034452998 0.65499997 -0.042492028 1.7518246e-38 317 277
-0.0022968664 0.65499997 -0.042492028 1.9910663e-38 318 277
-0.0011484332 0.65499997 -0.042492028 1.9541881e-38 319 277
0 0.65499997 -0.042492028 1.8619927e-38 320 277
0.0011484332 0.65499997 -0.042492028 1.8066753e-38 321 277
0.0022968664 0.65499997 -0.042492028 1.7146592e-38 322 277
0.0034452998 0.65499997 -0.042492028 1.6593418e-38 323 277
0.0045937328 0.65499997 -0.042492028 1.6040242e-38 324 277
0.01036746 0.65700001 -0.04262178 1.585692e-38 329 277
0.011519399 0.65700001 -0.04262178 1.5764008e-38 330 277
0.01267134 0.65700001 -0.04262178 1.5395225e-38 331 277
0.013823279 0.65700001 -0.04262178 1.4660181e-38 332 277
0.014998012 0.65799999 -0.042686652 1.4567984e-38 333 277
0.016151706 0.65799999 -0.042686652 1.4107729e-38 334 277
0.017305398 0.65799999 -0.042686652 1.4015175e-38 335 277
0.01843104 0.65700001 -0.04262178 1.4105208e-38 336 277
0.019582979 0.65700001 -0.04262178 1.3459839e-38 337 277
0.02076648 0.65799999 -0.042686652 1.2356012e-38 338 277
0.021920172 0.65799999 -0.042686652 1.1710643e-38 339 277
0.023073865 0.65799999 -0.042686652 1.0974527e-38 340 277
0.02422756 0.65799999 -0.042686652 1.069758e-38 341 277
0.025419824 0.65899998 -0.042751525 1.0512116e-38 342 277
0.026655925 0.66100001 -0.042881273 1.0143693e-38 343 277
0.027899038 0.66299999 -0.043011017 1.0051863e-38 344 277
0.029061496 0.66299999 -0.043011017 9.9596672e-39 345 277
0.030269546 0.66399997 -0.043075889 1.0233384e-38 346 277
0.031528439 0.66600001 -0.043205637 1.0141189e-38 347 277
0.032696161 0.66600001 -0.043205637 9.9596672e-39 348 277
0.033914726 0.667 -0.04327051 9.9596672e-39 349 277
0.035084199 0.667 -0.04327051 9.7759962e-39 350 277
0.036471087 0.671 -0.043530006 9.7759962e-39 351 277
0.037703678 0.67199999 -0.043594878 9.7759962e-39 352 277
0.03888192 0.67199999 -0.043594878 9.7759962e-39 353 277
0.040060159 0.67199999 -0.043594878 9.5926839e-39 354 277
0.041361131 0.67400002 -0.043724626 9.7767151e-39 355 277
0.042606 0.67500001 -0.043789499 9.7767179e-39 356 277
0.043984115 0.67799997 -0.043984115 9.8689149e-39 357 277
0.045172878 0.67799997 -0.043984115 1.0144063e-38 358 277
0.046430022 0.67900002 -0.044048995 1.0328454e-38 359 277
0.047830928 0.68199998 -0.044243611 1.0512482e-38 360 277
0.049170479 0.68400002 -0.04437336 1.0697232e-38 361 277
0.050369758 0.68400002 -0.04437336 1.0789425e-38 362 277
0.051795214 0.68699998 -0.044567976 1.1066372e-38 363 277
0.052999757 0.68699998 -0.044567976 1.1342599e-38 364 277
0.054440998 0.69 -0.0447626 1.2264915e-38 365 277
-0.061906695 0.67900002 -0.045239504 1.3092875e-38 268 278
-0.060716182 0.67900002 -0.045239504 1.3000678e-38 269 278
-0.059525665 0.67900002 -0.045239504 1.235783e-38 270 278
-0.057991501 0.67500001 -0.044972997 1.2265634e-38 271 278
-0.056555521 0.67199999 -0.044773117 1.2173085e-38 272 278
-0.055377278 0.67199999 -0.044773117 1.1896498e-38 273 278
-0.054360349 0.67400002 -0.044906374 1.1805022e-38 274 278
-0.053020798 0.67199999 -0.044773117 1.1712826e-38 275 278
-0.051765412 0.671 -0.044706494 1.1712829e-38 276 278
-0.050513536 0.67000002 -0.044639867 1.1528439e-38 277 278
-0.049338799 0.67000002 -0.044639867 1.1344414e-38 278 278
-0.047876518 0.66600001 -0.04437336 1.1344414e-38 279 278
-0.046568532 0.66399997 -0.044240102 1.0976357e-38 280 278
-0.045335937 0.66299999 -0.044173479 1.0884161e-38 281 278
-0.044173479 0.66299999 -0.044173479 1.0700123e-38 282 278
-0.042946145 0.662 -0.044106852 1.0700123e-38 283 278
-0.04172232 0.66100001 -0.044040225 1.0701562e-38 284 278
-0.040563367 0.66100001 -0.044040225 1.1162901e-38 285 278
-0.039404415 0.66100001 -0.044040225 1.180719e-38 286 278
-0.038245458 0.66100001 -0.044040225 1.2176332e-38 287 278
-0.037086505 0.66100001 -0.044040225 1.3095761e-38 288 278
-0.035818845 0.65899998 -0.043906972 1.3464903e-38 289 278
-0.034663398 0.65899998 -0.043906972 1.429214e-38 290 278
-0.033507951 0.65899998 -0.043906972 1.4476531e-38 291 278
-0.032352503 0.65899998 -0.043906972 1.4661276e-38 292 278
-0.031197058 0.65899998 -0.043906972 1.4845307e-38 293 278
-0.030041611 0.65899998 -0.043906972 1.5030053e-38 294 278
-0.028886165 0.65899998 -0.043906972 1.5214803e-38 295 278
-0.019523365 0.65499997 -0.043640465 1.862424e-38 303 278
-0.018374931 0.65499997 -0.043640465 1.8715707e-38 304 278
-0.017226499 0.65499997 -0.043640465 1.8439479e-38 305 278
-0.01612716 0.65700001 -0.043773718 1.8346915e-38 306 278
-0.01497522 0.65700001 -0.043773718 1.7885577e-38 307 278
-0.013781199 0.65499997 -0.043640465 1.7239854e-38 308 278
-0.012632766 0.65499997 -0.043640465 1.6963627e-38 309 278
-0.011484332 0.65499997 -0.043640465 1.7148387e-38 310 278
-0.010335899 0.65499997 -0.043640465 1.751717e-38 311 278
-0.0092155198 0.65700001 -0.043773718 1.7793759e-38 312 278
-0.0080635799 0.65700001 -0.043773718 1.8254738e-38 313 278
-0.0068905996 0.65499997 -0.043640465 1.8436612e-38 314 278
-0.0057421662 0.65499997 -0.043640465 1.74221e-38 315 278
-0.0045937328 0.65499997 -0.043640465 1.6781037e-38 316 278
-0.0034452998 0.65499997 -0.043640465 1.7979221e-38 317 278
-0.0022968664 0.65499997 -0.043640465 1.9450754e-38 318 278
-0.0011484332 0.65499997 -0.043640465 1.8620993e-38 319 278
0 0.65499997 -0.043640465 1.7422097e-38 320 278
0.0011484332 0.65499997 -0.043640465 1.6869282e-38 321 278
0.0022968664 0.65499997 -0.043640465 1.6503371e-38 322 278
0.0034452998 0.65499997 -0.043640465 1.631898e-38 323 278
0.0045937328 0.65499997 -0.043640465 1.5765803e-38 324 278
0.0057421662 0.65499997 -0.043640465 1.5765803e-38 325 278
0.0092155198 0.65700001 -0.043773718 1.5765803e-38 328 278
0.01036746 0.65700001 -0.043773718 1.5305184e-38 329 278
0.011519399 0.65700001 -0.043773718 1.5027166e-38 330 278
0.01267134 0.65700001 -0.043773718 1.4658382e-38 331 278
0.013823279 0.65700001 -0.043773718 1.3554918e-38 332 278
0.014998012 0.65799999 -0.043840345 1.30943e-38 333 278
0.016151706 0.65799999 -0.043840345 1.2633322e-38 334 278
0.017305398 0.65799999 -0.043840345 1.2080148e-38 335 278
0.018459093 0.65799999 -0.043840345 1.1617375e-38 336 278
0.019612785 0.65799999 -0.043840345 1.0972006e-38 337 278
0.020798039 0.65899998 -0.043906972 1.0052216e-38 338 278
0.021953486 0.65899998 -0.043906972 9.8674659e-39 339 278
0.023108931 0.65899998 -0.043906972 9.4082927e-39 340 278
0.02433802 0.66100001 -0.044040225 9.316097e-39 341 278
0.025496973 0.66100001 -0.044040225 9.4079423e-39 342 278
0.026696252 0.662 -0.044106852 9.500138e-39 343 278
0.027899038 0.66299999 -0.044173479 9.4997848e-39 344 278
0.029061496 0.66299999 -0.044173479 9.5919805e-39 345 278
0.030269546 0.66399997 -0.044240102 9.9582393e-39 346 278
0.031528439 0.66600001 -0.04437336 1.0050794e-38 347 278
0.032745253 0.667 -0.044439986 9.6838006e-39 348 278
0.033965573 0.66799998 -0.044506609 9.6838006e-39 349 278
0.035241999 0.67000002 -0.044639867 9.5930399e-39 350 278
0.036471087 0.671 -0.044706494 9.5930399e-39 351 278
0.037703678 0.67199999 -0.044773117 9.6838006e-39 352 278
0.03888192 0.67199999 -0.044773117 9.7759962e-39 353 278
0.040179387 0.67400002 -0.044906374 9.5934028e-39 354 278
0.041422497 0.67500001 -0.044972997 9.5934028e-39 355 278
0.042669121 0.676 -0.045039624 9.5926867e-39 356 278
0.043984115 0.67799997 -0.045172878 9.8689149e-39 357 278
0.045239504 0.67900002 -0.045239504 1.0144782e-38 358 278
0.046498399 0.68000001 -0.045306131 1.0236977e-38 359 278
0.047901068 0.68300003 -0.045506012 1.032917e-38 360 278
0.049314249 0.68599999 -0.045705888 1.0421366e-38 361 278
0.050517038 0.68599999 -0.045705888 1.0606117e-38 362 278
0.051795214 0.68699998 -0.045772515 1.0882344e-38 363 278
0.053231198 0.69 -0.045972396 1.1342599e-38 364 278
0.054440998 0.69 -0.045972396 1.2080164e-38 365 278
-0.063747689 0.68599999 -0.046908677 1.3828994e-38 267 279
-0.062362559 0.68400002 -0.046771921 1.2816287e-38 268 279
-0.0608056 0.68000001 -0.046498399 1.2908483e-38 269 279
-0.059525665 0.67900002 -0.046430022 1.2265278e-38 270 279
-0.057991501 0.67500001 -0.0461565 1.2173083e-38 271 279
-0.056808002 0.67500001 -0.0461565 1.1897219e-38 272 279
-0.0556245 0.67500001 -0.0461565 1.1897219e-38 273 279
-0.054360349 0.67400002 -0.046088122 1.1805026e-38 274 279
-0.053020798 0.67199999 -0.045951359 1.1712829e-38 275 279
-0.051842555 0.67199999 -0.045951359 1.1436965e-38 276 279
-0.050588924 0.671 -0.045882981 1.1344769e-38 277 279
-0.049338799 0.67000002 -0.0458146 1.1344769e-38 278 279
-0.048020288 0.66799998 -0.045677837 1.1252215e-38 279 279
-0.046708796 0.66600001 -0.045541082 1.1068906e-38 280 279
-0.045404319 0.66399997 -0.045404319 1.1068906e-38 281 279
-0.044240102 0.66399997 -0.045404319 1.1252218e-38 282 279
-0.043075889 0.66399997 -0.045404319 1.1068187e-38 283 279
-0.041848559 0.66299999 -0.045335937 1.1252218e-38 284 279
-0.04062473 0.662 -0.04526756 1.1252218e-38 285 279
-0.039464023 0.662 -0.04526756 1.0793042e-38 286 279
-0.038245458 0.66100001 -0.045199182 1.0700846e-38 287 279
-0.037086505 0.66100001 -0.045199182 1.0700846e-38 288 279
-0.035927553 0.66100001 -0.045199182 1.0885237e-38 289 279
-0.0347686 0.66100001 -0.045199182 1.1068187e-38 290 279
-0.033507951 0.65899998 -0.045062415 1.1344414e-38 291 279
-0.032352503 0.65899998 -0.045062415 1.1163256e-38 292 279
-0.031197058 0.65899998 -0.045062415 1.1347288e-38 293 279
-0.030041611 0.65899998 -0.045062415 1.2082688e-38 294 279
-0.028886165 0.65899998 -0.045062415 1.2451472e-38 295 279
-0.027688639 0.65799999 -0.044994038 1.2819887e-38 296 279
-0.026494619 0.65700001 -0.04492566 1.3188311e-38 297 279
-0.025342681 0.65700001 -0.04492566 1.3372702e-38 298 279
-0.024117097 0.65499997 -0.044788897 1.3649287e-38 299 279
-0.022968665 0.65499997 -0.044788897 1.3650012e-38 300 279
-0.021820232 0.65499997 -0.044788897 1.4203184e-38 301 279
-0.020671798 0.65499997 -0.044788897 1.4938951e-38 302 279
-0.019523365 0.65499997 -0.044788897 1.5123701e-38 303 279
-0.018374931 0.65499997 -0.044788897 1.5398841e-38 304 279
-0.017226499 0.65499997 -0.044788897 1.5582873e-38 305 279
-0.01612716 0.65700001 -0.04492566 1.585837e-38 306 279
-0.01497522 0.65700001 -0.04492566 1.585837e-38 307 279
-0.013781199 0.65499997 -0.044788897 1.5583228e-38 308 279
-0.012632766 0.65499997 -0.044788897 1.5767621e-38 309 279
-0.011484332 0.65499997 -0.044788897 1.6318995e-38 310 279
-0.010335899 0.65499997 -0.044788897 1.604241e-38 311 279
-0.0092155198 0.65700001 -0.04492566 1.5765821e-38 312 279
-0.0080635799 0.65700001 -0.04492566 1.5489594e-38 313 279
-0.0068905996 0.65499997 -0.044788897 1.5305563e-38 314 279
-0.0057421662 0.65499997 -0.044788897 1.493714e-38 315 279
-0.0045937328 0.65499997 -0.044788897 1.484566e-38 316 279
-0.0034452998 0.65499997 -0.044788897 1.5122248e-38 317 279
-0.0022968664 0.65499997 -0.044788897 1.5305563e-38 318 279
-0.0011484332 0.65499997 -0.044788897 1.4844944e-38 319 279
0 0.65499997 -0.044788897 1.4567279e-38 320 279
0.0011484332 0.65499997 -0.044788897 1.4567279e-38 321 279
0.0022968664 0.65499997 -0.044788897 1.4200291e-38 322 279
0.0034452998 0.65499997 -0.044788897 1.3831509e-38 323 279
0.0045937328 0.65499997 -0.044788897 1.3554202e-38 324 279
0.0057596997 0.65700001 -0.04492566 1.3001029e-38 325 279
0.0069116396 0.65700001 -0.04492566 1.2448212e-38 326 279
0.0080635799 0.65700001 -0.04492566 1.1802843e-38 327 279
0.0092155198 0.65700001 -0.04492566 1.1525896e-38 328 279
0.01036746 0.65700001 -0.04492566 1.1065276e-38 329 279
0.011519399 0.65700001 -0.04492566 1.0606466e-38 330 279
0.01267134 0.65700001 -0.04492566 1.0422075e-38 331 279
0.013823279 0.65700001 -0.04492566 1.0146211e-38 332 279
0.014998012 0.65799999 -0.044994038 9.8692638e-39 333 279
0.016151706 0.65799999 -0.044994038 9.8685449e-39 334 279
0.017331699 0.65899998 -0.045062415 9.7763493e-39 335 279
0.018487146 0.65899998 -0.045062415 9.9596644e-39 336 279
0.019642593 0.65899998 -0.045062415 1.005186e-38 337 279
0.02086116 0.66100001 -0.045199182 9.9603916e-39 338 279
0.022020113 0.66100001 -0.045199182 9.9603916e-39 339 279
0.023179067 0.66100001 -0.045199182 9.9603945e-39 340 279
0.024374841 0.662 -0.04526756 9.7760018e-39 341 279
0.025535546 0.662 -0.04526756 9.7763647e-39 342 279
0.026736578 0.66299999 -0.045335937 9.5923336e-39 343 279
0.027941117 0.66399997 -0.045404319 9.6834474e-39 344 279
0.02910533 0.66399997 -0.045404319 9.6834474e-39 345 279
0.030360719 0.66600001 -0.045541082 9.8671128e-39 346 279
0.03157578 0.667 -0.045609459 9.8671128e-39 347 279
0.032794341 0.66799998 -0.045677837 9.5004855e-39 348 279
0.034067266 0.67000002 -0.0458146 9.5004855e-39 349 279
0.035241999 0.67000002 -0.0458146 9.6841565e-39 350 279
0.036525436 0.67199999 -0.045951359 9.6841565e-39 351 279
0.037703678 0.67199999 -0.045951359 9.5004883e-39 352 279
0.03888192 0.67199999 -0.045951359 9.5926839e-39 353 279
0.040179387 0.67400002 -0.046088122 9.5926839e-39 354 279
0.041422497 0.67500001 -0.0461565 9.5926839e-39 355 279
0.042795356 0.67799997 -0.046361636 9.8685505e-39 356 279
0.044048995 0.67900002 -0.046430022 9.9607476e-39 357 279
0.045239504 0.67900002 -0.046430022 9.9607476e-39 358 279
0.046635158 0.68199998 -0.046635158 1.0144779e-38 359 279
0.048111461 0.68599999 -0.046908677 1.0328807e-38 360 279
0.049386136 0.68699998 -0.046977058 1.0512838e-38 361 279
0.050664321 0.68800002 -0.047045439 1.0696866e-38 362 279
0.051870614 0.68800002 -0.047045439 1.106529e-38 363 279
0.053231198 0.69 -0.047182199 1.134188e-38 364 279
-0.063747689 0.68599999 -0.048111461 1.4566559e-38 267 280
-0.062362559 0.68400002 -0.0479712 1.3369458e-38 268 280
-0.061073858 0.68300003 -0.047901068 1.2816284e-38 269 280
-0.059788663 0.68199998 -0.047830928 1.2264915e-38 270 280
-0.058249239 0.67799997 -0.047550395 1.2172361e-38 271 280
-0.056892153 0.676 -0.047410134 1.2173085e-38 272 280
-0.055706903 0.676 -0.047410134 1.1896498e-38 273 280
-0.054441001 0.67500001 -0.047339998 1.1896505e-38 274 280
-0.053178601 0.67400002 -0.047269866 1.1711754e-38 275 280
-0.051996857 0.67400002 -0.047269866 1.1528442e-38 276 280
-0.050664317 0.67199999 -0.047129598 1.1528442e-38 277 280
-0.049412437 0.671 -0.047059465 1.1161098e-38 278 280
-0.048164066 0.67000002 -0.046989333 1.1068903e-38 279 280
-0.046849065 0.66799998 -0.046849065 1.1252215e-38 280 280
-0.045541082 0.66600001 -0.046708796 1.1252215e-38 281 280
-0.04437336 0.66600001 -0.046708796 1.1068906e-38 282 280
-0.043075889 0.66399997 -0.046568532 1.1068906e-38 283 280
-0.041911677 0.66399997 -0.046568532 1.0885237e-38 284 280
-0.040686097 0.66299999 -0.046498399 1.0885237e-38 285 280
-0.039464023 0.662 -0.046428263 1.1344066e-38 286 280
-0.038303319 0.662 -0.046428263 1.125187e-38 287 280
-0.037086505 0.66100001 -0.046358135 1.088489e-38 288 280
-0.035927553 0.66100001 -0.046358135 1.070014e-38 289 280
-0.0347686 0.66100001 -0.046358135 1.05161e-38 290 280
-0.033507951 0.65899998 -0.046217863 1.0608296e-38 291 280
-0.032352503 0.65899998 -0.046217863 1.0793045e-38 292 280
-0.031197058 0.65899998 -0.046217863 1.0700849e-38 293 280
-0.030041611 0.65899998 -0.046217863 1.0976354e-38 294 280
-0.028886165 0.65899998 -0.046217863 1.1068908e-38 295 280
-0.027688639 0.65799999 -0.04614773 1.0976354e-38 296 280
-0.026494619 0.65700001 -0.046077598 1.1068908e-38 297 280
-0.025342681 0.65700001 -0.046077598 1.1345493e-38 298 280
-0.024117097 0.65499997 -0.04593733 1.1622079e-38 299 280
-0.022968665 0.65499997 -0.04593733 1.1897584e-38 300 280
-0.021820232 0.65499997 -0.04593733 1.1897584e-38 301 280
-0.020671798 0.65499997 -0.04593733 1.2081981e-38 302 280
-0.019523365 0.65499997 -0.04593733 1.2266374e-38 303 280
-0.018374931 0.65499997 -0.04593733 1.2634433e-38 304 280
-0.017226499 0.65499997 -0.04593733 1.2819183e-38 305 280
-0.01612716 0.65700001 -0.046077598 1.337127e-38 306 280
-0.01497522 0.65700001 -0.046077598 1.355602e-38 307 280
-0.013823279 0.65700001 -0.046077598 1.3740411e-38 308 280
-0.01267134 0.65700001 -0.046077598 1.3924804e-38 309 280
-0.011519399 0.65700001 -0.046077598 1.4568727e-38 310 280
-0.01036746 0.65700001 -0.046077598 1.4384336e-38 311 280
-0.0092155198 0.65700001 -0.046077598 1.4200293e-38 312 280
-0.0080635799 0.65700001 -0.046077598 1.4015904e-38 313 280
-0.0069116396 0.65700001 -0.046077598 1.3832231e-38 314 280
-0.0057421662 0.65499997 -0.04593733 1.3556004e-38 315 280
-0.0045937328 0.65499997 -0.04593733 1.3647121e-38 316 280
-0.0034558198 0.65700001 -0.046077598 1.3370534e-38 317 280
-0.0023038799 0.65700001 -0.046077598 1.3002477e-38 318 280
-0.00115194 0.65700001 -0.046077598 1.2725889e-38 319 280
0 0.65700001 -0.046077598 1.2357111e-38 320 280
0.00115194 0.65700001 -0.046077598 1.2172361e-38 321 280
0.0023038799 0.65700001 -0.046077598 1.189577e-38 322 280
0.0034558198 0.65700001 -0.046077598 1.1619543e-38 323 280
0.0046077599 0.65700001 -0.046077598 1.1159287e-38 324 280
0.0057596997 0.65700001 -0.046077598 1.0882341e-38 325 280
0.0069116396 0.65700001 -0.046077598 1.0145861e-38 326 280
0.0080635799 0.65700001 -0.046077598 1.0053306e-38 327 280
0.0092155198 0.65700001 -0.046077598 1.0328454e-38 328 280
0.01036746 0.65700001 -0.046077598 1.0236258e-38 329 280
0.011519399 0.65700001 -0.046077598 9.9611133e-39 330 280
0.01267134 0.65700001 -0.046077598 9.9611133e-39 331 280
0.013823279 0.65700001 -0.046077598 9.6859684e-39 332 280
0.014998012 0.65799999 -0.04614773 9.4097402e-39 333 280
0.016176252 0.65899998 -0.046217863 9.4086612e-39 334 280
0.017331699 0.65899998 -0.046217863 9.5930525e-39 335 280
0.018487146 0.65899998 -0.046217863 9.6852495e-39 336 280
0.019702207 0.66100001 -0.046358135 9.6852495e-39 337 280
0.02086116 0.66100001 -0.046358135 9.6852495e-39 338 280
0.022020113 0.66100001 -0.046358135 9.6852495e-39 339 280
0.023214132 0.662 -0.046428263 9.7767207e-39 340 280
0.024374841 0.662 -0.046428263 9.7767207e-39 341 280
0.025574118 0.66299999 -0.046498399 9.5930497e-39 342 280
0.026776904 0.66399997 -0.046568532 9.500854e-39 343 280
0.028025279 0.66600001 -0.046708796 9.50121e-39 344 280
0.029192999 0.66600001 -0.046708796 9.4086556e-39 345 280
0.030406304 0.667 -0.046778932 9.5004855e-39 346 280
0.031623118 0.66799998 -0.046849065 9.5930399e-39 347 280
0.032892533 0.67000002 -0.046989333 9.5004855e-39 348 280
0.034118112 0.671 -0.047059465 9.5004855e-39 349 280
0.0352946 0.671 -0.047059465 9.4090115e-39 350 280
0.036525436 0.67199999 -0.047129598 9.3168159e-39 351 280
0.037871998 0.67500001 -0.047339998 9.2253433e-39 352 280
0.039055496 0.67500001 -0.047339998 9.2253433e-39 353 280
0.040298611 0.676 -0.047410134 9.4086556e-39 354 280
0.041606598 0.67799997 -0.047550395 9.50121e-39 355 280
0.042858478 0.67900002 -0.047620531 9.5926867e-39 356 280
0.044113863 0.68000001 -0.047690667 9.7767179e-39 357 280
0.045439381 0.68199998 -0.047830928 9.7767207e-39 358 280
0.04670354 0.68300003 -0.047901068 9.8689177e-39 359 280
0.048111461 0.68599999 -0.048111461 9.7763647e-39 360 280
0.049386136 0.68699998 -0.048181597 9.8685618e-39 361 280
0.050664321 0.68800002 -0.048251733 1.0144426e-38 362 280
0.051870614 0.68800002 -0.048251733 1.0513567e-38 363 280
0.053231198 0.69 -0.048391998 1.1250406e-38 364 280
-0.062362559 0.68400002 -0.049170479 1.4289972e-38 268 281
-0.061163284 0.68400002 -0.049170479 1.3644603e-38 269 281
-0.059876334 0.68300003 -0.049098592 1.2264912e-38 270 281
-0.058421064 0.68000001 -0.048882935 1.2172717e-38 271 281
-0.057144642 0.67900002 -0.048811045 1.2079815e-38 272 281
-0.055871718 0.67799997 -0.048739154 1.2079815e-38 273 281
-0.054521654 0.676 -0.048595384 1.1895069e-38 274 281
-0.053257499 0.67500001 -0.048523501 1.1895069e-38 275 281
-0.051996857 0.67400002 -0.048451614 1.1711757e-38 276 281
-0.050664317 0.67199999 -0.04830784 1.1619561e-38 277 281
-0.049412437 0.671 -0.048235953 1.1161101e-38 278 281
-0.048164066 0.67000002 -0.048164066 1.1161101e-38 279 281
-0.046849065 0.66799998 -0.048020288 1.1068906e-38 280 281
-0.045609459 0.667 -0.047948405 1.097671e-38 281 281
-0.04437336 0.66600001 -0.047876518 1.1068187e-38 282 281
-0.043205637 0.66600001 -0.047876518 1.1252218e-38 283 281
-0.041911677 0.66399997 -0.047732744 1.0976354e-38 284 281
-0.040747464 0.66399997 -0.047732744 1.0976354e-38 285 281
-0.039523639 0.66299999 -0.047660857 1.1068908e-38 286 281
-0.038303319 0.662 -0.047588971 1.1068908e-38 287 281
-0.037142612 0.662 -0.047588971 1.1068552e-38 288 281
-0.035927553 0.66100001 -0.047517084 1.0976357e-38 289 281
-0.0347686 0.66100001 -0.047517084 1.0976357e-38 290 281
-0.033609647 0.66100001 -0.047517084 1.0976357e-38 291 281
-0.032450691 0.66100001 -0.047517084 1.1251865e-38 292 281
-0.031197058 0.65899998 -0.04737331 1.1251865e-38 293 281
-0.030041611 0.65899998 -0.04737331 1.1527013e-38 294 281
-0.028886165 0.65899998 -0.04737331 1.115823e-38 295 281
-0.027730718 0.65899998 -0.04737331 1.0423905e-38 296 281
-0.026534945 0.65799999 -0.047301427 1.0423905e-38 297 281
-0.025381252 0.65799999 -0.047301427 1.0239871e-38 298 281
-0.024190739 0.65700001 -0.04722954 1.0147675e-38 299 281
-0.023038799 0.65700001 -0.04722954 1.0148038e-38 300 281
-0.021820232 0.65499997 -0.047085766 1.0055842e-38 301 281
-0.020671798 0.65499997 -0.047085766 9.7792584e-39 302 281
-0.019523365 0.65499997 -0.047085766 9.7792584e-39 303 281
-0.018374931 0.65499997 -0.047085766 9.7796143e-39 304 281
-0.017226499 0.65499997 -0.047085766 9.7796143e-39 305 281
-0.01612716 0.65700001 -0.04722954 9.8718086e-39 306 281
-0.01497522 0.65700001 -0.04722954 9.8718086e-39 307 281
-0.013823279 0.65700001 -0.04722954 9.8721645e-39 308 281
-0.01267134 0.65700001 -0.04722954 9.8721645e-39 309 281
-0.011519399 0.65700001 -0.04722954 1.0055474e-38 310 281
-0.01036746 0.65700001 -0.04722954 9.9632769e-39 311 281
-0.0092155198 0.65700001 -0.04722954 9.8710785e-39 312 281
-0.0080635799 0.65700001 -0.04722954 9.7788829e-39 313 281
-0.0069116396 0.65700001 -0.04722954 9.7785171e-39 314 281
-0.0057596997 0.65700001 -0.04722954 9.5941259e-39 315 281
-0.0046077599 0.65700001 -0.04722954 9.7777983e-39 316 281
-0.0034558198 0.65700001 -0.04722954 9.5934056e-39 317 281
-0.0023038799 0.65700001 -0.04722954 9.3182634e-39 318 281
-0.00115194 0.65700001 -0.04722954 9.5026561e-39 319 281
0 0.65700001 -0.04722954 9.6863243e-39 320 281
0.00115194 0.65700001 -0.04722954 9.5937699e-39 321 281
0.0023038799 0.65700001 -0.04722954 9.226065e-39 322 281
0.0034558198 0.65700001 -0.04722954 9.4104577e-39 323 281
0.0046077599 0.65700001 -0.04722954 9.5033722e-39 324 281
0.0057596997 0.65700001 -0.04722954 9.5959265e-39 325 281
0.0069116396 0.65700001 -0.04722954 9.5948517e-39 326 281
0.0080635799 0.65700001 -0.04722954 9.7788829e-39 327 281
0.0092155198 0.65700001 -0.04722954 1.0513211e-38 328 281
0.01036746 0.65700001 -0.04722954 1.0513211e-38 329 281
0.011536933 0.65799999 -0.047301427 1.032882e-38 330 281
0.012690626 0.65799999 -0.047301427 1.0236624e-38 331 281
0.01384432 0.65799999 -0.047301427 9.9618322e-39 332 281
0.015020805 0.65899998 -0.04737331 9.7778011e-39 333 281
0.016176252 0.65899998 -0.04737331 9.9611133e-39 334 281
0.0173843 0.66100001 -0.047517084 9.8689177e-39 335 281
0.018543253 0.66100001 -0.047517084 9.5930497e-39 336 281
0.019702207 0.66100001 -0.047517084 9.6856054e-39 337 281
0.020892721 0.662 -0.047588971 9.5934056e-39 338 281
0.022053426 0.662 -0.047588971 9.6856026e-39 339 281
0.023214132 0.662 -0.047588971 9.4100933e-39 340 281
0.024411658 0.66299999 -0.047660857 9.4100933e-39 341 281
0.025612691 0.66399997 -0.047732744 9.50121e-39 342 281
0.026857559 0.66600001 -0.047876518 9.50121e-39 343 281
0.028025279 0.66600001 -0.047876518 9.5004911e-39 344 281
0.029236831 0.667 -0.047948405 9.5004911e-39 345 281
0.030451892 0.66799998 -0.048020288 9.6838006e-39 346 281
0.0317178 0.67000002 -0.048164066 9.6838006e-39 347 281
0.032941625 0.671 -0.048235953 9.4082955e-39 348 281
0.034118112 0.671 -0.048235953 9.4082955e-39 349 281
0.035347197 0.67199999 -0.04830784 9.4086584e-39 350 281
0.036634147 0.67400002 -0.048451614 9.3164628e-39 351 281
0.037871998 0.67500001 -0.048523501 9.4079395e-39 352 281
0.039113361 0.676 -0.048595384 9.4079395e-39 353 281
0.040417835 0.67799997 -0.048739154 9.5004911e-39 354 281
0.041606598 0.67799997 -0.048739154 9.5004911e-39 355 281
0.042921599 0.68000001 -0.048882935 9.6838034e-39 356 281
0.044243611 0.68199998 -0.049026705 9.5916077e-39 357 281
0.045439381 0.68199998 -0.049026705 9.6827314e-39 358 281
0.04670354 0.68300003 -0.049098592 9.5905357e-39 359 281
0.0479712 0.68400002 -0.049170479 9.773848e-39 360 281
0.049386136 0.68699998 -0.049386136 9.773848e-39 361 281
0.050664321 0.68800002 -0.049458027 1.032558e-38 362 281
0.051870614 0.68800002 -0.049458027 1.1155339e-38 363 281
-0.060984433 0.68199998 -0.050222475 1.4382165e-38 269 282
-0.059788663 0.68199998 -0.050222475 1.3368739e-38 270 282
-0.058421064 0.68000001 -0.050075196 1.2815565e-38 271 282
-0.057228796 0.68000001 -0.050075196 1.2539351e-38 272 282
-0.056036532 0.68000001 -0.050075196 1.2262763e-38 273 282
-0.054682959 0.67799997 -0.049927916 1.1987265e-38 274 282
-0.053336397 0.676 -0.049780637 1.1895069e-38 275 282
-0.052151144 0.676 -0.049780637 1.1435893e-38 276 282
-0.050815105 0.67400002 -0.049633358 1.1435893e-38 277 282
-0.049486078 0.67199999 -0.049486078 1.1252221e-38 278 282
-0.048235953 0.671 -0.049412437 1.1252221e-38 279 282
-0.046989333 0.67000002 -0.049338799 1.1068906e-38 280 282
-0.045677837 0.66799998 -0.04919152 1.1068906e-38 281 282
-0.044439986 0.667 -0.049117878 1.1068906e-38 282 282
-0.04327051 0.667 -0.049117878 1.1068906e-38 283 282
-0.042037919 0.66600001 -0.04904424 1.0976357e-38 284 282
-0.040870197 0.66600001 -0.04904424 1.0976357e-38 285 282
-0.039583251 0.66399997 -0.048896957 1.1067834e-38 286 282
-0.038361177 0.66299999 -0.048823316 1.1067834e-38 287 282
-0.037198719 0.66299999 -0.048823316 1.0976357e-38 288 282
-0.035981905 0.662 -0.048749682 1.0884161e-38 289 282
-0.034821201 0.662 -0.048749682 1.0517178e-38 290 282
-0.033609647 0.66100001 -0.04867604 1.0517178e-38 291 282
-0.032450691 0.66100001 -0.04867604 1.0700849e-38 292 282
-0.031291738 0.66100001 -0.04867604 1.0700849e-38 293 282
-0.030041611 0.65899998 -0.048528757 1.0700493e-38 294 282
-0.028886165 0.65899998 -0.048528757 1.0700493e-38 295 282
-0.027730718 0.65899998 -0.048528757 1.0700493e-38 296 282
-0.026534945 0.65799999 -0.048455119 1.0700493e-38 297 282
-0.025381252 0.65799999 -0.048455119 1.0700129e-38 298 282
-0.02422756 0.65799999 -0.048455119 1.0607574e-38 299 282
-0.023073865 0.65799999 -0.048455119 1.0608293e-38 300 282
-0.021886859 0.65700001 -0.048381478 1.0608293e-38 301 282
-0.020734919 0.65700001 -0.048381478 1.05161e-38 302 282
-0.019523365 0.65499997 -0.048234195 1.0423905e-38 303 282
-0.018374931 0.65499997 -0.048234195 1.0423902e-38 304 282
-0.0172791 0.65700001 -0.048381478 1.0423902e-38 305 282
-0.01612716 0.65700001 -0.048381478 1.0515735e-38 306 282
-0.01497522 0.65700001 -0.048381478 1.0330985e-38 307 282
-0.013823279 0.65700001 -0.048381478 1.0423539e-38 308 282
-0.01267134 0.65700001 -0.048381478 1.0423539e-38 309 282
-0.011519399 0.65700001 -0.048381478 1.0147672e-38 310 282
-0.01036746 0.65700001 -0.048381478 1.0147672e-38 311 282
-0.0092155198 0.65700001 -0.048381478 1.0147672e-38 312 282
-0.0080635799 0.65700001 -0.048381478 1.0055477e-38 313 282
-0.0069221598 0.65799999 -0.048455119 9.7799647e-39 314 282
-0.0057596997 0.65700001 -0.048381478 9.7799647e-39 315 282
-0.0046077599 0.65700001 -0.048381478 1.0055474e-38 316 282
-0.0034558198 0.65700001 -0.048381478 9.9632769e-39 317 282
-0.0023038799 0.65700001 -0.048381478 9.5952175e-39 318 282
-0.00115194 0.65700001 -0.048381478 9.6877718e-39 319 282
0 0.65700001 -0.048381478 9.9625581e-39 320 282
0.00115194 0.65700001 -0.048381478 9.9625581e-39 321 282
0.0023038799 0.65700001 -0.048381478 9.8710785e-39 322 282
0.0034558198 0.65700001 -0.048381478 9.8710785e-39 323 282
0.0046077599 0.65700001 -0.048381478 9.8710785e-39 324 282
0.0057596997 0.65700001 -0.048381478 9.7788829e-39 325 282
0.0069116396 0.65700001 -0.048381478 9.7788885e-39 326 282
0.0080758529 0.65799999 -0.048455119 9.7788885e-39 327 282
0.0092295464 0.65799999 -0.048455119 9.8703624e-39 328 282
0.01038324 0.65799999 -0.048455119 9.8703624e-39 329 282
0.011536933 0.65799999 -0.048455119 9.7774451e-39 330 282
0.012709912 0.65899998 -0.048528757 9.961835e-39 331 282
0.013865359 0.65899998 -0.048528757 9.5026561e-39 332 282
0.015020805 0.65899998 -0.048528757 9.4104605e-39 333 282
0.016225345 0.66100001 -0.04867604 9.6856054e-39 334 282
0.0173843 0.66100001 -0.04867604 9.6856054e-39 335 282
0.018543253 0.66100001 -0.04867604 9.4104577e-39 336 282
0.019732011 0.662 -0.048749682 9.3182606e-39 337 282
0.020892721 0.662 -0.048749682 9.3182606e-39 338 282
0.022120051 0.66399997 -0.048896957 9.3182606e-39 339 282
0.023284266 0.66399997 -0.048896957 9.4100933e-39 340 282
0.024448479 0.66399997 -0.048896957 9.317539e-39 341 282
0.02568984 0.66600001 -0.04904424 9.50121e-39 342 282
0.026857559 0.66600001 -0.04904424 9.4086556e-39 343 282
0.028067358 0.667 -0.049117878 9.4086556e-39 344 282
0.029280664 0.66799998 -0.04919152 9.4086556e-39 345 282
0.030543067 0.67000002 -0.049338799 9.5004911e-39 346 282
0.031765141 0.671 -0.049412437 9.5004911e-39 347 282
0.03299072 0.67199999 -0.049486078 9.4079395e-39 348 282
0.034168959 0.67199999 -0.049486078 9.4079395e-39 349 282
0.035347197 0.67199999 -0.049486078 9.3164628e-39 350 282
0.036688499 0.67500001 -0.049706999 9.3164628e-39 351 282
0.037928104 0.676 -0.049780637 9.3164628e-39 352 282
0.039229076 0.67799997 -0.049927916 9.3164628e-39 353 282
0.040477451 0.67900002 -0.050001562 9.4082955e-39 354 282
0.041667968 0.67900002 -0.050001562 9.4082955e-39 355 282
0.042921599 0.68000001 -0.050075196 9.4990562e-39 356 282
0.044243611 0.68199998 -0.050222475 9.315025e-39 357 282
0.045439381 0.68199998 -0.050222475 9.2224749e-39 358 282
0.04670354 0.68300003 -0.05029612 9.0380836e-39 359 282
0.0479712 0.68400002 -0.050369758 8.944816e-39 360 282
-0.059788663 0.68199998 -0.051418249 1.4013387e-38 270 283
-0.058421064 0.68000001 -0.051267464 1.3183625e-38 271 283
-0.057228796 0.68000001 -0.051267464 1.2356755e-38 272 283
-0.056036532 0.68000001 -0.051267464 1.2080167e-38 273 283
-0.054844268 0.68000001 -0.051267464 1.1987618e-38 274 283
-0.053652 0.68000001 -0.051267464 1.1895422e-38 275 283
-0.052305438 0.67799997 -0.051116679 1.1619558e-38 276 283
-0.050965894 0.676 -0.050965894 1.1527363e-38 277 283
-0.049706999 0.67500001 -0.050890498 1.1252218e-38 278 283
-0.04830784 0.67199999 -0.050664317 1.1252218e-38 279 283
-0.047059465 0.671 -0.050588924 1.1252218e-38 280 283
-0.0458146 0.67000002 -0.050513536 1.1068187e-38 281 283
-0.044639867 0.67000002 -0.050513536 1.0976354e-38 282 283
-0.043335386 0.66799998 -0.050362743 1.0976354e-38 283 283
-0.042101037 0.667 -0.050287351 1.106819e-38 284 283
-0.040870197 0.66600001 -0.050211959 1.106819e-38 285 283
-0.039702479 0.66600001 -0.050211959 1.0976354e-38 286 283
-0.038419038 0.66399997 -0.05006117 1.0976354e-38 287 283
-0.037254825 0.66399997 -0.05006117 1.0793042e-38 288 283
-0.036090612 0.66399997 -0.05006117 1.0793042e-38 289 283
-0.034873798 0.66299999 -0.049985778 1.0517178e-38 290 283
-0.033660494 0.662 -0.049910385 1.0517178e-38 291 283
-0.032499783 0.662 -0.049910385 1.0700849e-38 292 283
-0.031291738 0.66100001 -0.049834993 1.0700849e-38 293 283
-0.030132787 0.66100001 -0.049834993 1.0884158e-38 294 283
-0.028973831 0.66100001 -0.049834993 1.0884158e-38 295 283
-0.027730718 0.65899998 -0.049684204 1.0700846e-38 296 283
-0.026575271 0.65899998 -0.049684204 1.0608649e-38 297 283
-0.025419824 0.65899998 -0.049684204 1.0608649e-38 298 283
-0.02422756 0.65799999 -0.049608808 1.0608649e-38 299 283
-0.023073865 0.65799999 -0.049608808 1.0608293e-38 300 283
-0.021920172 0.65799999 -0.049608808 1.0608293e-38 301 283
-0.020734919 0.65700001 -0.049533416 1.0608293e-38 302 283
-0.019582979 0.65700001 -0.049533416 1.0608293e-38 303 283
-0.01843104 0.65700001 -0.049533416 1.0608649e-38 304 283
-0.0172791 0.65700001 -0.049533416 1.0608649e-38 305 283
-0.016151706 0.65799999 -0.049608808 1.0700123e-38 306 283
-0.014998012 0.65799999 -0.049608808 1.0607927e-38 307 283
-0.01384432 0.65799999 -0.049608808 1.060793e-38 308 283
-0.01267134 0.65700001 -0.049533416 1.060793e-38 309 283
-0.011519399 0.65700001 -0.049533416 1.0424258e-38 310 283
-0.01036746 0.65700001 -0.049533416 1.0424258e-38 311 283
-0.0092155198 0.65700001 -0.049533416 1.0423902e-38 312 283
-0.0080635799 0.65700001 -0.049533416 1.0423902e-38 313 283
-0.0069221598 0.65799999 -0.049608808 1.0239868e-38 314 283
-0.0057684663 0.65799999 -0.049608808 1.0239868e-38 315 283
-0.0046147732 0.65799999 -0.049608808 1.0148391e-38 316 283
-0.0034610799 0.65799999 -0.049608808 1.0056196e-38 317 283
-0.0023073866 0.65799999 -0.049608808 1.0055477e-38 318 283
-0.0011536933 0.65799999 -0.049608808 1.0055477e-38 319 283
0 0.65799999 -0.049608808 9.7799675e-39 320 283
0.0011536933 0.65799999 -0.049608808 9.7799675e-39 321 283
0.0023073866 0.65799999 -0.049608808 9.9632769e-39 322 283
0.0034610799 0.65799999 -0.049608808 9.8710813e-39 323 283
0.0046147732 0.65799999 -0.049608808 9.7788885e-39 324 283
0.0057684663 0.65799999 -0.049608808 9.7788885e-39 325 283
0.0069221598 0.65799999 -0.049608808 9.7788885e-39 326 283
0.0080758529 0.65799999 -0.049608808 9.5944986e-39 327 283
0.0092435731 0.65899998 -0.049684204 1.0053675e-38 328 283
