# .PCD v.7 - Point Cloud Data file format
FIELDS x y z rgb imX imY
SIZE 4 4 4 4 4 4
TYPE F F F F F F
COUNT 1 1 1 1 1 1
WIDTH 860
HEIGHT 1
VIEWPOINT 0 0 0 1 0 0 0
POINTS 860
DATA ascii
0.07375747 0.713 0.023752406 1.2357066e-38 379 221
0.074797198 0.71100003 0.023685781 1.2630779e-38 380 221
0.076043822 0.71100003 0.023685781 1.2169801e-38 381 221
0.076964319 0.708 0.023585839 1.1893943e-38 382 221
0.078205675 0.708 0.023585839 1.1893943e-38 383 221
-0.10720932 0.71100003 0.022439159 1.5766904e-38 234 222
-0.1059627 0.71100003 0.022439159 1.5674709e-38 235 222
-0.10471608 0.71100003 0.022439159 1.2910632e-38 236 222
-0.10390604 0.71399999 0.022533838 1.0236959e-38 237 222
-0.10265416 0.71399999 0.022533838 9.6812418e-39 238 222
-0.10168632 0.71600002 0.022596961 1.0326611e-38 239 222
-0.1005712 0.71700001 0.02262852 1.1060564e-38 240 222
-0.099314056 0.71700001 0.02262852 1.1060564e-38 241 222
-0.098467201 0.72000003 0.022723202 1.0326594e-38 242 222
-0.097204804 0.72000003 0.022723202 1.1064161e-38 243 222
-0.096208908 0.722 0.022786319 1.2630045e-38 244 222
-0.094943002 0.722 0.022786319 1.2630045e-38 245 222
-0.093677096 0.722 0.022786319 1.2447817e-38 246 222
-0.093179137 0.72799999 0.022975679 1.2447817e-38 247 222
-0.092281438 0.73100001 0.02307036 1.2172319e-38 248 222
-0.090999752 0.73100001 0.02307036 1.2080123e-38 249 222
-0.089963526 0.73299998 0.023133477 1.1896814e-38 250 222
-0.08879932 0.73400003 0.023165042 1.1896814e-38 251 222
-0.087750822 0.736 0.023228159 1.1713143e-38 252 222
-0.086695313 0.73799998 0.023291279 1.1897533e-38 253 222
-0.085517079 0.73900002 0.023322839 1.1713862e-38 254 222
-0.084221363 0.73900002 0.023322839 1.1621666e-38 255 222
-0.083150074 0.741 0.023385961 1.1620947e-38 256 222
-0.081961311 0.74199998 0.023417519 1.152875e-38 257 222
-0.080877759 0.74400002 0.023480639 1.1436557e-38 258 222
-0.079787187 0.74599999 0.023543758 1.1436557e-38 259 222
-0.078479193 0.74599999 0.023543758 1.1161412e-38 260 222
-0.07727465 0.74699998 0.023575317 1.1069217e-38 261 222
-0.07596492 0.74699998 0.023575317 1.0884827e-38 262 222
-0.074855059 0.74900001 0.02363844 1.0884827e-38 263 222
-0.073639996 0.75 0.023669999 1.0884827e-38 264 222
-0.072517857 0.75199997 0.023733119 1.0884827e-38 265 222
-0.071199358 0.75199997 0.023733119 1.0884827e-38 266 222
-0.070066705 0.75400001 0.02379624 1.0792631e-38 267 222
-0.068744689 0.75400001 0.02379624 1.0884827e-38 268 222
-0.067512102 0.755 0.023827799 1.0792631e-38 269 222
-0.066188328 0.755 0.023827799 1.0701154e-38 270 222
-0.065208219 0.759 0.023954039 1.0701154e-38 271 222
-0.063877434 0.759 0.023954039 1.0701154e-38 272 222
-0.06271147 0.76099998 0.024017159 1.0701154e-38 273 222
-0.061377186 0.76099998 0.024017159 1.0701154e-38 274 222
-0.060121801 0.76200002 0.02404872 1.0701154e-38 275 222
-0.058940053 0.764 0.024111839 1.0608959e-38 276 222
-0.057600506 0.764 0.024111839 1.0608959e-38 277 222
-0.056408234 0.76599997 0.024174958 1.0608959e-38 278 222
-0.055065181 0.76599997 0.024174958 1.0608959e-38 279 222
-0.053722132 0.76599997 0.024174958 1.0608962e-38 280 222
-0.052447457 0.76700002 0.024206521 1.0608962e-38 281 222
-0.051102653 0.76700002 0.024206521 1.0608962e-38 282 222
-0.049757849 0.76700002 0.024206521 1.0424572e-38 283 222
-0.048413042 0.76700002 0.024206521 1.0425647e-38 284 222
-0.047190964 0.76899999 0.024269639 1.0425647e-38 285 222
-0.045842651 0.76899999 0.024269639 1.0425647e-38 286 222
-0.044610061 0.77100003 0.02433276 1.0425647e-38 287 222
-0.043258239 0.77100003 0.02433276 1.0425291e-38 288 222
-0.042015124 0.773 0.024395877 1.0425291e-38 289 222
-0.0406598 0.773 0.024395877 1.0425291e-38 290 222
-0.039355319 0.77399999 0.02442744 1.0517845e-38 291 222
-0.037998237 0.77399999 0.02442744 1.0517489e-38 292 222
-0.036641158 0.77399999 0.02442744 1.0517489e-38 293 222
-0.03528408 0.77399999 0.02442744 1.0426012e-38 294 222
-0.033927001 0.77399999 0.02442744 1.0426012e-38 295 222
-0.032569919 0.77399999 0.02442744 1.0609685e-38 296 222
-0.031293493 0.77600002 0.024490559 1.0609685e-38 297 222
-0.03001005 0.778 0.024553679 1.0702236e-38 298 222
-0.028645959 0.778 0.024553679 1.0702236e-38 299 222
-0.027281865 0.778 0.024553679 1.0702233e-38 300 222
-0.025917772 0.778 0.024553679 1.0702233e-38 301 222
-0.024616797 0.77999997 0.024616797 1.0610759e-38 302 222
-0.023249198 0.77999997 0.024616797 1.0610759e-38 303 222
-0.021881599 0.77999997 0.024616797 1.0609687e-38 304 222
-0.020513998 0.77999997 0.024616797 1.0701883e-38 305 222
-0.0191464 0.77999997 0.024616797 1.0885195e-38 306 222
-0.017778799 0.77999997 0.024616797 1.0977391e-38 307 222
-0.016411198 0.77999997 0.024616797 1.1253978e-38 308 222
-0.015005025 0.778 0.024553679 1.1438369e-38 309 222
-0.013640933 0.778 0.024553679 1.1164303e-38 310 222
-0.012276839 0.778 0.024553679 1.1348694e-38 311 222
-0.010912746 0.778 0.024553679 1.1532367e-38 312 222
-0.0095486529 0.778 0.024553679 1.1532367e-38 313 222
-0.0081845606 0.778 0.024553679 1.1533089e-38 314 222
-0.0068204664 0.778 0.024553679 1.1533089e-38 315 222
-0.0054563731 0.778 0.024553679 1.1624209e-38 316 222
-0.0040922803 0.778 0.024553679 1.1808599e-38 317 222
-0.0027281865 0.778 0.024553679 1.1625284e-38 318 222
-0.0013640933 0.778 0.024553679 1.171748e-38 319 222
0 0.778 0.024553679 1.1717477e-38 320 222
0.0013640933 0.778 0.024553679 1.1717477e-38 321 222
0.0027211732 0.77600002 0.024490559 1.1625281e-38 322 222
0.0040817601 0.77600002 0.024490559 1.1533086e-38 323 222
0.0054423464 0.77600002 0.024490559 1.1440887e-38 324 222
0.0068029333 0.77600002 0.024490559 1.1348692e-38 325 222
0.0081635201 0.77600002 0.024490559 1.1347971e-38 326 222
0.009524107 0.77600002 0.024490559 1.1347971e-38 327 222
0.010884693 0.77600002 0.024490559 1.1531286e-38 328 222
0.01224528 0.77600002 0.024490559 1.1531286e-38 329 222
0.013605867 0.77600002 0.024490559 1.1347974e-38 330 222
0.014927879 0.77399999 0.02442744 1.1347974e-38 331 222
0.016284959 0.77399999 0.02442744 1.1164303e-38 332 222
0.01764204 0.77399999 0.02442744 1.1348694e-38 333 222
0.018974574 0.773 0.024395877 1.1440887e-38 334 222
0.0203299 0.773 0.024395877 1.1533083e-38 335 222
0.021629119 0.77100003 0.02433276 1.2269202e-38 336 222
0.02298094 0.77100003 0.02433276 1.2546149e-38 337 222
0.024269639 0.76899999 0.024269639 1.2637265e-38 338 222
0.025617953 0.76899999 0.024269639 1.2176287e-38 339 222
0.026896132 0.76700002 0.024206521 1.1532364e-38 340 222
0.02824094 0.76700002 0.024206521 1.1440168e-38 341 222
0.029585747 0.76700002 0.024206521 1.1348694e-38 342 222
0.030890226 0.76599997 0.024174958 1.1348694e-38 343 222
0.032233275 0.76599997 0.024174958 1.1165379e-38 344 222
0.033488665 0.764 0.024111839 1.1165379e-38 345 222
0.034737039 0.76200002 0.02404872 1.1440168e-38 346 222
0.036073081 0.76200002 0.02404872 1.1532364e-38 347 222
0.037360024 0.76099998 0.024017159 1.1532364e-38 348 222
0.038694311 0.76099998 0.024017159 1.1624918e-38 349 222
0.0399234 0.759 0.023954039 1.1347971e-38 350 222
0.041145474 0.75700003 0.02389092 1.1347971e-38 351 222
0.042360533 0.755 0.023827799 1.1072464e-38 352 222
0.043626439 0.75400001 0.02379624 1.1164659e-38 353 222
0.044829223 0.75199997 0.023733119 1.1164659e-38 354 222
0.046024997 0.75 0.023669999 1.1164659e-38 355 222
0.047339998 0.75 0.023669999 1.1164659e-38 356 222
0.048590127 0.74900001 0.02363844 1.1348692e-38 357 222
0.04990337 0.74900001 0.02363844 1.1164659e-38 358 222
0.051079858 0.74699998 0.023575317 1.1348692e-38 359 222
0.052179199 0.74400002 0.023480639 1.1808231e-38 360 222
0.053339902 0.74199998 0.023417519 1.1900426e-38 361 222
0.054567236 0.741 0.023385961 1.199154e-38 362 222
0.055715673 0.73900002 0.023322839 1.2083736e-38 363 222
0.056934237 0.73799998 0.023291279 1.1993338e-38 364 222
0.058070395 0.736 0.023228159 1.1993338e-38 365 222
0.059199546 0.73400003 0.023165042 1.2086613e-38 366 222
0.060404085 0.73299998 0.023133477 1.2086613e-38 367 222
0.061689276 0.73299998 0.023133477 1.2178452e-38 368 222
0.06271673 0.73000002 0.023038799 1.2086257e-38 369 222
0.063996665 0.73000002 0.023038799 1.2270285e-38 370 222
0.065097757 0.72799999 0.022975679 1.2454316e-38 371 222
0.066100664 0.72500002 0.022880999 1.2453953e-38 372 222
0.067093052 0.722 0.022786319 1.2361399e-38 373 222
0.068358958 0.722 0.022786319 1.2636547e-38 374 222
0.069335558 0.71899998 0.022691639 1.2728742e-38 375 222
0.070399836 0.71700001 0.02262852 1.2728739e-38 376 222
0.071357153 0.71399999 0.022533838 1.2636544e-38 377 222
0.072609037 0.71399999 0.022533838 1.3002082e-38 378 222
0.073550582 0.71100003 0.022439159 1.2356713e-38 379 222
0.074691996 0.70999998 0.022407599 1.263006e-38 380 222
0.075722955 0.708 0.022344479 1.2353113e-38 381 222
0.076746903 0.70599997 0.022281358 1.1894296e-38 382 222
0.07798475 0.70599997 0.022281358 1.1894296e-38 383 222
-0.10845594 0.71100003 0.021192541 1.5767623e-38 233 223
-0.10705853 0.70999998 0.021162732 1.5675069e-38 234 223
-0.10581366 0.70999998 0.021162732 1.4937504e-38 235 223
-0.10456879 0.70999998 0.021162732 1.2081588e-38 236 223
-0.10376051 0.713 0.021252153 9.6848599e-39 237 223
-0.10251039 0.713 0.021252153 1.0785066e-38 238 223
-0.10126025 0.713 0.021252153 1.0969816e-38 239 223
-0.10015039 0.71399999 0.021281958 1.0880121e-38 240 223
-0.09917555 0.71600002 0.021341572 1.0880121e-38 241 223
-0.09805692 0.71700001 0.021371379 1.1064514e-38 242 223
-0.097069785 0.71899998 0.021430992 1.1802079e-38 243 223
-0.095809139 0.71899998 0.021430992 1.2630763e-38 244 223
-0.094680004 0.72000003 0.021460801 1.2722959e-38 245 223
-0.0934176 0.72000003 0.021460801 1.2264149e-38 246 223
-0.092539176 0.72299999 0.021550218 1.2264149e-38 247 223
-0.091776483 0.727 0.021669446 1.1896811e-38 248 223
-0.090626292 0.72799999 0.021699252 1.1896811e-38 249 223
-0.089595333 0.73000002 0.021758866 1.152947e-38 250 223
-0.088436373 0.73100001 0.021788673 1.1621666e-38 251 223
-0.087393142 0.73299998 0.021848286 1.1621666e-38 252 223
-0.086225428 0.73400003 0.021878093 1.152947e-38 253 223
-0.085401356 0.73799998 0.021997318 1.152947e-38 254 223
-0.084221363 0.73900002 0.022027127 1.152947e-38 255 223
-0.083150074 0.741 0.02208674 1.152875e-38 256 223
-0.081850857 0.741 0.02208674 1.152875e-38 257 223
-0.080660343 0.74199998 0.022116546 1.1252886e-38 258 223
-0.079573281 0.74400002 0.022176161 1.1252886e-38 259 223
-0.078479193 0.74599999 0.022235774 1.0978097e-38 260 223
-0.07727465 0.74699998 0.022265578 1.0885902e-38 261 223
-0.07596492 0.74699998 0.022265578 1.0610394e-38 262 223
-0.074855059 0.74900001 0.022325192 1.0610394e-38 263 223
-0.073639996 0.75 0.022355 1.0793706e-38 264 223
-0.072324999 0.75 0.022355 1.0793706e-38 265 223
-0.071199358 0.75199997 0.022414612 1.0884827e-38 266 223
-0.069880851 0.75199997 0.022414612 1.0792631e-38 267 223
-0.068744689 0.75400001 0.022474226 1.0792631e-38 268 223
-0.067422673 0.75400001 0.022474226 1.0792631e-38 269 223
-0.066188328 0.755 0.022504034 1.0608959e-38 270 223
-0.065036394 0.75700003 0.022563647 1.0608959e-38 271 223
-0.063877434 0.759 0.02262326 1.0608959e-38 272 223
-0.06271147 0.76099998 0.022682872 1.0608959e-38 273 223
-0.061377186 0.76099998 0.022682872 1.0425647e-38 274 223
-0.060042895 0.76099998 0.022682872 1.0425647e-38 275 223
-0.058785759 0.76200002 0.02271268 1.0424926e-38 276 223
-0.057600506 0.764 0.022772292 1.0424926e-38 277 223
-0.056408234 0.76599997 0.022831906 1.033345e-38 278 223
-0.055065181 0.76599997 0.022831906 1.033345e-38 279 223
-0.053722132 0.76599997 0.022831906 1.0333095e-38 280 223
-0.052447457 0.76700002 0.022861714 1.0425291e-38 281 223
-0.051102653 0.76700002 0.022861714 1.0425291e-38 282 223
-0.049757849 0.76700002 0.022861714 1.0333095e-38 283 223
-0.048413042 0.76700002 0.022861714 1.033345e-38 284 223
-0.047068235 0.76700002 0.022861714 1.033345e-38 285 223
-0.045842651 0.76899999 0.022921326 1.0149779e-38 286 223
-0.044610061 0.77100003 0.02298094 1.0149779e-38 287 223
-0.043258239 0.77100003 0.02298094 1.0149779e-38 288 223
-0.04190642 0.77100003 0.02298094 1.0149779e-38 289 223
-0.0406598 0.773 0.023040552 1.0242334e-38 290 223
-0.039304473 0.773 0.023040552 1.0149779e-38 291 223
-0.037998237 0.77399999 0.02307036 1.0241978e-38 292 223
-0.036641158 0.77399999 0.02307036 1.0241978e-38 293 223
-0.03528408 0.77399999 0.02307036 1.0333098e-38 294 223
-0.033927001 0.77399999 0.02307036 1.0425293e-38 295 223
-0.032569919 0.77399999 0.02307036 1.0425291e-38 296 223
-0.031212838 0.77399999 0.02307036 1.0517845e-38 297 223
-0.029932907 0.77600002 0.023129974 1.0517845e-38 298 223
-0.028572321 0.77600002 0.023129974 1.0517845e-38 299 223
-0.027281865 0.778 0.023189586 1.0426365e-38 300 223
-0.025917772 0.778 0.023189586 1.0426365e-38 301 223
-0.024553679 0.778 0.023189586 1.0518561e-38 302 223
-0.023189586 0.778 0.023189586 1.0426365e-38 303 223
-0.021825492 0.778 0.023189586 1.0426012e-38 304 223
-0.020461399 0.778 0.023189586 1.0426012e-38 305 223
-0.019097306 0.778 0.023189586 1.0609685e-38 306 223
-0.017778799 0.77999997 0.023249198 1.070188e-38 307 223
-0.016369121 0.778 0.023189586 1.088627e-38 308 223
-0.015005025 0.778 0.023189586 1.1070663e-38 309 223
-0.013640933 0.778 0.023189586 1.0980268e-38 310 223
-0.012276839 0.778 0.023189586 1.1164659e-38 311 223
-0.010912746 0.778 0.023189586 1.1348692e-38 312 223
-0.0095486529 0.778 0.023189586 1.1348692e-38 313 223
-0.0081845606 0.778 0.023189586 1.1165023e-38 314 223
-0.0068204664 0.778 0.023189586 1.1165023e-38 315 223
-0.0054563731 0.778 0.023189586 1.1348339e-38 316 223
-0.0040922803 0.778 0.023189586 1.1440534e-38 317 223
-0.0027281865 0.778 0.023189586 1.1533089e-38 318 223
-0.0013640933 0.778 0.023189586 1.1533089e-38 319 223
0 0.778 0.023189586 1.1808596e-38 320 223
0.0013605866 0.77600002 0.023129974 1.1624565e-38 321 223
0.0027211732 0.77600002 0.023129974 1.1624562e-38 322 223
0.0040817601 0.77600002 0.023129974 1.1624562e-38 323 223
0.0054423464 0.77600002 0.023129974 1.144089e-38 324 223
0.0068029333 0.77600002 0.023129974 1.1348694e-38 325 223
0.0081635201 0.77600002 0.023129974 1.1440171e-38 326 223
0.009524107 0.77600002 0.023129974 1.1347974e-38 327 223
0.010884693 0.77600002 0.023129974 1.1347971e-38 328 223
0.01221372 0.77399999 0.02307036 1.1347971e-38 329 223
0.013570799 0.77399999 0.02307036 1.1072464e-38 330 223
0.014927879 0.77399999 0.02307036 1.1164659e-38 331 223
0.016284959 0.77399999 0.02307036 1.0980631e-38 332 223
0.01764204 0.77399999 0.02307036 1.1072826e-38 333 223
0.018974574 0.773 0.023040552 1.2085892e-38 334 223
0.020277301 0.77100003 0.02298094 1.2270285e-38 335 223
0.021629119 0.77100003 0.02298094 1.2178087e-38 336 223
0.02298094 0.77100003 0.02298094 1.1993694e-38 337 223
0.024269639 0.76899999 0.022921326 1.1624918e-38 338 223
0.025617953 0.76899999 0.022921326 1.1440168e-38 339 223
0.026896132 0.76700002 0.022861714 1.1164303e-38 340 223
0.02824094 0.76700002 0.022861714 1.1164303e-38 341 223
0.029585747 0.76700002 0.022861714 1.1072826e-38 342 223
0.030890226 0.76599997 0.022831906 1.1072826e-38 343 223
0.032149121 0.764 0.022772292 1.0889514e-38 344 223
0.033401001 0.76200002 0.02271268 1.0889514e-38 345 223
0.034737039 0.76200002 0.02271268 1.1164303e-38 346 223
0.036025736 0.76099998 0.022682872 1.1348694e-38 347 223
0.037360024 0.76099998 0.022682872 1.1440887e-38 348 223
0.038694311 0.76099998 0.022682872 1.1440887e-38 349 223
0.0399234 0.759 0.02262326 1.1164656e-38 350 223
0.041145474 0.75700003 0.022563647 1.0980265e-38 351 223
0.042360533 0.755 0.022504034 1.0980987e-38 352 223
0.043626439 0.75400001 0.022474226 1.1073182e-38 353 223
0.044829223 0.75199997 0.022414612 1.107318e-38 354 223
0.046024997 0.75 0.022355 1.107318e-38 355 223
0.047339998 0.75 0.022355 1.1348687e-38 356 223
0.048590127 0.74900001 0.022325192 1.1348687e-38 357 223
0.049770117 0.74699998 0.022265578 1.1532364e-38 358 223
0.051011477 0.74599999 0.022235774 1.1532364e-38 359 223
0.05203893 0.74199998 0.022116546 1.1808231e-38 360 223
0.053268019 0.741 0.02208674 1.1900426e-38 361 223
0.054567236 0.741 0.02208674 1.1900424e-38 362 223
0.055640277 0.73799998 0.021997318 1.1992619e-38 363 223
0.056779943 0.736 0.021937706 1.1810029e-38 364 223
0.058070395 0.736 0.021937706 1.199406e-38 365 223
0.059199546 0.73400003 0.021878093 1.199406e-38 366 223
0.060404085 0.73299998 0.021848286 1.2086257e-38 367 223
0.06152096 0.73100001 0.021788673 1.2177733e-38 368 223
0.062544905 0.72799999 0.021699252 1.2177733e-38 369 223
0.063821331 0.72799999 0.021699252 1.2270285e-38 370 223
0.064829499 0.72500002 0.021609833 1.2454316e-38 371 223
0.065827139 0.722 0.021520413 1.2546149e-38 372 223
0.066814266 0.71899998 0.021430992 1.2453953e-38 373 223
0.068074919 0.71899998 0.021430992 1.2637265e-38 374 223
0.069142699 0.71700001 0.021371379 1.2637265e-38 375 223
0.070105277 0.71399999 0.021281958 1.2729095e-38 376 223
0.071257219 0.713 0.021252153 1.2544344e-38 377 223
0.072507344 0.713 0.021252153 1.3002082e-38 378 223
0.073240235 0.708 0.021103119 1.2264517e-38 379 223
0.074271195 0.70599997 0.021043506 1.2537508e-38 380 223
0.075295143 0.704 0.020983893 1.2076889e-38 381 223
0.076203369 0.70099998 0.020894472 1.1801025e-38 382 223
0.077432454 0.70099998 0.020894472 1.1801025e-38 383 223
0.078661539 0.70099998 0.020894472 1.2447113e-38 384 223
0.079776667 0.69999999 0.020864666 1.2815536e-38 385 223
-0.10830339 0.70999998 0.019917866 1.6135683e-38 233 224
-0.10705853 0.70999998 0.019917866 1.5584308e-38 234 224
-0.10581366 0.70999998 0.019917866 1.4016622e-38 235 224
-0.10456879 0.70999998 0.019917866 1.1619163e-38 236 224
-0.10346945 0.71100003 0.01994592 9.4990239e-39 237 224
-0.10222284 0.71100003 0.01994592 1.1062011e-38 238 224
-0.10126025 0.713 0.020002026 1.1246402e-38 239 224
-0.10001013 0.713 0.020002026 1.0880487e-38 240 224
-0.098898515 0.71399999 0.020030079 1.0972684e-38 241 224
-0.097920164 0.71600002 0.020086186 1.1801001e-38 242 224
-0.096799776 0.71700001 0.020114239 1.2446371e-38 243 224
-0.095542639 0.71700001 0.020114239 1.2447814e-38 244 224
-0.094548494 0.71899998 0.020170346 1.254001e-38 245 224
-0.0934176 0.72000003 0.020198401 1.2448185e-38 246 224
-0.092155196 0.72000003 0.020198401 1.2264154e-38 247 224
-0.09127152 0.72299999 0.020282559 1.1989009e-38 248 224
-0.090252832 0.72500002 0.020338668 1.1896814e-38 249 224
-0.089227132 0.727 0.020394772 1.1713143e-38 250 224
-0.088315405 0.73000002 0.020478934 1.1713143e-38 251 224
-0.087154694 0.73100001 0.020506985 1.1529473e-38 252 224
-0.086225428 0.73400003 0.020591147 1.1529473e-38 253 224
-0.085169919 0.736 0.020647252 1.1529473e-38 254 224
-0.084221363 0.73900002 0.020731414 1.1529473e-38 255 224
-0.082925655 0.73900002 0.020731414 1.1528753e-38 256 224
-0.081629939 0.73900002 0.020731414 1.1528753e-38 257 224
-0.080551639 0.741 0.020787518 1.1252886e-38 258 224
-0.079359367 0.74199998 0.020815572 1.1437276e-38 259 224
-0.078268796 0.74400002 0.02087168 1.0978097e-38 260 224
-0.077171214 0.74599999 0.020927785 1.0885902e-38 261 224
-0.07586322 0.74599999 0.020927785 1.0793706e-38 262 224
-0.074655175 0.74699998 0.020955838 1.0793706e-38 263 224
-0.073541813 0.74900001 0.021011947 1.0701154e-38 264 224
-0.072324999 0.75 0.02104 1.0701154e-38 265 224
-0.071199358 0.75199997 0.021096105 1.079335e-38 266 224
-0.069880851 0.75199997 0.021096105 1.0701154e-38 267 224
-0.068562344 0.75199997 0.021096105 1.0792631e-38 268 224
-0.067422673 0.75400001 0.021152213 1.0792631e-38 269 224
-0.066100664 0.75400001 0.021152213 1.0608956e-38 270 224
-0.064864561 0.755 0.021180267 1.0608956e-38 271 224
-0.063709125 0.75700003 0.021236373 1.0425647e-38 272 224
-0.062546656 0.759 0.02129248 1.0425647e-38 273 224
-0.061377186 0.76099998 0.021348584 1.0333095e-38 274 224
-0.060042895 0.76099998 0.021348584 1.0333095e-38 275 224
-0.058785759 0.76200002 0.02137664 1.0424926e-38 276 224
-0.057600506 0.764 0.021432746 1.0424926e-38 277 224
-0.056260962 0.764 0.021432746 1.0333095e-38 278 224
-0.055065181 0.76599997 0.021488851 1.0333095e-38 279 224
-0.053722132 0.76599997 0.021488851 1.0149783e-38 280 224
-0.052379075 0.76599997 0.021488851 1.0149783e-38 281 224
-0.051102653 0.76700002 0.021516906 1.0333095e-38 282 224
-0.049757849 0.76700002 0.021516906 1.0333095e-38 283 224
-0.048413042 0.76700002 0.021516906 1.0240901e-38 284 224
-0.047068235 0.76700002 0.021516906 1.0240901e-38 285 224
-0.045723427 0.76700002 0.021516906 1.0240898e-38 286 224
-0.044494338 0.76899999 0.021573013 1.0333095e-38 287 224
-0.043258239 0.77100003 0.021629119 1.0149779e-38 288 224
-0.04190642 0.77100003 0.021629119 1.0149779e-38 289 224
-0.0406598 0.773 0.021685226 1.0149783e-38 290 224
-0.039304473 0.773 0.021685226 1.0057586e-38 291 224
-0.037949149 0.773 0.021685226 1.0424575e-38 292 224
-0.036641158 0.77399999 0.021713279 1.0424575e-38 293 224
-0.03528408 0.77399999 0.021713279 1.0424575e-38 294 224
-0.033927001 0.77399999 0.021713279 1.0424575e-38 295 224
-0.032569919 0.77399999 0.021713279 1.0425293e-38 296 224
-0.031212838 0.77399999 0.021713279 1.0425293e-38 297 224
-0.029932907 0.77600002 0.021769386 1.0425291e-38 298 224
-0.028572321 0.77600002 0.021769386 1.0425291e-38 299 224
-0.027281865 0.778 0.021825492 1.0517842e-38 300 224
-0.025917772 0.778 0.021825492 1.0517842e-38 301 224
-0.024553679 0.778 0.021825492 1.0517842e-38 302 224
-0.023189586 0.778 0.021825492 1.0517842e-38 303 224
-0.021825492 0.778 0.021825492 1.0241978e-38 304 224
-0.020461399 0.778 0.021825492 1.0241978e-38 305 224
-0.019097306 0.778 0.021825492 1.0517492e-38 306 224
-0.017733213 0.778 0.021825492 1.0609687e-38 307 224
-0.016369121 0.778 0.021825492 1.0610406e-38 308 224
-0.015005025 0.778 0.021825492 1.0886995e-38 309 224
-0.013640933 0.778 0.021825492 1.0980268e-38 310 224
-0.012276839 0.778 0.021825492 1.1072464e-38 311 224
-0.010912746 0.778 0.021825492 1.1164659e-38 312 224
-0.0095486529 0.778 0.021825492 1.1164659e-38 313 224
-0.0081845606 0.778 0.021825492 1.1164303e-38 314 224
-0.0068204664 0.778 0.021825492 1.1164303e-38 315 224
-0.0054563731 0.778 0.021825492 1.1164306e-38 316 224
-0.0040922803 0.778 0.021825492 1.1348339e-38 317 224
-0.0027281865 0.778 0.021825492 1.1440534e-38 318 224
-0.0013640933 0.778 0.021825492 1.1440534e-38 319 224
0 0.77600002 0.021769386 1.153237e-38 320 224
0.0013605866 0.77600002 0.021769386 1.1624565e-38 321 224
0.0027211732 0.77600002 0.021769386 1.1624565e-38 322 224
0.0040817601 0.77600002 0.021769386 1.1624565e-38 323 224
0.0054423464 0.77600002 0.021769386 1.1532367e-38 324 224
0.0068029333 0.77600002 0.021769386 1.1532367e-38 325 224
0.0081635201 0.77600002 0.021769386 1.1623483e-38 326 224
0.0094995592 0.77399999 0.021713279 1.1531286e-38 327 224
0.01085664 0.77399999 0.021713279 1.1347971e-38 328 224
0.01221372 0.77399999 0.021713279 1.1255776e-38 329 224
0.013570799 0.77399999 0.021713279 1.1164659e-38 330 224
0.014927879 0.77399999 0.021713279 1.1164659e-38 331 224
0.016263919 0.773 0.021685226 1.1347971e-38 332 224
0.017619247 0.773 0.021685226 1.1532364e-38 333 224
0.018925481 0.77100003 0.021629119 1.2178089e-38 334 224
0.020277301 0.77100003 0.021629119 1.2454316e-38 335 224
0.021573013 0.76899999 0.021573013 1.1993341e-38 336 224
0.022921326 0.76899999 0.021573013 1.1532364e-38 337 224
0.024269639 0.76899999 0.021573013 1.1072829e-38 338 224
0.025617953 0.76899999 0.021573013 1.0980634e-38 339 224
0.026896132 0.76700002 0.021516906 1.0980634e-38 340 224
0.02824094 0.76700002 0.021516906 1.1072829e-38 341 224
0.029547172 0.76599997 0.021488851 1.1164303e-38 342 224
0.030890226 0.76599997 0.021488851 1.1164303e-38 343 224
0.032149121 0.764 0.021432746 1.0797319e-38 344 224
0.033401001 0.76200002 0.02137664 1.0889514e-38 345 224
0.034737039 0.76200002 0.02137664 1.1072826e-38 346 224
0.036025736 0.76099998 0.021348584 1.1072826e-38 347 224
0.037360024 0.76099998 0.021348584 1.1257578e-38 348 224
0.038592618 0.759 0.02129248 1.1165023e-38 349 224
0.039818201 0.75700003 0.021236373 1.1347969e-38 350 224
0.041036766 0.755 0.021180267 1.1255773e-38 351 224
0.042360533 0.755 0.021180267 1.1531637e-38 352 224
0.04351072 0.75199997 0.021096105 1.1623832e-38 353 224
0.044709999 0.75 0.02104 1.1716029e-38 354 224
0.045963634 0.74900001 0.021011947 1.1716029e-38 355 224
0.047276881 0.74900001 0.021011947 1.1533073e-38 356 224
0.048460379 0.74699998 0.020955838 1.1533073e-38 357 224
0.04970349 0.74599999 0.020927785 1.1716029e-38 358 224
0.050874721 0.74400002 0.02087168 1.1808584e-38 359 224
0.05203893 0.74199998 0.020815572 1.1808584e-38 360 224
0.053268019 0.741 0.020787518 1.1900779e-38 361 224
0.054419957 0.73900002 0.020731414 1.1809303e-38 362 224
0.055640277 0.73799998 0.020703359 1.1901498e-38 363 224
0.056779943 0.736 0.020647252 1.1717833e-38 364 224
0.057912603 0.73400003 0.020591147 1.1810029e-38 365 224
0.058957584 0.73100001 0.020506985 1.1809673e-38 366 224
0.060156867 0.73000002 0.020478934 1.1994064e-38 367 224
0.061268479 0.72799999 0.020422826 1.2085536e-38 368 224
0.062458992 0.727 0.020394772 1.2085536e-38 369 224
0.063558333 0.72500002 0.020338668 1.2361404e-38 370 224
0.064561233 0.722 0.020254506 1.24536e-38 371 224
0.065644801 0.72000003 0.020198401 1.2546149e-38 372 224
0.066628419 0.71700001 0.020114239 1.2546149e-38 373 224
0.067790881 0.71600002 0.020086186 1.2637263e-38 374 224
0.068853401 0.71399999 0.020030079 1.2637263e-38 375 224
0.070007093 0.713 0.020002026 1.2636544e-38 376 224
0.070957392 0.70999998 0.019917866 1.2452151e-38 377 224
0.072202265 0.70999998 0.019917866 1.2726577e-38 378 224
0.07303334 0.70599997 0.019805651 1.1896458e-38 379 224
0.073955595 0.70300001 0.019721493 1.2444958e-38 380 224
0.074974284 0.70099998 0.019665385 1.1892145e-38 381 224
0.076203369 0.70099998 0.019665385 1.1616277e-38 382 224
0.077321991 0.69999999 0.019637333 1.1801028e-38 383 224
0.078549333 0.69999999 0.019637333 1.2539312e-38 384 224
0.079776667 0.69999999 0.019637333 1.2999931e-38 385 224
0.081004001 0.69999999 0.019637333 1.2722274e-38 386 224
-0.10923968 0.708 0.0186204 1.5767623e-38 232 225
-0.10799832 0.708 0.0186204 1.604421e-38 233 225
-0.10675696 0.708 0.0186204 1.5307361e-38 234 225
-0.1055156 0.708 0.0186204 1.3186862e-38 235 225
-0.10427424 0.708 0.0186204 1.1248939e-38 236 225
-0.10332392 0.70999998 0.018672999 9.5897776e-39 237 225
-0.10207906 0.70999998 0.018672999 1.1061292e-38 238 225
-0.10083419 0.70999998 0.018672999 1.1337519e-38 239 225
-0.099729598 0.71100003 0.0186993 1.0878696e-38 240 225
-0.098482981 0.71100003 0.0186993 1.143187e-38 241 225
-0.097646631 0.71399999 0.018778199 1.2352747e-38 242 225
-0.096664771 0.71600002 0.0188308 1.2905921e-38 243 225
-0.095409386 0.71600002 0.0188308 1.2631855e-38 244 225
-0.094285503 0.71700001 0.018857099 1.2631855e-38 245 225
-0.093287848 0.71899998 0.018909698 1.2265592e-38 246 225
-0.092155196 0.72000003 0.018935999 1.2081202e-38 247 225
-0.090892807 0.72000003 0.018935999 1.1988653e-38 248 225
-0.089879371 0.722 0.0189886 1.1988653e-38 249 225
-0.088736199 0.72299999 0.019014901 1.1621669e-38 250 225
-0.088073432 0.72799999 0.0191464 1.1621669e-38 251 225
-0.087035462 0.73000002 0.019199001 1.152947e-38 252 225
-0.086107947 0.73299998 0.019277899 1.152947e-38 253 225
-0.084938474 0.73400003 0.019304199 1.1528753e-38 254 225
-0.083879463 0.736 0.019356798 1.1528753e-38 255 225
-0.082813434 0.73799998 0.019409399 1.161987e-38 256 225
-0.081519477 0.73799998 0.019409399 1.161987e-38 257 225
-0.080334224 0.73900002 0.0194357 1.116141e-38 258 225
-0.079252414 0.741 0.019488299 1.1253605e-38 259 225
-0.078058399 0.74199998 0.0195146 1.1069214e-38 260 225
-0.076964319 0.74400002 0.019567199 1.1069214e-38 261 225
-0.075659841 0.74400002 0.019567199 1.0610038e-38 262 225
-0.074555233 0.74599999 0.019619798 1.0610038e-38 263 225
-0.073345438 0.74699998 0.019646099 1.0701154e-38 264 225
-0.072228566 0.74900001 0.0196987 1.0701154e-38 265 225
-0.071010001 0.75 0.019724999 1.0793706e-38 266 225
-0.069694996 0.75 0.019724999 1.070151e-38 267 225
-0.068562344 0.75199997 0.0197776 1.070151e-38 268 225
-0.067422673 0.75400001 0.019830201 1.0608956e-38 269 225
-0.066100664 0.75400001 0.019830201 1.0608956e-38 270 225
-0.064864561 0.755 0.0198565 1.0424923e-38 271 225
-0.063709125 0.75700003 0.019909101 1.0333447e-38 272 225
-0.062546656 0.759 0.0199617 1.0333447e-38 273 225
-0.061377186 0.76099998 0.020014299 1.0332731e-38 274 225
-0.060042895 0.76099998 0.020014299 1.0332731e-38 275 225
-0.058708608 0.76099998 0.020014299 1.0240895e-38 276 225
-0.057449725 0.76200002 0.0200406 1.0240895e-38 277 225
-0.056260962 0.764 0.020093199 1.0332731e-38 278 225
-0.055065181 0.76599997 0.020145798 1.0332731e-38 279 225
-0.053722132 0.76599997 0.020145798 1.0332375e-38 280 225
-0.052379075 0.76599997 0.020145798 1.0424572e-38 281 225
-0.051036026 0.76599997 0.020145798 1.0424926e-38 282 225
-0.049757849 0.76700002 0.020172099 1.0424926e-38 283 225
-0.048413042 0.76700002 0.020172099 1.0240176e-38 284 225
-0.047068235 0.76700002 0.020172099 1.0332731e-38 285 225
-0.045723427 0.76700002 0.020172099 1.0240176e-38 286 225
-0.044494338 0.76899999 0.0202247 1.0240176e-38 287 225
-0.043258239 0.77100003 0.020277301 1.0057939e-38 288 225
-0.04190642 0.77100003 0.020277301 1.0150134e-38 289 225
-0.0406598 0.773 0.0203299 1.0240895e-38 290 225
-0.039304473 0.773 0.0203299 1.0240895e-38 291 225
-0.037949149 0.773 0.0203299 1.0332375e-38 292 225
-0.036593821 0.773 0.0203299 1.0424572e-38 293 225
-0.03528408 0.77399999 0.020356199 1.0608243e-38 294 225
-0.033927001 0.77399999 0.020356199 1.0608243e-38 295 225
-0.032569919 0.77399999 0.020356199 1.0424926e-38 296 225
-0.031212838 0.77399999 0.020356199 1.0424926e-38 297 225
-0.029932907 0.77600002 0.0204088 1.0424926e-38 298 225
-0.028572321 0.77600002 0.0204088 1.0608959e-38 299 225
-0.027281865 0.778 0.020461399 1.0425647e-38 300 225
-0.025917772 0.778 0.020461399 1.0425647e-38 301 225
-0.024553679 0.778 0.020461399 1.0608956e-38 302 225
-0.023189586 0.778 0.020461399 1.0608956e-38 303 225
-0.021825492 0.778 0.020461399 1.0424572e-38 304 225
-0.020461399 0.778 0.020461399 1.0424572e-38 305 225
-0.019097306 0.778 0.020461399 1.0608606e-38 306 225
-0.017733213 0.778 0.020461399 1.0700801e-38 307 225
-0.016369121 0.778 0.020461399 1.0793356e-38 308 225
-0.015005025 0.778 0.020461399 1.1069944e-38 309 225
-0.013640933 0.778 0.020461399 1.0979546e-38 310 225
-0.012276839 0.778 0.020461399 1.1255773e-38 311 225
-0.010912746 0.778 0.020461399 1.1255773e-38 312 225
-0.0095486529 0.778 0.020461399 1.1255773e-38 313 225
-0.0081845606 0.778 0.020461399 1.1255776e-38 314 225
-0.0068204664 0.778 0.020461399 1.1255776e-38 315 225
-0.0054563731 0.778 0.020461399 1.1255776e-38 316 225
-0.0040922803 0.778 0.020461399 1.1347971e-38 317 225
-0.0027281865 0.778 0.020461399 1.1347971e-38 318 225
-0.0013605866 0.77600002 0.0204088 1.1440168e-38 319 225
0 0.77600002 0.0204088 1.1623481e-38 320 225
0.0013605866 0.77600002 0.0204088 1.1716035e-38 321 225
0.0027211732 0.77600002 0.0204088 1.1716035e-38 322 225
0.0040817601 0.77600002 0.0204088 1.1808231e-38 323 225
0.0054423464 0.77600002 0.0204088 1.1715679e-38 324 225
0.0068029333 0.77600002 0.0204088 1.1715679e-38 325 225
0.0081424797 0.77399999 0.020356199 1.1623486e-38 326 225
0.0094995592 0.77399999 0.020356199 1.1530931e-38 327 225
0.01085664 0.77399999 0.020356199 1.1255779e-38 328 225
0.01221372 0.77399999 0.020356199 1.1255779e-38 329 225
0.013570799 0.77399999 0.020356199 1.1255776e-38 330 225
0.014908593 0.773 0.0203299 1.1255776e-38 331 225
0.016263919 0.773 0.0203299 1.1347969e-38 332 225
0.01757366 0.77100003 0.020277301 1.153272e-38 333 225
0.018925481 0.77100003 0.020277301 1.1992619e-38 334 225
0.0202247 0.76899999 0.0202247 1.1808228e-38 335 225
0.021573013 0.76899999 0.0202247 1.1347971e-38 336 225
0.022921326 0.76899999 0.0202247 1.1347971e-38 337 225
0.024269639 0.76899999 0.0202247 1.1072108e-38 338 225
0.025551327 0.76700002 0.020172099 1.1072108e-38 339 225
0.026896132 0.76700002 0.020172099 1.0980987e-38 340 225
0.02824094 0.76700002 0.020172099 1.1073182e-38 341 225
0.029547172 0.76599997 0.020145798 1.1164659e-38 342 225
0.030809574 0.764 0.020093199 1.1072464e-38 343 225
0.032064959 0.76200002 0.0200406 1.0980631e-38 344 225
0.033401001 0.76200002 0.0200406 1.0980631e-38 345 225
0.034691449 0.76099998 0.020014299 1.0980631e-38 346 225
0.036025736 0.76099998 0.020014299 1.1072826e-38 347 225
0.03726184 0.759 0.0199617 1.1165379e-38 348 225
0.038592618 0.759 0.0199617 1.1165379e-38 349 225
0.039818201 0.75700003 0.019909101 1.1623835e-38 350 225
0.041036766 0.755 0.0198565 1.2177009e-38 351 225
0.042304426 0.75400001 0.019830201 1.3095001e-38 352 225
0.043394998 0.75 0.019724999 1.2541827e-38 353 225
0.044650383 0.74900001 0.0196987 1.2083726e-38 354 225
0.045963634 0.74900001 0.0196987 1.2083726e-38 355 225
0.047150634 0.74699998 0.019646099 1.1625269e-38 356 225
0.048395503 0.74599999 0.019619798 1.1533073e-38 357 225
0.04957024 0.74400002 0.019567199 1.1808581e-38 358 225
0.050737958 0.74199998 0.0195146 1.1808581e-38 359 225
0.051968798 0.741 0.019488299 1.1991893e-38 360 225
0.053268019 0.741 0.019488299 1.2084089e-38 361 225
0.054419957 0.73900002 0.0194357 1.1809303e-38 362 225
0.055640277 0.73799998 0.019409399 1.1901498e-38 363 225
0.056625653 0.73400003 0.019304199 1.1901142e-38 364 225
0.057833698 0.73299998 0.019277899 1.1901142e-38 365 225
0.058876935 0.73000002 0.019199001 1.1994057e-38 366 225
0.059992049 0.72799999 0.0191464 1.1994057e-38 367 225
0.061184317 0.727 0.019120099 1.1993338e-38 368 225
0.062115334 0.72299999 0.019014901 1.2085892e-38 369 225
0.063295327 0.722 0.0189886 1.2452881e-38 370 225
0.064382397 0.72000003 0.018935999 1.2636912e-38 371 225
0.065553628 0.71899998 0.018909698 1.2729105e-38 372 225
0.066628419 0.71700001 0.018857099 1.263691e-38 373 225
0.067601517 0.71399999 0.018778199 1.2729461e-38 374 225
0.068756968 0.713 0.018751899 1.2637265e-38 375 225
0.069712527 0.70999998 0.018672999 1.2636544e-38 376 225
0.070657574 0.70700002 0.018594101 1.2452151e-38 377 225
0.071897186 0.70700002 0.018594101 1.2358518e-38 378 225
0.072723009 0.70300001 0.018488899 1.1620953e-38 379 225
0.073745191 0.70099998 0.018436298 1.216945e-38 380 225
0.074974284 0.70099998 0.018436298 1.1708474e-38 381 225
0.076094657 0.69999999 0.018409999 1.1891422e-38 382 225
0.077321991 0.69999999 0.018409999 1.2444595e-38 383 225
0.078549333 0.69999999 0.018409999 1.2539665e-38 384 225
0.079776667 0.69999999 0.018409999 1.2631861e-38 385 225
0.081004001 0.69999999 0.018409999 1.2629357e-38 386 225
-0.10923968 0.708 0.017379038 1.5950936e-38 232 226
-0.10784578 0.70700002 0.017354494 1.6135327e-38 233 226
-0.10660617 0.70700002 0.017354494 1.5215522e-38 234 226
-0.10536657 0.70700002 0.017354494 1.272624e-38 235 226
-0.10412696 0.70700002 0.017354494 1.115458e-38 236 226
-0.10303288 0.708 0.017379038 1.0048232e-38 237 226
-0.10179152 0.708 0.017379038 1.0968744e-38 238 226
-0.10055015 0.708 0.017379038 1.1060939e-38 239 226
-0.099589325 0.70999998 0.017428132 1.1154929e-38 240 226
-0.09834446 0.70999998 0.017428132 1.1431517e-38 241 226
-0.097236358 0.71100003 0.01745268 1.1894293e-38 242 226
-0.096394755 0.71399999 0.017526319 1.2355271e-38 243 226
-0.095142879 0.71399999 0.017526319 1.2448185e-38 244 226
-0.094154 0.71600002 0.017575413 1.2540381e-38 245 226
-0.093028352 0.71700001 0.017599959 1.2265592e-38 246 226
-0.092155196 0.72000003 0.017673599 1.2081202e-38 247 226
-0.090892807 0.72000003 0.017673599 1.2081202e-38 248 226
-0.089630403 0.72000003 0.017673599 1.1989007e-38 249 226
-0.088613465 0.722 0.017722692 1.1713143e-38 250 226
-0.087468542 0.72299999 0.017747238 1.1713143e-38 251 226
-0.086439334 0.72500002 0.017796334 1.1529473e-38 252 226
-0.08552058 0.72799999 0.017869972 1.1437276e-38 253 226
-0.084475599 0.73000002 0.017919067 1.1436201e-38 254 226
-0.083651535 0.73400003 0.018017253 1.1436201e-38 255 226
-0.082589008 0.736 0.018066347 1.1436201e-38 256 226
-0.08129856 0.736 0.018066347 1.1344006e-38 257 226
-0.080225512 0.73799998 0.018115439 1.1344003e-38 258 226
-0.079038516 0.73900002 0.018139986 1.1436557e-38 259 226
-0.077953197 0.741 0.018189078 1.1160691e-38 260 226
-0.076757424 0.74199998 0.018213626 1.1068495e-38 261 226
-0.075659841 0.74400002 0.01826272 1.0884827e-38 262 226
-0.074555233 0.74599999 0.018311813 1.0884827e-38 263 226
-0.073345438 0.74699998 0.018336359 1.0701154e-38 264 226
-0.072228566 0.74900001 0.018385453 1.0701154e-38 265 226
-0.071010001 0.75 0.018409999 1.0517842e-38 266 226
-0.069694996 0.75 0.018409999 1.0517842e-38 267 226
-0.068562344 0.75199997 0.018459093 1.0517839e-38 268 226
-0.067243837 0.75199997 0.018459093 1.0425644e-38 269 226
-0.066100664 0.75400001 0.018508185 1.033345e-38 270 226
-0.064864561 0.755 0.018532733 1.0240895e-38 271 226
-0.063540794 0.755 0.018532733 1.0240898e-38 272 226
-0.062546656 0.759 0.01863092 1.0240898e-38 273 226
-0.061215881 0.759 0.01863092 1.0057586e-38 274 226
-0.060042895 0.76099998 0.018680012 1.0057586e-38 275 226
-0.058708608 0.76099998 0.018680012 1.0057583e-38 276 226
-0.057449725 0.76200002 0.01870456 1.0057583e-38 277 226
-0.056113683 0.76200002 0.01870456 1.0240179e-38 278 226
-0.054921411 0.764 0.018753653 1.0240179e-38 279 226
-0.053722132 0.76599997 0.018802745 1.0240901e-38 280 226
-0.052379075 0.76599997 0.018802745 1.0240901e-38 281 226
-0.051036026 0.76599997 0.018802745 1.0240898e-38 282 226
-0.049757849 0.76700002 0.018827293 1.0240898e-38 283 226
-0.048413042 0.76700002 0.018827293 1.0240179e-38 284 226
-0.047068235 0.76700002 0.018827293 1.0147983e-38 285 226
-0.045723427 0.76700002 0.018827293 1.0056864e-38 286 226
-0.044494338 0.76899999 0.018876385 1.0056864e-38 287 226
-0.043146025 0.76899999 0.018876385 1.0057583e-38 288 226
-0.04190642 0.77100003 0.018925481 9.9653873e-39 289 226
-0.040554602 0.77100003 0.018925481 1.0057586e-38 290 226
-0.039304473 0.773 0.018974574 1.0057586e-38 291 226
-0.037949149 0.773 0.018974574 1.0240898e-38 292 226
-0.036593821 0.773 0.018974574 1.0240898e-38 293 226
-0.035238493 0.773 0.018974574 1.0240898e-38 294 226
-0.033927001 0.77399999 0.018999118 1.0240898e-38 295 226
-0.032569919 0.77399999 0.018999118 1.0240898e-38 296 226
-0.031212838 0.77399999 0.018999118 1.0240898e-38 297 226
-0.029932907 0.77600002 0.019048214 1.0057583e-38 298 226
-0.028572321 0.77600002 0.019048214 1.0149779e-38 299 226
-0.027281865 0.778 0.019097306 1.0425647e-38 300 226
-0.025917772 0.778 0.019097306 1.033345e-38 301 226
-0.024553679 0.778 0.019097306 1.0424572e-38 302 226
-0.023189586 0.778 0.019097306 1.0332375e-38 303 226
-0.021825492 0.778 0.019097306 1.051569e-38 304 226
-0.020461399 0.778 0.019097306 1.051569e-38 305 226
-0.019097306 0.778 0.019097306 1.0332742e-38 306 226
-0.017733213 0.778 0.019097306 1.0425296e-38 307 226
-0.016369121 0.778 0.019097306 1.0517492e-38 308 226
-0.015005025 0.778 0.019097306 1.0885914e-38 309 226
-0.013640933 0.778 0.019097306 1.0887714e-38 310 226
-0.012276839 0.778 0.019097306 1.0980268e-38 311 226
-0.010912746 0.778 0.019097306 1.116358e-38 312 226
-0.0095486529 0.778 0.019097306 1.116358e-38 313 226
-0.0081845606 0.778 0.019097306 1.1163224e-38 314 226
-0.0068029333 0.77600002 0.019048214 1.1163224e-38 315 226
-0.0054423464 0.77600002 0.019048214 1.1163224e-38 316 226
-0.0040817601 0.77600002 0.019048214 1.1163224e-38 317 226
-0.0027211732 0.77600002 0.019048214 1.1255423e-38 318 226
-0.0013605866 0.77600002 0.019048214 1.1347618e-38 319 226
0 0.77600002 0.019048214 1.1164306e-38 320 226
0.0013605866 0.77600002 0.019048214 1.1164306e-38 321 226
0.0027211732 0.77600002 0.019048214 1.1348339e-38 322 226
0.0040817601 0.77600002 0.019048214 1.1348339e-38 323 226
0.0054423464 0.77600002 0.019048214 1.1439815e-38 324 226
0.0067853997 0.77399999 0.018999118 1.1347618e-38 325 226
0.0081424797 0.77399999 0.018999118 1.1347974e-38 326 226
0.0094995592 0.77399999 0.018999118 1.1347974e-38 327 226
0.01085664 0.77399999 0.018999118 1.1347971e-38 328 226
0.01221372 0.77399999 0.018999118 1.1255776e-38 329 226
0.013553266 0.773 0.018974574 1.1255776e-38 330 226
0.014908593 0.773 0.018974574 1.1255776e-38 331 226
0.016221842 0.77100003 0.018925481 1.1072108e-38 332 226
0.01757366 0.77100003 0.018925481 1.1164303e-38 333 226
0.018876385 0.76899999 0.018876385 1.1440534e-38 334 226
0.0202247 0.76899999 0.018876385 1.1164306e-38 335 226
0.021573013 0.76899999 0.018876385 1.1255423e-38 336 226
0.022921326 0.76899999 0.018876385 1.1255423e-38 337 226
0.024269639 0.76899999 0.018876385 1.1072464e-38 338 226
0.025551327 0.76700002 0.018827293 1.1072464e-38 339 226
0.026896132 0.76700002 0.018827293 1.0980987e-38 340 226
0.02824094 0.76700002 0.018827293 1.0980987e-38 341 226
0.029547172 0.76599997 0.018802745 1.0980631e-38 342 226
0.030809574 0.764 0.018753653 1.0980631e-38 343 226
0.032064959 0.76200002 0.01870456 1.0797321e-38 344 226
0.033401001 0.76200002 0.01870456 1.0797321e-38 345 226
0.034691449 0.76099998 0.018680012 1.1164303e-38 346 226
0.035931058 0.759 0.01863092 1.1164303e-38 347 226
0.03726184 0.759 0.01863092 1.1440168e-38 348 226
0.038490929 0.75700003 0.018581826 1.1440168e-38 349 226
0.039712999 0.755 0.018532733 1.18093e-38 350 226
0.041036766 0.755 0.018532733 1.2085887e-38 351 226
0.04219221 0.75199997 0.018459093 1.26369e-38 352 226
0.043394998 0.75 0.018409999 1.199153e-38 353 226
0.044650383 0.74900001 0.018385453 1.1349041e-38 354 226
0.045840897 0.74699998 0.018336359 1.1533792e-38 355 226
0.047087517 0.74599999 0.018311813 1.2084445e-38 356 226
0.048395503 0.74599999 0.018311813 1.199189e-38 357 226
0.04957024 0.74400002 0.01826272 1.2083726e-38 358 226
0.050737958 0.74199998 0.018213626 1.199153e-38 359 226
0.051968798 0.741 0.018189078 1.1624913e-38 360 226
0.053124249 0.73900002 0.018139986 1.1624913e-38 361 226
0.054346316 0.73799998 0.018115439 1.1440887e-38 362 226
0.055489492 0.736 0.018066347 1.1533083e-38 363 226
0.056548502 0.73299998 0.017992707 1.1349418e-38 364 226
0.057675898 0.73100001 0.017943613 1.1441972e-38 365 226
0.058715623 0.72799999 0.017869972 1.1441969e-38 366 226
0.059909642 0.727 0.017845426 1.1626e-38 367 226
0.061016005 0.72500002 0.017796334 1.1717477e-38 368 226
0.062029421 0.722 0.017722692 1.1717477e-38 369 226
0.06312 0.72000003 0.017673599 1.1900792e-38 370 226
0.064292975 0.71899998 0.017649053 1.1992988e-38 371 226
0.065371275 0.71700001 0.017599959 1.2177739e-38 372 226
0.066349633 0.71399999 0.017526319 1.2177739e-38 373 226
0.067506835 0.713 0.017501773 1.2361049e-38 374 226
0.068564095 0.71100003 0.01745268 1.2361049e-38 375 226
0.069712527 0.70999998 0.017428132 1.2819856e-38 376 226
0.070657574 0.70700002 0.017354494 1.2451432e-38 377 226
0.071592107 0.704 0.017280852 1.2357432e-38 378 226
0.072723009 0.70300001 0.017256306 1.1896814e-38 379 226
0.073745191 0.70099998 0.017207211 1.23524e-38 380 226
0.074974284 0.70099998 0.017207211 1.1799226e-38 381 226
0.076094657 0.69999999 0.017182667 1.1801022e-38 382 226
0.077321991 0.69999999 0.017182667 1.2815173e-38 383 226
0.078549333 0.69999999 0.017182667 1.2815536e-38 384 226
0.079776667 0.69999999 0.017182667 1.2354918e-38 385 226
0.081004001 0.69999999 0.017182667 1.2446407e-38 386 226
-0.10923968 0.708 0.01613768 1.5766549e-38 232 227
-0.10784578 0.70700002 0.016114887 1.6043134e-38 233 227
-0.10660617 0.70700002 0.016114887 1.5122967e-38 234 227
-0.10536657 0.70700002 0.016114887 1.2818437e-38 235 227
-0.10412696 0.70700002 0.016114887 1.1246775e-38 236 227
-0.10288735 0.70700002 0.016114887 9.771285e-39 237 227
-0.10179152 0.708 0.01613768 1.0784348e-38 238 227
-0.10055015 0.708 0.01613768 1.1061295e-38 239 227
-0.099308796 0.708 0.01613768 1.1337519e-38 240 227
-0.098067433 0.708 0.01613768 1.1890693e-38 241 227
-0.097099595 0.70999998 0.016183265 1.180245e-38 242 227
-0.095989741 0.71100003 0.01620606 1.2170873e-38 243 227
-0.094743125 0.71100003 0.01620606 1.2264152e-38 244 227
-0.093759492 0.713 0.016251646 1.2540378e-38 245 227
-0.092639111 0.71399999 0.016274439 1.2265592e-38 246 227
-0.091771215 0.71700001 0.016342819 1.2081202e-38 247 227
-0.090766557 0.71899998 0.016388407 1.2081202e-38 248 227
-0.089630403 0.72000003 0.0164112 1.1989007e-38 249 227
-0.088367999 0.72000003 0.0164112 1.1713143e-38 250 227
-0.08734756 0.722 0.016456785 1.1620947e-38 251 227
-0.086200871 0.72299999 0.01647958 1.1529473e-38 252 227
-0.085168168 0.72500002 0.016525166 1.1437276e-38 253 227
-0.084128432 0.727 0.016570752 1.1436201e-38 254 227
-0.083309628 0.73100001 0.016661927 1.1344006e-38 255 227
-0.082364589 0.73400003 0.016730307 1.1344006e-38 256 227
-0.081077635 0.73400003 0.016730307 1.1344006e-38 257 227
-0.080008104 0.736 0.016775893 1.1252889e-38 258 227
-0.078931555 0.73799998 0.016821479 1.1160693e-38 259 227
-0.0777428 0.73900002 0.016844273 1.1160691e-38 260 227
-0.076653972 0.741 0.016889861 1.1160691e-38 261 227
-0.075456448 0.74199998 0.016912652 1.1069217e-38 262 227
-0.074555233 0.74599999 0.017003827 1.0884827e-38 263 227
-0.073345438 0.74699998 0.017026618 1.0701154e-38 264 227
-0.072228566 0.74900001 0.017072206 1.0608959e-38 265 227
-0.071010001 0.75 0.017095 1.070151e-38 266 227
-0.069694996 0.75 0.017095 1.070151e-38 267 227
-0.068562344 0.75199997 0.017140586 1.0608956e-38 268 227
-0.067243837 0.75199997 0.017140586 1.0424923e-38 269 227
-0.06592533 0.75199997 0.017140586 1.0241251e-38 270 227
-0.064778648 0.75400001 0.017186172 1.005722e-38 271 227
-0.063540794 0.755 0.017208965 1.005722e-38 272 227
-0.062381849 0.75700003 0.017254554 1.005722e-38 273 227
-0.061215881 0.759 0.017300138 1.0056864e-38 274 227
-0.060042895 0.76099998 0.017345725 1.0056864e-38 275 227
-0.058708608 0.76099998 0.017345725 1.0056864e-38 276 227
-0.057374325 0.76099998 0.017345725 9.9646684e-39 277 227
-0.056113683 0.76200002 0.01736852 1.0423844e-38 278 227
-0.054921411 0.764 0.017414106 1.0423844e-38 279 227
-0.053722132 0.76599997 0.017459691 1.0240176e-38 280 227
-0.052379075 0.76599997 0.017459691 1.0240176e-38 281 227
-0.051036026 0.76599997 0.017459691 1.0423847e-38 282 227
-0.049757849 0.76700002 0.017482487 1.0423847e-38 283 227
-0.048413042 0.76700002 0.017482487 9.9646684e-39 284 227
-0.047068235 0.76700002 0.017482487 9.9646684e-39 285 227
-0.045723427 0.76700002 0.017482487 9.8731916e-39 286 227
-0.044494338 0.76899999 0.017528072 9.9653873e-39 287 227
-0.043146025 0.76899999 0.017528072 9.8731916e-39 288 227
-0.04190642 0.77100003 0.01757366 9.9653873e-39 289 227
-0.040554602 0.77100003 0.01757366 9.9653873e-39 290 227
-0.039304473 0.773 0.017619247 9.9653873e-39 291 227
-0.037949149 0.773 0.017619247 1.0240176e-38 292 227
-0.036593821 0.773 0.017619247 1.0332731e-38 293 227
-0.035238493 0.773 0.017619247 1.0240532e-38 294 227
-0.033927001 0.77399999 0.01764204 1.0240532e-38 295 227
-0.032569919 0.77399999 0.01764204 1.0240176e-38 296 227
-0.031212838 0.77399999 0.01764204 1.0240176e-38 297 227
-0.029932907 0.77600002 0.017687626 1.0240176e-38 298 227
-0.028572321 0.77600002 0.017687626 1.0332731e-38 299 227
-0.027211733 0.77600002 0.017687626 1.0424923e-38 300 227
-0.025917772 0.778 0.017733213 1.0332728e-38 301 227
-0.024553679 0.778 0.017733213 1.0516043e-38 302 227
-0.023189586 0.778 0.017733213 1.0516043e-38 303 227
-0.021825492 0.778 0.017733213 1.0423491e-38 304 227
-0.020461399 0.778 0.017733213 1.0515687e-38 305 227
-0.019097306 0.778 0.017733213 1.0515687e-38 306 227
-0.017733213 0.778 0.017733213 1.0608243e-38 307 227
-0.016369121 0.778 0.017733213 1.0700801e-38 308 227
-0.015005025 0.778 0.017733213 1.0977747e-38 309 227
-0.013640933 0.778 0.017733213 1.1070663e-38 310 227
-0.012276839 0.778 0.017733213 1.1162858e-38 311 227
-0.010912746 0.778 0.017733213 1.1162861e-38 312 227
-0.0095486529 0.778 0.017733213 1.1162861e-38 313 227
-0.0081845606 0.778 0.017733213 1.1346174e-38 314 227
-0.0068029333 0.77600002 0.017687626 1.1346174e-38 315 227
-0.0054423464 0.77600002 0.017687626 1.1346171e-38 316 227
-0.0040817601 0.77600002 0.017687626 1.1438725e-38 317 227
-0.0027211732 0.77600002 0.017687626 1.1438725e-38 318 227
-0.0013605866 0.77600002 0.017687626 1.1530921e-38 319 227
