# .PCD v.7 - Point Cloud Data file format
FIELDS x y z rgb imX imY
SIZE 4 4 4 4 4 4
TYPE F F F F F F
COUNT 1 1 1 1 1 1
WIDTH 834
HEIGHT 1
VIEWPOINT 0 0 0 1 0 0 0
POINTS 834
DATA ascii
0.047550395 0.67799997 -0.036851559 1.0512835e-38 360 271
0.048739154 0.67799997 -0.036851559 1.0697585e-38 361 271
0.05029612 0.68300003 -0.037123326 1.0972742e-38 362 271
0.051795214 0.68699998 -0.037340738 1.1064937e-38 363 271
-0.068658777 0.68699998 -0.038545277 1.4381093e-38 263 272
-0.06735605 0.68599999 -0.03848917 1.337054e-38 264 272
-0.0659604 0.68400002 -0.038376961 1.3093594e-38 265 272
-0.064571753 0.68199998 -0.038264744 1.2450744e-38 266 272
-0.063190132 0.68000001 -0.038152531 1.2174517e-38 267 272
-0.061906695 0.67900002 -0.038096428 1.2356758e-38 268 272
-0.06044792 0.676 -0.037928104 1.2264562e-38 269 272
-0.059262663 0.676 -0.037928104 1.1899373e-38 270 272
-0.057905588 0.67400002 -0.037815895 1.2359992e-38 271 272
-0.056723841 0.67400002 -0.037815895 1.3371979e-38 272 272
-0.055542093 0.67400002 -0.037815895 1.355637e-38 273 272
-0.054118387 0.671 -0.037647571 1.4015904e-38 274 272
-0.052863002 0.67000002 -0.037591465 1.3831512e-38 275 272
-0.051533967 0.66799998 -0.037479252 1.438324e-38 276 272
-0.050287351 0.667 -0.037423145 1.4014459e-38 277 272
-0.049117878 0.667 -0.037423145 1.3737149e-38 278 272
-0.047948405 0.667 -0.037423145 1.3737149e-38 279 272
0.038997639 0.67400002 -0.037815895 1.2444965e-38 353 272
0.040179387 0.67400002 -0.037815895 1.1340783e-38 354 272
0.041422497 0.67500001 -0.037871998 1.0695413e-38 355 272
0.042669121 0.676 -0.037928104 1.0328801e-38 356 272
0.043854371 0.676 -0.037928104 1.0513191e-38 357 272
0.045039624 0.676 -0.037928104 1.0879823e-38 358 272
0.046224877 0.676 -0.037928104 1.0787627e-38 359 272
0.047620531 0.67900002 -0.038096428 1.0605031e-38 360 272
0.048811045 0.67900002 -0.038096428 1.0697585e-38 361 272
0.050222475 0.68199998 -0.038264744 1.0881622e-38 362 272
0.051493648 0.68300003 -0.038320854 1.1066372e-38 363 272
-0.068658777 0.68699998 -0.039749816 1.4933189e-38 263 273
-0.06735605 0.68599999 -0.039691959 1.3738247e-38 264 273
-0.0659604 0.68400002 -0.03957624 1.34613e-38 265 273
-0.064571753 0.68199998 -0.039460517 1.3000678e-38 266 273
-0.063190132 0.68000001 -0.039344799 1.3000678e-38 267 273
-0.061997864 0.68000001 -0.039344799 1.2357111e-38 268 273
-0.060626756 0.67799997 -0.039229076 1.2172361e-38 269 273
-0.059437994 0.67799997 -0.039229076 1.1253647e-38 270 273
-0.057991501 0.67500001 -0.039055496 1.1346202e-38 271 273
-0.056808002 0.67500001 -0.039055496 1.1897938e-38 272 273
-0.055542093 0.67400002 -0.038997639 1.2451472e-38 273 273
-0.054199036 0.67199999 -0.03888192 1.3923355e-38 274 273
-0.052863002 0.67000002 -0.038766202 1.419994e-38 275 273
-0.051533967 0.66799998 -0.038650475 1.4201374e-38 276 273
-0.050287351 0.667 -0.038592618 1.4109178e-38 277 273
-0.049117878 0.667 -0.038592618 1.4384683e-38 278 273
-0.047948405 0.667 -0.038592618 1.4384683e-38 279 273
-0.046778932 0.667 -0.038592618 1.410701e-38 280 273
0.031623118 0.66799998 -0.038650475 1.5856201e-38 347 273
0.032794341 0.66799998 -0.038650475 1.5210831e-38 348 273
0.033965573 0.66799998 -0.038650475 1.4473266e-38 349 273
0.035136797 0.66799998 -0.038650475 1.3001735e-38 350 273
0.036308024 0.66799998 -0.038650475 1.2171615e-38 351 273
0.037647571 0.671 -0.038824059 1.115747e-38 352 273
0.03888192 0.67199999 -0.03888192 1.0512101e-38 353 273
0.040179387 0.67400002 -0.038997639 9.9600175e-39 354 273
0.041422497 0.67500001 -0.039055496 9.8678219e-39 355 273
0.042669121 0.676 -0.039113361 9.9603916e-39 356 273
0.043854371 0.676 -0.039113361 1.0236977e-38 357 273
0.045039624 0.676 -0.039113361 1.0145861e-38 358 273
0.046361636 0.67799997 -0.039229076 1.0145861e-38 359 273
0.047620531 0.67900002 -0.039286941 1.042244e-38 360 273
0.048882935 0.68000001 -0.039344799 1.0514636e-38 361 273
0.050222475 0.68199998 -0.039460517 1.0882341e-38 362 273
0.051493648 0.68300003 -0.039518382 1.1067091e-38 363 273
0.052691177 0.68300003 -0.039518382 1.1709939e-38 364 273
-0.069863312 0.68699998 -0.040954359 1.696149e-38 262 274
-0.068658777 0.68699998 -0.040954359 1.548672e-38 263 274
-0.06735605 0.68599999 -0.040894743 1.4198503e-38 264 274
-0.066153266 0.68599999 -0.040894743 1.382936e-38 265 274
-0.064666435 0.68300003 -0.040715907 1.2911001e-38 266 274
-0.063375987 0.68199998 -0.040656291 1.2726609e-38 267 274
-0.061997864 0.68000001 -0.040537067 1.2174517e-38 268 274
-0.060626756 0.67799997 -0.040417835 1.2081963e-38 269 274
-0.059437994 0.67799997 -0.040417835 1.198977e-38 270 274
-0.057991501 0.67500001 -0.040238999 1.198977e-38 271 274
-0.056808002 0.67500001 -0.040238999 1.2080534e-38 272 274
-0.055542093 0.67400002 -0.040179387 1.171211e-38 273 274
-0.054199036 0.67199999 -0.040060159 1.1252215e-38 274 274
-0.052863002 0.67000002 -0.039940935 1.1436965e-38 275 274
-0.051533967 0.66799998 -0.039821707 1.153096e-38 276 274
-0.050287351 0.667 -0.039762091 1.2084134e-38 277 274
-0.049117878 0.667 -0.039762091 1.3465619e-38 278 274
-0.047876518 0.66600001 -0.039702479 1.4203184e-38 279 274
-0.046708796 0.66600001 -0.039702479 1.5397759e-38 280 274
0.022020113 0.66100001 -0.039404415 1.604167e-38 339 274
0.023179067 0.66100001 -0.039404415 1.5949471e-38 340 274
0.02433802 0.66100001 -0.039404415 1.5857276e-38 341 274
0.025496973 0.66100001 -0.039404415 1.5856557e-38 342 274
0.026655925 0.66100001 -0.039404415 1.5487774e-38 343 274
0.028025279 0.66600001 -0.039702479 1.4842771e-38 344 274
0.029192999 0.66600001 -0.039702479 1.4105205e-38 345 274
0.030360719 0.66600001 -0.039702479 1.3367287e-38 346 274
0.03157578 0.667 -0.039762091 1.2629722e-38 347 274
0.032794341 0.66799998 -0.039821707 1.1340788e-38 348 274
0.033965573 0.66799998 -0.039821707 1.0602863e-38 349 274
0.035136797 0.66799998 -0.039821707 9.5001127e-39 350 274
0.036308024 0.66799998 -0.039821707 9.5001127e-39 351 274
0.037647571 0.671 -0.040000543 9.5008386e-39 352 274
0.03888192 0.67199999 -0.040060159 9.5930343e-39 353 274
0.040179387 0.67400002 -0.040179387 1.0328807e-38 354 274
0.041422497 0.67500001 -0.040238999 1.0236253e-38 355 274
0.042669121 0.676 -0.040298611 1.0144779e-38 356 274
0.043984115 0.67799997 -0.040417835 1.0144779e-38 357 274
0.045172878 0.67799997 -0.040417835 1.0236972e-38 358 274
0.046430022 0.67900002 -0.040477451 1.0421722e-38 359 274
0.047690667 0.68000001 -0.040537067 1.0513917e-38 360 274
0.049026705 0.68199998 -0.040656291 1.0606113e-38 361 274
0.05029612 0.68300003 -0.040715907 1.0973821e-38 362 274
0.051569041 0.68400002 -0.040775519 1.1342602e-38 363 274
0.05276832 0.68400002 -0.040775519 1.1802855e-38 364 274
-0.068658777 0.68699998 -0.042158898 1.5671832e-38 263 275
-0.067454241 0.68699998 -0.042158898 1.4474729e-38 264 275
-0.066249698 0.68699998 -0.042158898 1.382936e-38 265 275
-0.064761117 0.68400002 -0.041974798 1.3002833e-38 266 275
-0.063375987 0.68199998 -0.041852064 1.2910279e-38 267 275
-0.061997864 0.68000001 -0.041729335 1.2633335e-38 268 275
-0.060626756 0.67799997 -0.041606598 1.2541139e-38 269 275
-0.059437994 0.67799997 -0.041606598 1.2173083e-38 270 275
-0.057991501 0.67500001 -0.041422497 1.2080887e-38 271 275
-0.056808002 0.67500001 -0.041422497 1.1896866e-38 272 275
-0.055542093 0.67400002 -0.041361131 1.180467e-38 273 275
-0.054199036 0.67199999 -0.041238401 1.1528808e-38 274 275
-0.052941896 0.671 -0.041177034 1.1528808e-38 275 275
-0.051688269 0.67000002 -0.041115668 1.1529528e-38 276 275
-0.050362743 0.66799998 -0.040992931 1.1529528e-38 277 275
-0.04919152 0.66799998 -0.040992931 1.1714275e-38 278 275
-0.047876518 0.66600001 -0.040870197 1.2267449e-38 279 275
-0.046708796 0.66600001 -0.040870197 1.3280153e-38 280 275
-0.045609459 0.667 -0.040931564 1.374113e-38 281 275
-0.04437336 0.66600001 -0.040870197 1.3925876e-38 282 275
-0.043205637 0.66600001 -0.040870197 1.4294657e-38 283 275
-0.042037919 0.66600001 -0.040870197 1.4294654e-38 284 275
0.018543253 0.66100001 -0.040563367 1.5120439e-38 336 275
0.019702207 0.66100001 -0.040563367 1.5120439e-38 337 275
0.02086116 0.66100001 -0.040563367 1.5028241e-38 338 275
0.022020113 0.66100001 -0.040563367 1.5028241e-38 339 275
0.023179067 0.66100001 -0.040563367 1.5118992e-38 340 275
0.02433802 0.66100001 -0.040563367 1.4658014e-38 341 275
0.025496973 0.66100001 -0.040563367 1.3922249e-38 342 275
0.026776904 0.66399997 -0.040747464 1.3553108e-38 343 275
0.028025279 0.66600001 -0.040870197 1.2724076e-38 344 275
0.029192999 0.66600001 -0.040870197 1.2170902e-38 345 275
0.030360719 0.66600001 -0.040870197 1.1525901e-38 346 275
0.03157578 0.667 -0.040931564 1.0787978e-38 347 275
0.032794341 0.66799998 -0.040992931 1.0419205e-38 348 275
0.033965573 0.66799998 -0.040992931 1.0234453e-38 349 275
0.035136797 0.66799998 -0.040992931 9.8663939e-39 350 275
0.036308024 0.66799998 -0.040992931 1.0051144e-38 351 275
0.037703678 0.67199999 -0.041238401 9.8689149e-39 352 275
0.03888192 0.67199999 -0.041238401 9.8689149e-39 353 275
0.040179387 0.67400002 -0.041361131 9.8692708e-39 354 275
0.041422497 0.67500001 -0.041422497 9.8692708e-39 355 275
0.042795356 0.67799997 -0.041606598 9.9607476e-39 356 275
0.043984115 0.67799997 -0.041606598 1.0144779e-38 357 275
0.045239504 0.67900002 -0.041667968 1.0053662e-38 358 275
0.046498399 0.68000001 -0.041729335 1.0145858e-38 359 275
0.047830928 0.68199998 -0.041852064 1.051392e-38 360 275
0.049026705 0.68199998 -0.041852064 1.0606117e-38 361 275
0.05029612 0.68300003 -0.041913435 1.1066016e-38 362 275
0.051493648 0.68300003 -0.041913435 1.1434797e-38 363 275
-0.066249698 0.68699998 -0.043363437 1.3828641e-38 265 276
-0.064950474 0.68599999 -0.043300316 1.3186509e-38 266 276
-0.063468911 0.68300003 -0.043110959 1.2910282e-38 267 276
-0.062180214 0.68199998 -0.043047838 1.2633338e-38 268 276
-0.060716182 0.67900002 -0.042858478 1.2541142e-38 269 276
-0.059437994 0.67799997 -0.042795356 1.2265281e-38 270 276
-0.057991501 0.67500001 -0.042606 1.2173085e-38 271 276
-0.056808002 0.67500001 -0.042606 1.1897222e-38 272 276
-0.055542093 0.67400002 -0.042542879 1.1805026e-38 273 276
-0.054199036 0.67199999 -0.042416636 1.180467e-38 274 276
-0.052941896 0.671 -0.042353518 1.180467e-38 275 276
-0.051688269 0.67000002 -0.042290401 1.1621005e-38 276 276
-0.050513536 0.67000002 -0.042290401 1.1436612e-38 277 276
-0.04919152 0.66799998 -0.042164158 1.0885237e-38 278 276
-0.048020288 0.66799998 -0.042164158 1.0885237e-38 279 276
-0.046778932 0.667 -0.042101037 1.0610448e-38 280 276
-0.045609459 0.667 -0.042101037 1.0702644e-38 281 276
-0.04437336 0.66600001 -0.042037919 1.1438767e-38 282 276
-0.043205637 0.66600001 -0.042037919 1.2084137e-38 283 276
-0.042037919 0.66600001 -0.042037919 1.2545108e-38 284 276
-0.040686097 0.66299999 -0.041848559 1.3282673e-38 285 276
-0.039464023 0.662 -0.041785441 1.4293219e-38 286 276
-0.038303319 0.662 -0.041785441 1.4569446e-38 287 276
-0.037086505 0.66100001 -0.04172232 1.5122248e-38 288 276
-0.035927553 0.66100001 -0.04172232 1.5306998e-38 289 276
-0.0347686 0.66100001 -0.04172232 1.5399194e-38 290 276
0.015020805 0.65899998 -0.041596077 1.5488863e-38 333 276
0.016176252 0.65899998 -0.041596077 1.5580696e-38 334 276
0.017331699 0.65899998 -0.041596077 1.5211553e-38 335 276
0.018543253 0.66100001 -0.04172232 1.4659461e-38 336 276
0.019702207 0.66100001 -0.04172232 1.429032e-38 337 276
0.02086116 0.66100001 -0.04172232 1.3461285e-38 338 276
0.022020113 0.66100001 -0.04172232 1.3092501e-38 339 276
0.023214132 0.662 -0.041785441 1.2538608e-38 340 276
0.024374841 0.662 -0.041785441 1.1893239e-38 341 276
0.025535546 0.662 -0.041785441 1.0973441e-38 342 276
0.026776904 0.66399997 -0.041911677 1.0512823e-38 343 276
0.028025279 0.66600001 -0.042037919 1.0051494e-38 344 276
0.029192999 0.66600001 -0.042037919 9.867103e-39 345 276
0.030360719 0.66600001 -0.042037919 9.5916077e-39 346 276
0.03157578 0.667 -0.042101037 9.6838034e-39 347 276
0.032794341 0.66799998 -0.042164158 9.8667625e-39 348 276
0.033965573 0.66799998 -0.042164158 1.0051512e-38 349 276
0.035136797 0.66799998 -0.042164158 1.0050791e-38 350 276
0.036416732 0.67000002 -0.042290401 1.0142986e-38 351 276
0.037815895 0.67400002 -0.042542879 9.8685505e-39 352 276
0.038997639 0.67400002 -0.042542879 9.8685505e-39 353 276
0.040238999 0.67500001 -0.042606 9.8692708e-39 354 276
0.041483864 0.676 -0.042669121 9.9614664e-39 355 276
0.042795356 0.67799997 -0.042795356 9.9614664e-39 356 276
0.044048995 0.67900002 -0.042858478 1.0053662e-38 357 276
0.045306131 0.68000001 -0.042921599 1.0145858e-38 358 276
0.046635158 0.68199998 -0.043047838 1.0238053e-38 359 276
0.047901068 0.68300003 -0.043110959 1.051392e-38 360 276
0.049098592 0.68300003 -0.043110959 1.0790148e-38 361 276
0.050517038 0.68599999 -0.043300316 1.1066016e-38 362 276
-0.065045156 0.68699998 -0.044567976 1.3185071e-38 266 277
-0.06384062 0.68699998 -0.044567976 1.3092875e-38 267 277
-0.06227139 0.68300003 -0.044308487 1.2725533e-38 268 277
-0.0608056 0.68000001 -0.044113863 1.2633338e-38 269 277
-0.059525665 0.67900002 -0.044048995 1.2265278e-38 270 277
-0.058077414 0.676 -0.043854371 1.2173083e-38 271 277
-0.056808002 0.67500001 -0.043789499 1.1897219e-38 272 277
-0.055542093 0.67400002 -0.043724626 1.1805022e-38 273 277
-0.054199036 0.67199999 -0.043594878 1.1621358e-38 274 277
-0.052941896 0.671 -0.043530006 1.1529161e-38 275 277
-0.051765412 0.671 -0.043530006 1.1529163e-38 276 277
-0.050513536 0.67000002 -0.043465134 1.1529163e-38 277 277
-0.049338799 0.67000002 -0.043465134 1.1254019e-38 278 277
-0.048164066 0.67000002 -0.043465134 1.0977433e-38 279 277
-0.046849065 0.66799998 -0.043335386 1.0977433e-38 280 277
-0.045677837 0.66799998 -0.043335386 1.0977433e-38 281 277
-0.044439986 0.667 -0.04327051 1.1253297e-38 282 277
-0.043205637 0.66600001 -0.043205637 1.1529884e-38 283 277
-0.042037919 0.66600001 -0.043205637 1.1161823e-38 284 277
-0.040686097 0.66299999 -0.043011017 1.1346216e-38 285 277
-0.039464023 0.662 -0.042946145 1.2173811e-38 286 277
-0.038303319 0.662 -0.042946145 1.2542235e-38 287 277
-0.037086505 0.66100001 -0.042881273 1.2727335e-38 288 277
-0.035927553 0.66100001 -0.042881273 1.3095758e-38 289 277
-0.0347686 0.66100001 -0.042881273 1.3097916e-38 290 277
-0.033507951 0.65899998 -0.042751525 1.3282307e-38 291 277
-0.032352503 0.65899998 -0.042751525 1.3557815e-38 292 277
-0.031197058 0.65899998 -0.042751525 1.4018793e-38 293 277
-0.012632766 0.65499997 -0.042492028 1.8070343e-38 309 277
-0.011484332 0.65499997 -0.042492028 1.8070343e-38 310 277
-0.010335899 0.65499997 -0.042492028 1.834693e-38 311 277
-0.0091874655 0.65499997 -0.042492028 1.8713921e-38 312 277
-0.0080635799 0.65700001 -0.04262178 1.8529171e-38 313 277
-0.0069116396 0.65700001 -0.04262178 1.7242028e-38 314 277
-0.0057333997 0.65399998 -0.04242716 1.5951289e-38 315 277
-0.0045867199 0.65399998 -0.04242716 1.6780331e-38 316 277
-0.0034452998 0.65499997 -0.042492028 1.8163265e-38 317 277
-0.0022968664 0.65499997 -0.042492028 1.871571e-38 318 277
-0.0011484332 0.65499997 -0.042492028 1.8346928e-38 319 277
0 0.65499997 -0.042492028 1.6688482e-38 320 277
0.0011484332 0.65499997 -0.042492028 1.6411894e-38 321 277
0.0022968664 0.65499997 -0.042492028 1.604167e-38 322 277
0.013865359 0.65899998 -0.042751525 1.3924061e-38 332 277
0.015020805 0.65899998 -0.042751525 1.3370887e-38 333 277
0.016176252 0.65899998 -0.042751525 1.3092498e-38 334 277
0.017331699 0.65899998 -0.042751525 1.2631522e-38 335 277
0.018543253 0.66100001 -0.042881273 1.189576e-38 336 277
0.019702207 0.66100001 -0.042881273 1.171101e-38 337 277
0.02086116 0.66100001 -0.042881273 1.0518589e-38 338 277
0.022053426 0.662 -0.042946145 9.8732197e-39 339 277
0.023214132 0.662 -0.042946145 1.0512835e-38 340 277
0.024374841 0.662 -0.042946145 1.0236609e-38 341 277
0.025574118 0.66299999 -0.043011017 1.0419924e-38 342 277
0.026776904 0.66399997 -0.043075889 1.0143337e-38 343 277
0.028025279 0.66600001 -0.043205637 1.0143342e-38 344 277
0.029236831 0.667 -0.04327051 1.0050788e-38 345 277
0.030406304 0.667 -0.04327051 9.7760018e-39 346 277
0.031623118 0.66799998 -0.043335386 9.8681974e-39 347 277
0.032794341 0.66799998 -0.043335386 9.8681974e-39 348 277
0.034067266 0.67000002 -0.043465134 9.8681974e-39 349 277
0.035241999 0.67000002 -0.043465134 9.8681946e-39 350 277
0.036525436 0.67199999 -0.043594878 9.8681946e-39 351 277
0.037871998 0.67500001 -0.043789499 9.7767179e-39 352 277
0.039055496 0.67500001 -0.043789499 9.7767179e-39 353 277
0.040298611 0.676 -0.043854371 9.9603916e-39 354 277
0.041606598 0.67799997 -0.043984115 1.0144782e-38 355 277
0.042858478 0.67900002 -0.044048995 1.0144779e-38 356 277
0.044113863 0.68000001 -0.044113863 1.0236974e-38 357 277
0.045506012 0.68300003 -0.044308487 1.0236974e-38 358 277
0.046771921 0.68400002 -0.04437336 1.051392e-38 359 277
0.048111461 0.68599999 -0.044503104 1.0697232e-38 360 277
0.049458027 0.68800002 -0.044632856 1.0881625e-38 361 277
0.050664321 0.68800002 -0.044632856 1.1066016e-38 362 277
-0.064666435 0.68300003 -0.045506012 1.3369458e-38 266 278
-0.063468911 0.68300003 -0.045506012 1.290848e-38 267 278
-0.06227139 0.68300003 -0.045506012 1.2725533e-38 268 278
-0.060984433 0.68199998 -0.045439381 1.2633338e-38 269 278
-0.059613332 0.68000001 -0.045306131 1.2265278e-38 270 278
-0.058249239 0.67799997 -0.045172878 1.2173083e-38 271 278
-0.056892153 0.676 -0.045039624 1.2080531e-38 272 278
-0.0556245 0.67500001 -0.044972997 1.1896498e-38 273 278
-0.054360349 0.67400002 -0.044906374 1.1621358e-38 274 278
-0.053020798 0.67199999 -0.044773117 1.1529161e-38 275 278
-0.051765412 0.671 -0.044706494 1.1529163e-38 276 278
-0.050588924 0.671 -0.044706494 1.1529163e-38 277 278
-0.049338799 0.67000002 -0.044639867 1.12533e-38 278 278
-0.048164066 0.67000002 -0.044639867 1.12533e-38 279 278
-0.046989333 0.67000002 -0.044639867 1.1161104e-38 280 278
-0.045677837 0.66799998 -0.044506609 1.12533e-38 281 278
-0.044439986 0.667 -0.044439986 1.1252944e-38 282 278
-0.04327051 0.667 -0.044439986 1.1252944e-38 283 278
-0.042037919 0.66600001 -0.04437336 1.0976357e-38 284 278
-0.040747464 0.66399997 -0.044240102 1.0976357e-38 285 278
-0.039583251 0.66399997 -0.044240102 1.0884158e-38 286 278
-0.038361177 0.66299999 -0.044173479 1.0884158e-38 287 278
-0.037142612 0.662 -0.044106852 1.0885593e-38 288 278
-0.035927553 0.66100001 -0.044040225 1.0977789e-38 289 278
-0.0347686 0.66100001 -0.044040225 1.1071071e-38 290 278
-0.033507951 0.65899998 -0.043906972 1.1255821e-38 291 278
-0.032352503 0.65899998 -0.043906972 1.1807192e-38 292 278
-0.031197058 0.65899998 -0.043906972 1.2175976e-38 293 278
-0.030041611 0.65899998 -0.043906972 1.3004648e-38 294 278
-0.028886165 0.65899998 -0.043906972 1.337307e-38 295 278
-0.027730718 0.65899998 -0.043906972 1.3648932e-38 296 278
-0.019612785 0.65799999 -0.043840345 1.6781052e-38 303 278
-0.018459093 0.65799999 -0.043840345 1.7148756e-38 304 278
-0.017305398 0.65799999 -0.043840345 1.6687779e-38 305 278
-0.016151706 0.65799999 -0.043840345 1.6688851e-38 306 278
-0.014998012 0.65799999 -0.043840345 1.7242025e-38 307 278
-0.013823279 0.65700001 -0.043773718 1.7518965e-38 308 278
-0.012632766 0.65499997 -0.043640465 1.7518965e-38 309 278
-0.011484332 0.65499997 -0.043640465 1.7886672e-38 310 278
-0.010335899 0.65499997 -0.043640465 1.8347649e-38 311 278
-0.0091874655 0.65499997 -0.043640465 1.8622438e-38 312 278
-0.0080635799 0.65700001 -0.043773718 1.7977069e-38 313 278
-0.0069116396 0.65700001 -0.043773718 1.6966514e-38 314 278
-0.0057333997 0.65399998 -0.043573838 1.6321145e-38 315 278
-0.0045867199 0.65399998 -0.043573838 1.6689207e-38 316 278
-0.0034452998 0.65499997 -0.043640465 1.770336e-38 317 278
-0.0022968664 0.65499997 -0.043640465 1.8622794e-38 318 278
-0.0011484332 0.65499997 -0.043640465 1.7977425e-38 319 278
0 0.65499997 -0.043640465 1.6412977e-38 320 278
0.0011484332 0.65499997 -0.043640465 1.613603e-38 321 278
0.0022968664 0.65499997 -0.043640465 1.6226784e-38 322 278
0.0034610799 0.65799999 -0.043840345 1.5950197e-38 323 278
0.0046217865 0.65899998 -0.043906972 1.5765453e-38 324 278
0.0057772328 0.65899998 -0.043906972 1.5673257e-38 325 278
0.0069326796 0.65899998 -0.043906972 1.5487071e-38 326 278
0.010399019 0.65899998 -0.043906972 1.3646754e-38 329 278
0.011554466 0.65899998 -0.043906972 1.3002833e-38 330 278
0.012709912 0.65899998 -0.043906972 1.2633691e-38 331 278
0.013865359 0.65899998 -0.043906972 1.1805009e-38 332 278
0.015020805 0.65899998 -0.043906972 1.0882694e-38 333 278
0.016176252 0.65899998 -0.043906972 1.0421719e-38 334 278
0.017331699 0.65899998 -0.043906972 1.0237327e-38 335 278
0.018543253 0.66100001 -0.044040225 9.9607448e-39 336 278
0.019702207 0.66100001 -0.044040225 9.9607448e-39 337 278
0.02086116 0.66100001 -0.044040225 9.2274985e-39 338 278
0.022053426 0.662 -0.044106852 8.8583559e-39 339 278
0.023214132 0.662 -0.044106852 9.6838034e-39 340 278
0.024411658 0.66299999 -0.044173479 9.775999e-39 341 278
0.025574118 0.66299999 -0.044173479 1.0051157e-38 342 278
0.026857559 0.66600001 -0.04437336 9.9589609e-39 343 278
0.028067358 0.667 -0.044439986 9.8678415e-39 344 278
0.029236831 0.667 -0.044439986 9.7756459e-39 345 278
0.030451892 0.66799998 -0.044506609 9.775999e-39 346 278
0.031623118 0.66799998 -0.044506609 9.775999e-39 347 278
0.032892533 0.67000002 -0.044639867 9.5012072e-39 348 278
0.034118112 0.671 -0.044706494 9.5012072e-39 349 278
0.0352946 0.671 -0.044706494 9.7767179e-39 350 278
0.036634147 0.67400002 -0.044906374 9.5926867e-39 351 278
0.037928104 0.676 -0.045039624 9.7767179e-39 352 278
0.039113361 0.676 -0.045039624 9.7767179e-39 353 278
0.040417835 0.67799997 -0.045172878 9.7767151e-39 354 278
0.041667968 0.67900002 -0.045239504 9.8692708e-39 355 278
0.043047838 0.68199998 -0.045439381 9.9603916e-39 356 278
0.044308487 0.68300003 -0.045506012 1.0144782e-38 357 278
0.045506012 0.68300003 -0.045506012 1.0236621e-38 358 278
0.046771921 0.68400002 -0.045572639 1.0328817e-38 359 278
0.048672531 0.69400001 -0.046238903 1.0237703e-38 360 278
0.049889345 0.69400001 -0.046238903 1.0421734e-38 361 278
-0.063468911 0.68300003 -0.04670354 1.3093228e-38 267 279
-0.06227139 0.68300003 -0.04670354 1.2357827e-38 268 279
-0.060984433 0.68199998 -0.046635158 1.2357827e-38 269 279
-0.059613332 0.68000001 -0.046498399 1.2081966e-38 270 279
-0.058335152 0.67900002 -0.046430022 1.198977e-38 271 279
-0.057144642 0.67900002 -0.046430022 1.1805022e-38 272 279
-0.055706903 0.676 -0.046224877 1.1805022e-38 273 279
-0.054521654 0.676 -0.046224877 1.1621714e-38 274 279
-0.053178601 0.67400002 -0.046088122 1.1529158e-38 275 279
-0.051842555 0.67199999 -0.045951359 1.1529161e-38 276 279
-0.050588924 0.671 -0.045882981 1.1529161e-38 277 279
-0.049412437 0.671 -0.045882981 1.1253297e-38 278 279
-0.048164066 0.67000002 -0.0458146 1.1253297e-38 279 279
-0.046989333 0.67000002 -0.0458146 1.116182e-38 280 279
-0.0458146 0.67000002 -0.0458146 1.0977789e-38 281 279
-0.044506609 0.66799998 -0.045677837 1.1161101e-38 282 279
-0.04327051 0.667 -0.045609459 1.1161101e-38 283 279
-0.042037919 0.66600001 -0.045541082 1.1161101e-38 284 279
-0.040870197 0.66600001 -0.045541082 1.1161101e-38 285 279
-0.039583251 0.66399997 -0.045404319 1.1068906e-38 286 279
-0.038419038 0.66399997 -0.045404319 1.1161101e-38 287 279
-0.037198719 0.66299999 -0.045335937 1.1344414e-38 288 279
-0.035981905 0.662 -0.04526756 1.1436609e-38 289 279
-0.0347686 0.66100001 -0.045199182 1.0885237e-38 290 279
-0.033609647 0.66100001 -0.045199182 1.0885237e-38 291 279
-0.032450691 0.66100001 -0.045199182 1.0700493e-38 292 279
-0.031291738 0.66100001 -0.045199182 1.0700493e-38 293 279
-0.030041611 0.65899998 -0.045062415 1.0517178e-38 294 279
-0.028886165 0.65899998 -0.045062415 1.0701568e-38 295 279
-0.02781488 0.66100001 -0.045199182 1.0793398e-38 296 279
-0.026655925 0.66100001 -0.045199182 1.0977789e-38 297 279
-0.025496973 0.66100001 -0.045199182 1.0978142e-38 298 279
-0.02433802 0.66100001 -0.045199182 1.1162173e-38 299 279
-0.023179067 0.66100001 -0.045199182 1.1163249e-38 300 279
-0.022020113 0.66100001 -0.045199182 1.1163249e-38 301 279
-0.020798039 0.65899998 -0.045062415 1.1163254e-38 302 279
-0.019612785 0.65799999 -0.044994038 1.1347285e-38 303 279
-0.018459093 0.65799999 -0.044994038 1.1530233e-38 304 279
-0.017305398 0.65799999 -0.044994038 1.1346202e-38 305 279
-0.016151706 0.65799999 -0.044994038 1.1897569e-38 306 279
-0.014998012 0.65799999 -0.044994038 1.2727688e-38 307 279
-0.013823279 0.65700001 -0.04492566 1.2730204e-38 308 279
-0.01267134 0.65700001 -0.04492566 1.3098985e-38 309 279
-0.011519399 0.65700001 -0.04492566 1.383296e-38 310 279
-0.01036746 0.65700001 -0.04492566 1.4109188e-38 311 279
-0.0092155198 0.65700001 -0.04492566 1.3924074e-38 312 279
-0.0080758529 0.65799999 -0.044994038 1.3278704e-38 313 279
-0.0069116396 0.65700001 -0.04492566 1.3096467e-38 314 279
-0.0057596997 0.65700001 -0.04492566 1.3188664e-38 315 279
-0.0046077599 0.65700001 -0.04492566 1.3186511e-38 316 279
-0.0034558198 0.65700001 -0.04492566 1.300248e-38 317 279
-0.0023038799 0.65700001 -0.04492566 1.2818086e-38 318 279
-0.00115194 0.65700001 -0.04492566 1.2357108e-38 319 279
0 0.65700001 -0.04492566 1.208052e-38 320 279
0.00115194 0.65700001 -0.04492566 1.1987965e-38 321 279
0.0023038799 0.65700001 -0.04492566 1.1620262e-38 322 279
0.0034610799 0.65799999 -0.044994038 1.1435871e-38 323 279
0.0046217865 0.65899998 -0.045062415 1.1159289e-38 324 279
0.0057772328 0.65899998 -0.045062415 1.0974539e-38 325 279
0.0069326796 0.65899998 -0.045062415 1.0423521e-38 326 279
0.0080881258 0.65899998 -0.045062415 1.0331324e-38 327 279
0.0092435731 0.65899998 -0.045062415 1.0331321e-38 328 279
0.010399019 0.65899998 -0.045062415 1.014693e-38 329 279
0.011554466 0.65899998 -0.045062415 1.0054381e-38 330 279
0.012709912 0.65899998 -0.045062415 9.9621853e-39 331 279
0.013865359 0.65899998 -0.045062415 9.3182578e-39 332 279
0.015066394 0.66100001 -0.045199182 9.4108136e-39 333 279
0.016225345 0.66100001 -0.045199182 9.7785171e-39 334 279
0.0173843 0.66100001 -0.045199182 9.9629084e-39 335 279
0.018543253 0.66100001 -0.045199182 1.0328454e-38 336 279
0.019732011 0.662 -0.04526756 1.0236258e-38 337 279
0.020892721 0.662 -0.04526756 9.9611133e-39 338 279
0.022053426 0.662 -0.04526756 9.8689177e-39 339 279
0.0232492 0.66299999 -0.045335937 9.8689177e-39 340 279
0.024411658 0.66299999 -0.045335937 9.8689177e-39 341 279
0.025612691 0.66399997 -0.045404319 9.8678415e-39 342 279
0.026857559 0.66600001 -0.045541082 9.8678415e-39 343 279
0.028067358 0.667 -0.045609459 9.5923308e-39 344 279
0.029236831 0.667 -0.045609459 9.5923308e-39 345 279
0.030543067 0.67000002 -0.0458146 9.5926839e-39 346 279
0.031765141 0.671 -0.045882981 9.5926839e-39 347 279
0.032941625 0.671 -0.045882981 9.5930399e-39 348 279
0.034168959 0.67199999 -0.045951359 9.5930399e-39 349 279
0.035347197 0.67199999 -0.045951359 9.5926839e-39 350 279
0.036688499 0.67500001 -0.0461565 9.5926839e-39 351 279
0.037928104 0.676 -0.046224877 9.7767179e-39 352 279
0.039229076 0.67799997 -0.046361636 9.7767179e-39 353 279
0.040537067 0.68000001 -0.046498399 9.7767151e-39 354 279
0.041729335 0.68000001 -0.046498399 9.7767151e-39 355 279
0.043047838 0.68199998 -0.046635158 9.8692708e-39 356 279
0.044308487 0.68300003 -0.04670354 9.8692708e-39 357 279
0.045572639 0.68400002 -0.046771921 1.0236255e-38 358 279
0.046977058 0.68699998 -0.046977058 1.014406e-38 359 279
0.048602402 0.69300002 -0.047387339 1.0328454e-38 360 279
0.049817458 0.69300002 -0.047387339 1.0328454e-38 361 279
-0.062180214 0.68199998 -0.047830928 1.2725884e-38 268 280
-0.060984433 0.68199998 -0.047830928 1.2265266e-38 269 280
-0.059788663 0.68199998 -0.047830928 1.2540423e-38 270 280
-0.058421064 0.68000001 -0.047690667 1.2448228e-38 271 280
-0.057228796 0.68000001 -0.047690667 1.2080531e-38 272 280
-0.055954125 0.67900002 -0.047620531 1.1896498e-38 273 280
-0.054682959 0.67799997 -0.047550395 1.1621358e-38 274 280
-0.053336397 0.676 -0.047410134 1.1529161e-38 275 280
-0.052074 0.67500001 -0.047339998 1.1529161e-38 276 280
-0.050815105 0.67400002 -0.047269866 1.1529161e-38 277 280
-0.049486078 0.67199999 -0.047129598 1.1161817e-38 278 280
-0.048235953 0.671 -0.047059465 1.1161817e-38 279 280
-0.047059465 0.671 -0.047059465 1.1161817e-38 280 280
-0.0458146 0.67000002 -0.046989333 1.0977786e-38 281 280
-0.044639867 0.67000002 -0.046989333 1.1161101e-38 282 280
-0.043335386 0.66799998 -0.046849065 1.1161101e-38 283 280
-0.042101037 0.667 -0.046778932 1.1161101e-38 284 280
-0.040870197 0.66600001 -0.046708796 1.1161101e-38 285 280
-0.039702479 0.66600001 -0.046708796 1.0977789e-38 286 280
-0.038419038 0.66399997 -0.046568532 1.0977789e-38 287 280
-0.037198719 0.66299999 -0.046498399 1.0886312e-38 288 280
-0.035981905 0.662 -0.046428263 1.0886312e-38 289 280
-0.034821201 0.662 -0.046428263 1.088524e-38 290 280
-0.033660494 0.662 -0.046428263 1.088524e-38 291 280
-0.032450691 0.66100001 -0.046358135 1.088489e-38 292 280
-0.031291738 0.66100001 -0.046358135 1.088489e-38 293 280
-0.030132787 0.66100001 -0.046358135 1.0792691e-38 294 280
-0.028973831 0.66100001 -0.046358135 1.0700496e-38 295 280
-0.02781488 0.66100001 -0.046358135 1.0608293e-38 296 280
-0.026655925 0.66100001 -0.046358135 1.0608293e-38 297 280
-0.025496973 0.66100001 -0.046358135 1.0332785e-38 298 280
-0.02433802 0.66100001 -0.046358135 1.0424981e-38 299 280
-0.023179067 0.66100001 -0.046358135 1.0150912e-38 300 280
-0.022020113 0.66100001 -0.046358135 9.9668797e-39 301 280
-0.020798039 0.65899998 -0.046217863 1.0333151e-38 302 280
-0.019642593 0.65899998 -0.046217863 1.0056924e-38 303 280
-0.018459093 0.65799999 -0.04614773 1.0332785e-38 304 280
-0.017305398 0.65799999 -0.04614773 1.0424981e-38 305 280
-0.016151706 0.65799999 -0.04614773 1.0700843e-38 306 280
-0.014998012 0.65799999 -0.04614773 1.0793398e-38 307 280
-0.013823279 0.65700001 -0.046077598 1.0701562e-38 308 280
-0.01267134 0.65700001 -0.046077598 1.0701562e-38 309 280
-0.011519399 0.65700001 -0.046077598 1.1436612e-38 310 280
-0.01038324 0.65799999 -0.04614773 1.1436612e-38 311 280
-0.0092295464 0.65799999 -0.04614773 1.1252215e-38 312 280
-0.0080758529 0.65799999 -0.04614773 1.0883791e-38 313 280
-0.0069221598 0.65799999 -0.04614773 1.0701196e-38 314 280
-0.0057684663 0.65799999 -0.04614773 1.0701196e-38 315 280
-0.0046147732 0.65799999 -0.04614773 1.0883791e-38 316 280
-0.0034610799 0.65799999 -0.04614773 1.06994e-38 317 280
-0.0023073866 0.65799999 -0.04614773 1.0422817e-38 318 280
-0.0011536933 0.65799999 -0.04614773 1.014587e-38 319 280
0 0.65799999 -0.04614773 9.8710813e-39 320 280
0.0011536933 0.65799999 -0.04614773 9.9632769e-39 321 280
0.0023073866 0.65799999 -0.04614773 1.0239142e-38 322 280
0.0034663398 0.65899998 -0.046217863 9.962914e-39 323 280
0.0046217865 0.65899998 -0.046217863 9.7785171e-39 324 280
0.0057772328 0.65899998 -0.046217863 9.6863215e-39 325 280
0.0069326796 0.65899998 -0.046217863 9.226065e-39 326 280
0.0080881258 0.65899998 -0.046217863 9.3182606e-39 327 280
0.0092435731 0.65899998 -0.046217863 9.5026561e-39 328 280
0.010399019 0.65899998 -0.046217863 9.5026561e-39 329 280
0.011554466 0.65899998 -0.046217863 9.6863243e-39 330 280
0.012709912 0.65899998 -0.046217863 9.7785199e-39 331 280
0.013865359 0.65899998 -0.046217863 9.5948545e-39 332 280
0.015066394 0.66100001 -0.046358135 9.7788857e-39 333 280
0.016225345 0.66100001 -0.046358135 9.7774507e-39 334 280
0.017410601 0.662 -0.046428263 9.7774507e-39 335 280
0.018571306 0.662 -0.046428263 9.9607602e-39 336 280
0.019732011 0.662 -0.046428263 9.8685646e-39 337 280
0.020892721 0.662 -0.046428263 9.6852495e-39 338 280
0.02208674 0.66299999 -0.046498399 9.6852495e-39 339 280
0.023284266 0.66399997 -0.046568532 9.6856054e-39 340 280
0.02452212 0.66600001 -0.046708796 9.5930497e-39 341 280
0.02568984 0.66600001 -0.046708796 9.500854e-39 342 280
0.026897885 0.667 -0.046778932 9.5930497e-39 343 280
0.028067358 0.667 -0.046778932 9.317539e-39 344 280
0.029412165 0.671 -0.047059465 9.317539e-39 345 280
0.030588651 0.671 -0.047059465 9.5012072e-39 346 280
0.031812478 0.67199999 -0.047129598 9.5012072e-39 347 280
0.03299072 0.67199999 -0.047129598 9.4090087e-39 348 280
0.034168959 0.67199999 -0.047129598 9.5012044e-39 349 280
0.035505001 0.67500001 -0.047339998 9.50121e-39 350 280
0.036851559 0.67799997 -0.047550395 9.50121e-39 351 280
0.038040318 0.67799997 -0.047550395 9.500854e-39 352 280
0.039286941 0.67900002 -0.047620531 9.500854e-39 353 280
0.040537067 0.68000001 -0.047690667 9.500854e-39 354 280
0.041852064 0.68199998 -0.047830928 9.500854e-39 355 280
0.043110959 0.68300003 -0.047901068 9.500854e-39 356 280
0.044308487 0.68300003 -0.047901068 9.500854e-39 357 280
0.045572639 0.68400002 -0.0479712 9.499782e-39 358 280
0.046977058 0.68699998 -0.048181597 9.499782e-39 359 280
0.048602402 0.69300002 -0.048602402 9.1328002e-39 360 280
-0.061073858 0.68300003 -0.049098592 1.3092145e-38 269 281
-0.059876334 0.68300003 -0.049098592 1.2265631e-38 270 281
-0.05867881 0.68300003 -0.049098592 1.208124e-38 271 281
-0.05739712 0.68199998 -0.049026705 1.1896498e-38 272 281
-0.056036532 0.68000001 -0.048882935 1.1896498e-38 273 281
-0.054844268 0.68000001 -0.048882935 1.1712829e-38 274 281
-0.053573098 0.67900002 -0.048811045 1.1712829e-38 275 281
-0.052151144 0.676 -0.048595384 1.1529161e-38 276 281
-0.050890498 0.67500001 -0.048523501 1.1436965e-38 277 281
-0.049633358 0.67400002 -0.048451614 1.1253653e-38 278 281
-0.04830784 0.67199999 -0.04830784 1.1253653e-38 279 281
-0.047059465 0.671 -0.048235953 1.116182e-38 280 281
-0.045882981 0.671 -0.048235953 1.0977789e-38 281 281
-0.044639867 0.67000002 -0.048164066 1.1161101e-38 282 281
-0.043465134 0.67000002 -0.048164066 1.1161101e-38 283 281
-0.042164158 0.66799998 -0.048020288 1.0977789e-38 284 281
-0.040931564 0.667 -0.047948405 1.0977789e-38 285 281
-0.039702479 0.66600001 -0.047876518 1.0886309e-38 286 281
-0.03853476 0.66600001 -0.047876518 1.0886309e-38 287 281
-0.037254825 0.66399997 -0.047732744 1.0886309e-38 288 281
-0.036036257 0.66299999 -0.047660857 1.0794114e-38 289 281
-0.034821201 0.662 -0.047588971 1.0885593e-38 290 281
-0.033660494 0.662 -0.047588971 1.0977789e-38 291 281
-0.032499783 0.662 -0.047588971 1.0977789e-38 292 281
-0.031339079 0.662 -0.047588971 1.0885593e-38 293 281
-0.030178372 0.662 -0.047588971 1.0977433e-38 294 281
-0.028973831 0.66100001 -0.047517084 1.0793042e-38 295 281
-0.02781488 0.66100001 -0.047517084 1.1068908e-38 296 281
-0.026655925 0.66100001 -0.047517084 1.1068908e-38 297 281
-0.025496973 0.66100001 -0.047517084 1.0885593e-38 298 281
-0.02433802 0.66100001 -0.047517084 1.0885593e-38 299 281
-0.023179067 0.66100001 -0.047517084 1.0794114e-38 300 281
-0.022020113 0.66100001 -0.047517084 1.0794114e-38 301 281
-0.020798039 0.65899998 -0.04737331 1.1068908e-38 302 281
-0.019642593 0.65899998 -0.04737331 1.1068908e-38 303 281
-0.018459093 0.65799999 -0.047301427 1.1251865e-38 304 281
-0.017305398 0.65799999 -0.047301427 1.1251865e-38 305 281
-0.016151706 0.65799999 -0.047301427 1.0700849e-38 306 281
-0.014998012 0.65799999 -0.047301427 1.0608293e-38 307 281
-0.013823279 0.65700001 -0.04722954 1.0055842e-38 308 281
-0.01267134 0.65700001 -0.04722954 9.8718114e-39 309 281
-0.011536933 0.65799999 -0.047301427 1.0423186e-38 310 281
-0.01038324 0.65799999 -0.047301427 1.033099e-38 311 281
-0.0092295464 0.65799999 -0.047301427 1.0147672e-38 312 281
-0.0080881258 0.65899998 -0.04737331 1.0147672e-38 313 281
-0.0069326796 0.65899998 -0.04737331 1.0056193e-38 314 281
-0.0057772328 0.65899998 -0.04737331 1.0056193e-38 315 281
-0.0046217865 0.65899998 -0.04737331 1.0330985e-38 316 281
-0.0034663398 0.65899998 -0.04737331 1.0423539e-38 317 281
-0.0023108933 0.65899998 -0.04737331 1.0606851e-38 318 281
-0.0011554466 0.65899998 -0.04737331 1.042282e-38 319 281
0 0.65899998 -0.04737331 1.0055477e-38 320 281
0.0011554466 0.65899998 -0.04737331 1.0055477e-38 321 281
0.0023108933 0.65899998 -0.04737331 1.0330622e-38 322 281
0.0034663398 0.65899998 -0.04737331 1.0422817e-38 323 281
0.0046217865 0.65899998 -0.04737331 1.0330619e-38 324 281
0.0057772328 0.65899998 -0.04737331 1.0330619e-38 325 281
0.0069326796 0.65899998 -0.04737331 1.0238419e-38 326 281
0.0080881258 0.65899998 -0.04737331 1.0238419e-38 327 281
0.0092435731 0.65899998 -0.04737331 9.9629112e-39 328 281
0.010399019 0.65899998 -0.04737331 9.9629112e-39 329 281
0.011589534 0.66100001 -0.047517084 9.8707156e-39 330 281
0.012748486 0.66100001 -0.047517084 9.7785199e-39 331 281
0.01390744 0.66100001 -0.047517084 9.7785199e-39 332 281
0.015066394 0.66100001 -0.047517084 9.6863243e-39 333 281
0.016249891 0.662 -0.047588971 9.7778011e-39 334 281
0.017410601 0.662 -0.047588971 9.6856054e-39 335 281
0.018571306 0.662 -0.047588971 9.9611105e-39 336 281
0.019791625 0.66399997 -0.047732744 9.8689149e-39 337 281
0.020955838 0.66399997 -0.047732744 9.6856054e-39 338 281
0.022120051 0.66399997 -0.047732744 9.6856054e-39 339 281
0.023354398 0.66600001 -0.047876518 9.5937699e-39 340 281
0.02452212 0.66600001 -0.047876518 9.5937699e-39 341 281
0.025728412 0.667 -0.047948405 9.3175418e-39 342 281
0.026897885 0.667 -0.047948405 9.3175418e-39 343 281
0.028109439 0.66799998 -0.048020288 9.317539e-39 344 281
0.029412165 0.671 -0.048235953 9.2253433e-39 345 281
0.030634239 0.67199999 -0.04830784 9.5004883e-39 346 281
0.031812478 0.67199999 -0.04830784 9.5004883e-39 347 281
0.03299072 0.67199999 -0.04830784 9.4090115e-39 348 281
0.034270655 0.67400002 -0.048451614 9.3168159e-39 349 281
0.035557602 0.676 -0.048595384 9.5004911e-39 350 281
0.036905911 0.67900002 -0.048811045 9.5004911e-39 351 281
0.038096428 0.67900002 -0.048811045 9.5001352e-39 352 281
0.039344799 0.68000001 -0.048882935 9.4079395e-39 353 281
0.040656291 0.68199998 -0.049026705 9.5912518e-39 354 281
0.041852064 0.68199998 -0.049026705 9.5912518e-39 355 281
0.043110959 0.68300003 -0.049098592 9.3157411e-39 356 281
0.044308487 0.68300003 -0.049098592 9.2235455e-39 357 281
0.045772515 0.68699998 -0.049386136 9.4986932e-39 358 281
0.046977058 0.68699998 -0.049386136 9.2217462e-39 359 281
-0.059964001 0.68400002 -0.050369758 1.2725168e-38 270 282
-0.058764715 0.68400002 -0.050369758 1.2448581e-38 271 282
-0.057481278 0.68300003 -0.05029612 1.2080531e-38 272 282
-0.056201346 0.68199998 -0.050222475 1.1804303e-38 273 282
-0.055005573 0.68199998 -0.050222475 1.180395e-38 274 282
-0.053652 0.68000001 -0.050075196 1.1711754e-38 275 282
-0.052382588 0.67900002 -0.050001562 1.1528445e-38 276 282
-0.050965894 0.676 -0.049780637 1.1528445e-38 277 282
-0.049706999 0.67500001 -0.049706999 1.12533e-38 278 282
-0.048451614 0.67400002 -0.049633358 1.12533e-38 279 282
-0.047129598 0.67199999 -0.049486078 1.0977789e-38 280 282
-0.045882981 0.671 -0.049412437 1.0977789e-38 281 282
-0.044706494 0.671 -0.049412437 1.1161104e-38 282 282
-0.043465134 0.67000002 -0.049338799 1.1161104e-38 283 282
-0.042164158 0.66799998 -0.04919152 1.1068908e-38 284 282
-0.040992931 0.66799998 -0.04919152 1.1161104e-38 285 282
-0.039762091 0.667 -0.049117878 1.0885593e-38 286 282
-0.038592618 0.667 -0.049117878 1.0885593e-38 287 282
-0.037367038 0.66600001 -0.04904424 1.0610802e-38 288 282
-0.036090612 0.66399997 -0.048896957 1.0610802e-38 289 282
-0.034873798 0.66299999 -0.048823316 1.0885593e-38 290 282
-0.033711337 0.66299999 -0.048823316 1.0885593e-38 291 282
-0.032499783 0.662 -0.048749682 1.0885593e-38 292 282
-0.031339079 0.662 -0.048749682 1.0885593e-38 293 282
-0.030178372 0.662 -0.048749682 1.0885237e-38 294 282
-0.029017664 0.662 -0.048749682 1.0793042e-38 295 282
-0.02781488 0.66100001 -0.04867604 1.0793042e-38 296 282
-0.026655925 0.66100001 -0.04867604 1.0793042e-38 297 282
-0.025496973 0.66100001 -0.04867604 1.0793398e-38 298 282
-0.024374841 0.662 -0.048749682 1.0793398e-38 299 282
-0.023214132 0.662 -0.048749682 1.0793398e-38 300 282
-0.022020113 0.66100001 -0.04867604 1.0793398e-38 301 282
-0.02086116 0.66100001 -0.04867604 1.0517178e-38 302 282
-0.019642593 0.65899998 -0.048528757 1.0517178e-38 303 282
-0.018487146 0.65899998 -0.048528757 1.0700849e-38 304 282
-0.017331699 0.65899998 -0.048528757 1.0700849e-38 305 282
-0.016176252 0.65899998 -0.048528757 1.0700493e-38 306 282
-0.014998012 0.65799999 -0.048455119 1.0700493e-38 307 282
-0.01384432 0.65799999 -0.048455119 1.0332432e-38 308 282
-0.012690626 0.65799999 -0.048455119 1.0332432e-38 309 282
-0.011536933 0.65799999 -0.048455119 1.0608293e-38 310 282
-0.010399019 0.65899998 -0.048528757 1.0516098e-38 311 282
-0.0092435731 0.65899998 -0.048528757 1.0515735e-38 312 282
-0.0081126727 0.66100001 -0.04867604 1.0515735e-38 313 282
-0.0069326796 0.65899998 -0.048528757 1.0516454e-38 314 282
-0.0057772328 0.65899998 -0.048528757 1.0424258e-38 315 282
-0.0046358132 0.66100001 -0.04867604 1.0423902e-38 316 282
-0.00347686 0.66100001 -0.04867604 1.0239871e-38 317 282
-0.0023179066 0.66100001 -0.04867604 1.0239871e-38 318 282
-0.0011589533 0.66100001 -0.04867604 1.0147675e-38 319 282
0 0.66100001 -0.04867604 1.005548e-38 320 282
0.0011589533 0.66100001 -0.04867604 1.005548e-38 321 282
0.0023179066 0.66100001 -0.04867604 9.9632797e-39 322 282
0.00347686 0.66100001 -0.04867604 9.9632797e-39 323 282
0.0046358132 0.66100001 -0.04867604 9.8710813e-39 324 282
0.0057947668 0.66100001 -0.04867604 9.8710813e-39 325 282
0.00695372 0.66100001 -0.04867604 9.9625581e-39 326 282
0.0081126727 0.66100001 -0.04867604 9.8703624e-39 327 282
0.0092716264 0.66100001 -0.04867604 9.8703624e-39 328 282
0.01043058 0.66100001 -0.04867604 9.8703624e-39 329 282
0.011589534 0.66100001 -0.04867604 9.778164e-39 330 282
0.012748486 0.66100001 -0.04867604 9.778164e-39 331 282
0.01390744 0.66100001 -0.04867604 9.6859684e-39 332 282
0.015089186 0.662 -0.048749682 9.5937727e-39 333 282
0.016249891 0.662 -0.048749682 9.6852495e-39 334 282
0.0174632 0.66399997 -0.048896957 9.6852495e-39 335 282
0.018627413 0.66399997 -0.048896957 9.6856054e-39 336 282
0.019851239 0.66600001 -0.04904424 9.5930497e-39 337 282
0.02101896 0.66600001 -0.04904424 9.4097374e-39 338 282
0.02218668 0.66600001 -0.04904424 9.5937699e-39 339 282
0.023389466 0.667 -0.049117878 9.4097374e-39 340 282
0.024558939 0.667 -0.049117878 9.4097374e-39 341 282
0.025766984 0.66799998 -0.04919152 9.226065e-39 342 282
0.026938211 0.66799998 -0.04919152 9.226065e-39 343 282
0.028193599 0.67000002 -0.049338799 9.2253433e-39 344 282
0.029455997 0.67199999 -0.049486078 9.2253433e-39 345 282
0.030725412 0.67400002 -0.049633358 9.31646e-39 346 282
0.03190716 0.67400002 -0.049633358 9.31646e-39 347 282
0.033137999 0.67500001 -0.049706999 9.1335036e-39 348 282
0.034372345 0.676 -0.049780637 9.1335036e-39 349 282
0.035557602 0.676 -0.049780637 9.31646e-39 350 282
0.036960267 0.68000001 -0.050075196 9.31646e-39 351 282
0.038152531 0.68000001 -0.050075196 9.1324316e-39 352 282
0.039460517 0.68199998 -0.050222475 9.1324316e-39 353 282
0.040656291 0.68199998 -0.050222475 9.1324316e-39 354 282
0.041913435 0.68300003 -0.05029612 9.040236e-39 355 282
0.043110959 0.68300003 -0.05029612 8.9476803e-39 356 282
0.044308487 0.68300003 -0.05029612 8.763289e-39 357 282
-0.058936544 0.68599999 -0.051719822 1.2815931e-38 271 283
-0.057565439 0.68400002 -0.051569041 1.2264562e-38 272 283
-0.056366164 0.68400002 -0.051569041 1.1987615e-38 273 283
-0.055086225 0.68300003 -0.051493648 1.1528439e-38 274 283
-0.053809796 0.68199998 -0.051418249 1.1528439e-38 275 283
-0.052459732 0.68000001 -0.051267464 1.1436246e-38 276 283
-0.051192071 0.67900002 -0.051192071 1.1436246e-38 277 283
-0.049780637 0.676 -0.050965894 1.1344414e-38 278 283
-0.048523501 0.67500001 -0.050890498 1.1344414e-38 279 283
-0.047269866 0.67400002 -0.050815105 1.1344416e-38 280 283
-0.045951359 0.67199999 -0.050664317 1.1252221e-38 281 283
-0.044706494 0.671 -0.050588924 1.0977436e-38 282 283
-0.043530006 0.671 -0.050588924 1.0977436e-38 283 283
-0.042290401 0.67000002 -0.050513536 1.1161104e-38 284 283
-0.041115668 0.67000002 -0.050513536 1.1068908e-38 285 283
-0.039821707 0.66799998 -0.050362743 1.0885237e-38 286 283
-0.038650475 0.66799998 -0.050362743 1.0885237e-38 287 283
-0.037423145 0.667 -0.050287351 1.0610446e-38 288 283
-0.03619932 0.66600001 -0.050211959 1.0610446e-38 289 283
-0.035031598 0.66600001 -0.050211959 1.0885593e-38 290 283
-0.03386388 0.66600001 -0.050211959 1.0885593e-38 291 283
-0.03259797 0.66399997 -0.05006117 1.1068908e-38 292 283
-0.031433757 0.66399997 -0.05006117 1.1068908e-38 293 283
-0.030269546 0.66399997 -0.05006117 1.0976354e-38 294 283
-0.029061496 0.66299999 -0.049985778 1.1068908e-38 295 283
-0.027899038 0.66299999 -0.049985778 1.0793042e-38 296 283
-0.026736578 0.66299999 -0.049985778 1.0793042e-38 297 283
-0.025574118 0.66299999 -0.049985778 1.097671e-38 298 283
-0.024411658 0.66299999 -0.049985778 1.097671e-38 299 283
-0.0232492 0.66299999 -0.049985778 1.0793042e-38 300 283
-0.022053426 0.662 -0.049910385 1.0700846e-38 301 283
-0.02086116 0.66100001 -0.049834993 1.0700846e-38 302 283
-0.019702207 0.66100001 -0.049834993 1.0700846e-38 303 283
-0.018543253 0.66100001 -0.049834993 1.0700846e-38 304 283
-0.0173843 0.66100001 -0.049834993 1.0700846e-38 305 283
-0.016176252 0.65899998 -0.049684204 1.0425337e-38 306 283
-0.015020805 0.65899998 -0.049684204 1.0425337e-38 307 283
-0.013865359 0.65899998 -0.049684204 1.0332783e-38 308 283
-0.012709912 0.65899998 -0.049684204 1.0425337e-38 309 283
-0.011554466 0.65899998 -0.049684204 1.0333138e-38 310 283
-0.010399019 0.65899998 -0.049684204 1.0333138e-38 311 283
-0.0092435731 0.65899998 -0.049684204 1.0424252e-38 312 283
-0.0081126727 0.66100001 -0.049834993 1.0424252e-38 313 283
-0.00695372 0.66100001 -0.049834993 1.0424255e-38 314 283
-0.0057947668 0.66100001 -0.049834993 1.0424255e-38 315 283
-0.0046358132 0.66100001 -0.049834993 1.0423539e-38 316 283
-0.00347686 0.66100001 -0.049834993 1.0330985e-38 317 283
-0.0023179066 0.66100001 -0.049834993 1.0147672e-38 318 283
-0.0011589533 0.66100001 -0.049834993 1.0055477e-38 319 283
0 0.66100001 -0.049834993 1.0055474e-38 320 283
0.0011589533 0.66100001 -0.049834993 9.9632769e-39 321 283
0.0023179066 0.66100001 -0.049834993 9.9632769e-39 322 283
0.00347686 0.66100001 -0.049834993 9.8710813e-39 323 283
0.0046358132 0.66100001 -0.049834993 9.9625581e-39 324 283
0.0057947668 0.66100001 -0.049834993 9.8703624e-39 325 283
0.0069642398 0.662 -0.049910385 1.0053677e-38 326 283
0.0081249457 0.662 -0.049910385 1.0053677e-38 327 283
0.009285653 0.662 -0.049910385 9.9614819e-39 328 283
0.01044636 0.662 -0.049910385 9.9614819e-39 329 283
0.011607066 0.662 -0.049910385 9.9614791e-39 330 283
0.012767773 0.662 -0.049910385 9.7774479e-39 331 283
0.01392848 0.662 -0.049910385 9.6859684e-39 332 283
0.015111978 0.66299999 -0.049985778 9.6859684e-39 333 283
0.016298985 0.66399997 -0.05006117 9.5937699e-39 334 283
0.017515799 0.66600001 -0.050211959 9.5937699e-39 335 283
0.018683519 0.66600001 -0.050211959 9.5937699e-39 336 283
0.019851239 0.66600001 -0.050211959 9.4097374e-39 337 283
0.02101896 0.66600001 -0.050211959 9.5923336e-39 338 283
0.022219993 0.667 -0.050287351 9.5923336e-39 339 283
0.023424532 0.66799998 -0.050362743 9.5005009e-39 340 283
0.02459576 0.66799998 -0.050362743 9.5005009e-39 341 283
0.025844134 0.67000002 -0.050513536 9.4083053e-39 342 283
0.027059194 0.671 -0.050588924 9.4083053e-39 343 283
0.028235679 0.671 -0.050588924 9.3164656e-39 344 283
0.029455997 0.67199999 -0.050664317 9.3164656e-39 345 283
0.030771 0.67500001 -0.050890498 9.4079395e-39 346 283
0.031954501 0.67500001 -0.050890498 9.4079395e-39 347 283
0.033187091 0.676 -0.050965894 9.0409521e-39 348 283
0.034474038 0.67799997 -0.051116679 9.1331477e-39 349 283
0.035873197 0.68199998 -0.051418249 9.3157411e-39 350 283
0.037068974 0.68199998 -0.051418249 9.2235455e-39 351 283
0.038264744 0.68199998 -0.051418249 9.2235455e-39 352 283
0.039518382 0.68300003 -0.051493648 9.1313484e-39 353 283
0.040715907 0.68300003 -0.051493648 9.1313484e-39 354 283
0.041913435 0.68300003 -0.051493648 9.0391528e-39 355 283
0.043174081 0.68400002 -0.051569041 8.7625701e-39 356 283
0.044632856 0.68800002 -0.051870614 8.4859818e-39 357 283
