# .PCD v.7 - Point Cloud Data file format
FIELDS x y z rgb imX imY
SIZE 4 4 4 4 4 4
TYPE F F F F F F
COUNT 1 1 1 1 1 1
WIDTH 853
HEIGHT 1
VIEWPOINT 0 0 0 1 0 0 0
POINTS 853
DATA ascii
-0.045726933 0.815 0.0014289666 1.2065736e-38 288 239
-0.044297963 0.815 0.0014289666 1.4554659e-38 289 239
-0.042869002 0.815 0.0014289666 1.2995599e-38 290 239
-0.041440032 0.815 0.0014289666 1.1428273e-38 291 239
-0.040011063 0.815 0.0014289666 9.7601167e-39 292 239
-0.038582098 0.815 0.0014289666 8.1009555e-39 293 239
-0.037244301 0.81699997 0.0014324732 7.2748045e-39 294 239
-0.035724167 0.815 0.0014289666 5.9840657e-39 295 239
-0.034295198 0.815 0.0014289666 4.9702823e-39 296 239
-0.032946885 0.81699997 0.0014324732 3.6795435e-39 297 239
-0.03151441 0.81699997 0.0014324732 1.4722378e-39 298 239
-0.030008299 0.815 0.0014289666 7.7411679e-39 299 239
-0.028579332 0.815 0.0014289666 1.3905313e-38 300 239
-0.027216991 0.81699997 0.0014324732 1.4919106e-38 301 239
-0.018622151 0.81699997 0.0014324732 2.856638e-39 307 239
-0.01718968 0.81699997 0.0014324732 2.9470204e-39 308 239
-0.015757205 0.81699997 0.0014324732 9.187151e-40 309 239
-0.014324733 0.81699997 0.0014324732 3.7674077e-39 310 239
-0.012892259 0.81699997 0.0014324732 1.3540135e-38 311 239
-0.011459786 0.81699997 0.0014324732 1.6222092e-38 312 239
-0.010027313 0.81699997 0.0014324732 3.6834868e-39 313 239
-0.0085948398 0.81699997 0.0014324732 5.5101578e-40 314 239
-0.007144833 0.815 0.0014289666 3.8675473e-39 315 239
-0.0057158666 0.815 0.0014289666 3.409809e-39 316 239
-0.0042763799 0.81300002 0.00142546 4.7927434e-39 317 239
-0.00285092 0.81300002 0.00142546 5.1694195e-39 318 239
-0.00142546 0.81300002 0.00142546 4.5240501e-39 319 239
0 0.81300002 0.00142546 0 320 239
0.00142546 0.81300002 0.00142546 2.3048683e-39 321 239
0.00285092 0.81300002 0.00142546 1.778331e-38 322 239
0.0042763799 0.81300002 0.00142546 1.6492571e-38 323 239
0.0057018399 0.81300002 0.00142546 9.2163134e-39 324 239
0.0071272999 0.81300002 0.00142546 8.6634983e-39 325 239
0.0085527599 0.81300002 0.00142546 1.0690727e-38 326 239
0.0099782199 0.81300002 0.00142546 1.3548791e-38 327 239
0.01140368 0.81300002 0.00142546 1.1805713e-38 328 239
0.01282914 0.81300002 0.00142546 1.1068148e-38 329 239
0.0142546 0.81300002 0.00142546 7.8445193e-39 330 239
0.01568006 0.81300002 0.00142546 2.8659552e-39 331 239
0.01710552 0.81300002 0.00142546 8.751668e-39 332 239
0.01853098 0.81300002 0.00142546 1.6957439e-38 333 239
0.020054625 0.81699997 0.0014324732 2.3509818e-38 334 239
0.021487098 0.81699997 0.0014324732 2.3509824e-38 335 239
0.022919571 0.81699997 0.0014324732 2.3509846e-38 336 239
0.02441166 0.81900001 0.00143598 2.3508033e-38 337 239
0.02584764 0.81900001 0.00143598 2.3497938e-38 338 239
0.027283618 0.81900001 0.00143598 2.3497938e-38 339 239
0.0287196 0.81900001 0.00143598 2.3509488e-38 340 239
0.030081939 0.81699997 0.0014324732 2.3509874e-38 341 239
0.03151441 0.81699997 0.0014324732 2.3509883e-38 342 239
0.032866232 0.815 0.0014289666 1.8255088e-38 343 239
0.034295198 0.815 0.0014289666 4.7952461e-39 344 239
0.035724167 0.815 0.0014289666 0 345 239
0.037153132 0.815 0.0014289666 1.4744042e-39 346 239
0.038582098 0.815 0.0014289666 1.1056217e-39 347 239
0.040011063 0.815 0.0014289666 0 348 239
0.041440032 0.815 0.0014289666 2.4871114e-39 349 239
0.042763799 0.81300002 0.00142546 1.0501667e-38 350 239
0.044189259 0.81300002 0.00142546 1.2161547e-38 351 239
0.045614719 0.81300002 0.00142546 8.4866853e-39 352 239
0.047040179 0.81300002 0.00142546 7.272739e-43 353 239
0.048465639 0.81300002 0.00142546 9.1836897e-40 354 239
0.049891099 0.81300002 0.00142546 2.116552e-39 355 239
0.051316559 0.81300002 0.00142546 1.6584423e-39 356 239
0.052742019 0.81300002 0.00142546 1.6584423e-39 357 239
0.054167479 0.81300002 0.00142546 1.6584423e-39 358 239
0.055592939 0.81300002 0.00142546 1.7509967e-39 359 239
0.057018399 0.81300002 0.00142546 2.0265032e-39 360 239
0.058300085 0.81099999 0.0014219533 2.1190576e-39 361 239
0.05972204 0.81099999 0.0014219533 2.6704237e-39 362 239
0.060993209 0.80900002 0.0014184467 1.6566319e-39 363 239
0.062411651 0.80900002 0.0014184467 1.6562675e-39 364 239
0.063830093 0.80900002 0.0014184467 9.861673e-39 365 239
0.065087236 0.80699998 0.0014149399 1.2261297e-38 366 239
0.066502176 0.80699998 0.0014149399 4.3324715e-39 367 239
0.0677488 0.80500001 0.0014114333 7.0064923e-45 368 239
0.06916023 0.80500001 0.0014114333 4.2038954e-45 369 239
0.070571661 0.80500001 0.0014114333 3.2246975e-39 370 239
0.071983099 0.80500001 0.0014114333 5.1608057e-39 371 239
0.07339453 0.80500001 0.0014114333 4.8827909e-39 372 239
0.074620105 0.80299997 0.0014079266 5.3441292e-39 373 239
0.076028034 0.80299997 0.0014079266 1.1342246e-38 374 239
0.077435955 0.80299997 0.0014079266 9.4986932e-39 375 239
0.078843892 0.80299997 0.0014079266 5.1669336e-39 376 239
0.08025182 0.80299997 0.0014079266 1.8872968e-40 377 239
0.081558049 0.80199999 0.0014061732 5.5101298e-40 378 239
0.082757331 0.80000001 0.0014026667 0 379 239
0.08416 0.80000001 0.0014026667 0 380 239
0.085562661 0.80000001 0.0014026667 1.1985785e-38 381 239
-0.068150312 0.82700002 -0 7.1008782e-39 273 240
-0.066538997 0.82499999 -0 4.5219047e-39 274 240
-0.064776897 0.82099998 -0 5.9048391e-39 275 240
-0.063183114 0.81900001 -0 8.2028719e-39 276 240
-0.061747137 0.81900001 -0 8.7560443e-39 277 240
-0.060311157 0.81900001 -0 8.4776637e-39 278 240
-0.058731399 0.81699997 -0 7.2791205e-39 279 240
-0.057298932 0.81699997 -0 2.9473735e-39 280 240
-0.055729698 0.815 -0 2.8548177e-39 281 240
-0.054167479 0.81300002 -0 3.3147239e-39 282 240
-0.052612271 0.81099999 -0 3.3147239e-39 283 240
-0.051190317 0.81099999 -0 3.4994711e-39 284 240
-0.049768366 0.81099999 -0 3.4072754e-39 285 240
-0.048346411 0.81099999 -0 2.1219246e-39 286 240
-0.047155898 0.815 -0 4.6112066e-39 287 240
-0.045614719 0.81300002 -0 1.0042464e-38 288 240
-0.044189259 0.81300002 -0 1.3914681e-38 289 240
-0.042763799 0.81300002 -0 1.1611942e-38 290 240
-0.041440032 0.815 -0 8.7538779e-39 291 240
-0.040011063 0.815 -0 8.0141576e-39 292 240
-0.038582098 0.815 -0 8.106712e-39 293 240
-0.037153132 0.815 -0 7.7400945e-39 294 240
-0.035724167 0.815 -0 7.7400945e-39 295 240
-0.034295198 0.815 -0 6.2674825e-39 296 240
-0.032946885 0.81699997 -0 7.0050476e-39 297 240
-0.031437267 0.815 -0 9.8497984e-39 298 240
-0.030008299 0.815 -0 1.4275187e-38 299 240
-0.028579332 0.815 -0 1.5392667e-38 300 240
-0.025721399 0.815 -0 9.3880775e-39 302 240
-0.01718968 0.81699997 -0 1.5640817e-39 308 240
-0.015757205 0.81699997 -0 1.8410287e-39 309 240
-0.014324733 0.81699997 -0 9.4802872e-39 310 240
-0.012892259 0.81699997 -0 1.5657753e-38 311 240
-0.011431733 0.815 -0 1.4472171e-38 312 240
-0.010002766 0.815 -0 1.7495379e-39 313 240
-0.0085948398 0.81699997 -0 5.5101718e-40 314 240
-0.0071623665 0.81699997 -0 3.6849511e-39 315 240
-0.0042974199 0.81699997 -0 3.0406607e-39 317 240
0 0.81300002 -0 0 320 240
0.00142546 0.81300002 -0 4.6990806e-39 321 240
0.00285092 0.81300002 -0 1.8983998e-38 322 240
0.0042763799 0.81300002 -0 1.5388369e-38 323 240
0.0057018399 0.81300002 -0 7.5571494e-39 324 240
0.0071272999 0.81300002 -0 9.0326382e-39 325 240
0.0085527599 0.81300002 -0 1.0968393e-38 326 240
0.009953673 0.81099999 -0 1.3457675e-38 327 240
0.011375627 0.81099999 -0 1.2447482e-38 328 240
0.012797579 0.81099999 -0 1.0880158e-38 329 240
0.014219533 0.81099999 -0 7.564338e-39 330 240
0.015641484 0.81099999 -0 2.0326002e-39 331 240
0.01710552 0.81300002 -0 1.1976392e-38 332 240
0.01853098 0.81300002 -0 1.9813021e-38 333 240
0.020054625 0.81699997 -0 2.3509837e-38 334 240
0.021539699 0.81900001 -0 2.3509842e-38 335 240
0.022975679 0.81900001 -0 2.3509835e-38 336 240
0.02441166 0.81900001 -0 2.3507659e-38 337 240
0.025784519 0.81699997 -0 2.3221716e-38 338 240
0.027216991 0.81699997 -0 2.3502264e-38 339 240
0.028649466 0.81699997 -0 2.3509872e-38 340 240
0.02993466 0.81300002 -0 2.3509884e-38 341 240
0.03136012 0.81300002 -0 2.2310992e-38 342 240
0.03278558 0.81300002 -0 1.180069e-38 343 240
0.034295198 0.815 -0 8.3408227e-40 344 240
0.0356365 0.81300002 -0 0 345 240
0.03706196 0.81300002 -0 2.3020041e-39 346 240
0.038582098 0.815 -0 1.4718833e-39 347 240
0.040011063 0.815 -0 0 348 240
0.041440032 0.815 -0 3.5034143e-39 349 240
0.042763799 0.81300002 -0 1.2163337e-38 350 240
0.044189259 0.81300002 -0 1.1517967e-38 351 240
0.045614719 0.81300002 -0 7.1019306e-39 352 240
0.047040179 0.81300002 -0 7.1746481e-43 353 240
0.048465639 0.81300002 -0 1.0119841e-39 354 240
0.049891099 0.81300002 -0 2.026492e-39 355 240
0.051316559 0.81300002 -0 1.7506282e-39 356 240
0.052742019 0.81300002 -0 1.9346593e-39 357 240
0.054167479 0.81300002 -0 1.7502778e-39 358 240
0.055592939 0.81300002 -0 1.7502778e-39 359 240
0.057018399 0.81300002 -0 2.026506e-39 360 240
0.058300085 0.81099999 -0 2.1187016e-39 361 240
0.05972204 0.81099999 -0 2.2123224e-39 362 240
0.060993209 0.80900002 -0 1.7513442e-39 363 240
0.062411651 0.80900002 -0 3.9589975e-39 364 240
0.063514493 0.80500001 -0 1.087403e-38 365 240
0.064925931 0.80500001 -0 1.1618447e-38 366 240
0.066337362 0.80500001 -0 1.3847337e-39 367 240
0.0677488 0.80500001 -0 8.4077908e-45 368 240
0.06916023 0.80500001 -0 8.2727477e-40 369 240
0.070571661 0.80500001 -0 2.6722692e-39 370 240
0.071983099 0.80500001 -0 4.3314318e-39 371 240
0.073212177 0.80299997 -0 4.4225582e-39 372 240
0.074620105 0.80299997 -0 5.0679276e-39 373 240
0.076028034 0.80299997 -0 8.8518721e-39 374 240
0.077435955 0.80299997 -0 7.5611333e-39 375 240
0.0787457 0.80199999 -0 1.4783545e-39 376 240
0.080151878 0.80199999 -0 0 377 240
0.081558049 0.80199999 -0 7.3469378e-40 378 240
0.082964227 0.80199999 -0 0 379 240
0.084370397 0.80199999 -0 1.8367099e-40 380 240
-0.066538997 0.82499999 -0.0014465 5.3477025e-39 274 241
-0.064619094 0.81900001 -0.00143598 7.1912563e-39 275 241
-0.06302882 0.81699997 -0.0014324732 8.5720033e-39 276 241
-0.061596353 0.81699997 -0.0014324732 8.9407873e-39 277 241
-0.060163878 0.81699997 -0.0014324732 7.9273626e-39 278 241
-0.058587633 0.815 -0.0014289666 6.0834514e-39 279 241
-0.057158664 0.815 -0.0014289666 2.3970836e-39 280 241
-0.055592939 0.81300002 -0.00142546 3.042453e-39 281 241
-0.054167479 0.81300002 -0.00142546 4.3303177e-39 282 241
-0.052612271 0.81099999 -0.0014219533 4.4228721e-39 283 241
-0.051190317 0.81099999 -0.0014219533 4.4210742e-39 284 241
-0.049768366 0.81099999 -0.0014219533 4.0522917e-39 285 241
-0.048346411 0.81099999 -0.0014219533 2.3027173e-39 286 241
-0.046924461 0.81099999 -0.0014219533 1.6573479e-39 287 241
-0.045502506 0.81099999 -0.0014219533 8.2035908e-39 288 241
-0.044080548 0.81099999 -0.0014219533 1.2997764e-38 289 241
-0.042658597 0.81099999 -0.0014219533 7.5553529e-39 290 241
-0.041338343 0.81300002 -0.00142546 1.0101905e-39 291 241
-0.039912879 0.81300002 -0.00142546 1.566953e-39 292 241
-0.038487419 0.81300002 -0.00142546 2.581465e-39 293 241
-0.03706196 0.81300002 -0.00142546 3.777853e-39 294 241
-0.0356365 0.81300002 -0.00142546 5.1607875e-39 295 241
-0.03421104 0.81300002 -0.00142546 5.7110872e-39 296 241
-0.032866232 0.815 -0.0014289666 8.5695118e-39 297 241
-0.03136012 0.81300002 -0.00142546 1.3351434e-38 298 241
-0.02993466 0.81300002 -0.00142546 1.6393889e-38 299 241
-0.02708374 0.81300002 -0.00142546 1.3554511e-38 301 241
-0.0213819 0.81300002 -0.00142546 5.1586169e-39 305 241
-0.018576566 0.815 -0.0014289666 2.215572e-39 307 241
-0.017147599 0.815 -0.0014289666 0 308 241
-0.015718633 0.815 -0.0014289666 3.5019864e-39 309 241
-0.014324733 0.81699997 -0.0014324732 1.3541567e-38 310 241
-0.012892259 0.81699997 -0.0014324732 1.5938653e-38 311 241
-0.011431733 0.815 -0.0014289666 1.2533178e-38 312 241
-0.010002766 0.815 -0.0014289666 6.4284847e-40 313 241
0 0.81300002 -0.00142546 2.4795584e-39 320 241
0.00142546 0.81300002 -0.00142546 1.0222524e-38 321 241
0.0028439066 0.81099999 -0.0014219533 1.981769e-38 322 241
0.0042658602 0.81099999 -0.0014219533 1.4377789e-38 323 241
0.0057018399 0.81300002 -0.00142546 7.2816429e-39 324 241
0.0071272999 0.81300002 -0.00142546 9.5861749e-39 325 241
0.0085317204 0.81099999 -0.0014219533 1.1246425e-38 326 241
0.009953673 0.81099999 -0.0014219533 1.345912e-38 327 241
0.011375627 0.81099999 -0.0014219533 1.2724073e-38 328 241
0.012797579 0.81099999 -0.0014219533 1.0880161e-38 329 241
0.014219533 0.81099999 -0.0014219533 7.0072182e-39 330 241
0.015641484 0.81099999 -0.0014219533 6.4571973e-40 331 241
0.017063441 0.81099999 -0.0014219533 1.4184768e-38 332 241
0.018485393 0.81099999 -0.0014219533 2.174481e-38 333 241
0.020005532 0.815 -0.0014289666 2.3505851e-38 334 241
0.021487098 0.81699997 -0.0014324732 2.3507292e-38 335 241
0.022919571 0.81699997 -0.0014324732 2.350585e-38 336 241
0.024352046 0.81699997 -0.0014324732 2.3501168e-38 337 241
0.025721399 0.815 -0.0014289666 2.2762517e-38 338 241
0.02708374 0.81300002 -0.00142546 2.3505484e-38 339 241
0.0285092 0.81300002 -0.00142546 2.3509869e-38 340 241
0.02993466 0.81300002 -0.00142546 2.3509879e-38 341 241
0.03136012 0.81300002 -0.00142546 2.0557833e-38 342 241
0.03278558 0.81300002 -0.00142546 5.6221412e-39 343 241
0.03421104 0.81300002 -0.00142546 0 344 241
0.0356365 0.81300002 -0.00142546 1.8871006e-40 345 241
0.03706196 0.81300002 -0.00142546 2.1187016e-39 346 241
0.038487419 0.81300002 -0.00142546 9.1835496e-41 347 241
0.039912879 0.81300002 -0.00142546 0 348 241
0.041338343 0.81300002 -0.00142546 5.6217628e-39 349 241
0.042763799 0.81300002 -0.00142546 1.2352047e-38 350 241
0.044189259 0.81300002 -0.00142546 9.5861777e-39 351 241
0.045614719 0.81300002 -0.00142546 5.4402624e-39 352 241
0.047040179 0.81300002 -0.00142546 7.1886611e-43 353 241
0.048465639 0.81300002 -0.00142546 1.1988935e-39 354 241
0.049891099 0.81300002 -0.00142546 1.5680348e-39 355 241
0.051316559 0.81300002 -0.00142546 1.8435469e-39 356 241
0.052742019 0.81300002 -0.00142546 1.7509911e-39 357 241
0.054167479 0.81300002 -0.00142546 2.0265032e-39 358 241
0.055592939 0.81300002 -0.00142546 2.0265032e-39 359 241
0.056878131 0.81099999 -0.0014219533 2.0268563e-39 360 241
0.058300085 0.81099999 -0.0014219533 2.2116063e-39 361 241
0.05972204 0.81099999 -0.0014219533 2.1197582e-39 362 241
0.060993209 0.80900002 -0.0014184467 2.3963451e-39 363 241
0.062411651 0.80900002 -0.0014184467 5.6192419e-39 364 241
0.063514493 0.80500001 -0.0014114333 1.115134e-38 365 241
0.064925931 0.80500001 -0.0014114333 1.0879457e-38 366 241
0.066337362 0.80500001 -0.0014114333 0 367 241
0.0677488 0.80500001 -0.0014114333 0 368 241
0.06916023 0.80500001 -0.0014114333 9.8090893e-45 369 241
0.070571661 0.80500001 -0.0014114333 1.0958154e-42 370 241
0.071804255 0.80299997 -0.0014079266 1.0958154e-42 371 241
0.073212177 0.80299997 -0.0014079266 1.2611686e-44 372 241
0.074527182 0.80199999 -0.0014061732 9.8090893e-45 373 241
0.075933352 0.80199999 -0.0014061732 3.6736721e-40 374 241
0.07733953 0.80199999 -0.0014061732 3.6736721e-40 375 241
0.078549333 0.80000001 -0.0014026667 2.8025969e-45 376 241
0.079952002 0.80000001 -0.0014026667 2.8025969e-45 377 241
0.08135467 0.80000001 -0.0014026667 8.2868447e-40 378 241
0.082964227 0.80199999 -0.0014061732 0 379 241
0.084370397 0.80199999 -0.0014061732 2.1165366e-39 380 241
-0.067491055 0.81900001 -0.0028719599 4.0616594e-39 273 242
-0.066055074 0.81900001 -0.0028719599 5.9901992e-39 274 242
-0.064619094 0.81900001 -0.0028719599 7.926306e-39 275 242
-0.06302882 0.81699997 -0.0028649464 8.5727292e-39 276 242
-0.061596353 0.81699997 -0.0028649464 9.0337074e-39 277 242
-0.060016599 0.815 -0.0028579333 6.8195829e-39 278 242
-0.058587633 0.815 -0.0028579333 4.7912791e-39 279 242
-0.057018399 0.81300002 -0.00285092 2.3967304e-39 280 242
-0.055592939 0.81300002 -0.00285092 3.3190455e-39 281 242
-0.054167479 0.81300002 -0.00285092 4.6079864e-39 282 242
-0.052612271 0.81099999 -0.0028439066 4.5154307e-39 283 242
-0.051190317 0.81099999 -0.0028439066 4.6043963e-39 284 242
-0.049768366 0.81099999 -0.0028439066 3.8668313e-39 285 242
-0.048346411 0.81099999 -0.0028439066 1.7513316e-39 286 242
-0.046924461 0.81099999 -0.0028439066 4.7937846e-39 287 242
-0.045502506 0.81099999 -0.0028439066 1.1053008e-38 288 242
-0.044080548 0.81099999 -0.0028439066 1.3357897e-38 289 242
-0.042658597 0.81099999 -0.0028439066 5.6239278e-39 290 242
-0.041338343 0.81300002 -0.00285092 1.5676788e-39 291 242
-0.039912879 0.81300002 -0.00285092 4.6076165e-39 292 242
-0.038487419 0.81300002 -0.00285092 4.6076165e-39 293 242
-0.036970787 0.81099999 -0.0028439066 5.2490328e-39 294 242
-0.035548832 0.81099999 -0.0028439066 4.9728061e-39 295 242
-0.034126882 0.81099999 -0.0028439066 3.2232569e-39 296 242
-0.032866232 0.815 -0.0028579333 3.6842351e-39 297 242
-0.03136012 0.81300002 -0.00285092 6.9164491e-39 298 242
-0.02993466 0.81300002 -0.00285092 1.2540381e-38 299 242
-0.025532039 0.80900002 -0.0028368933 7.5556906e-39 302 242
-0.01995644 0.81300002 -0.00285092 6.4475578e-39 306 242
-0.01853098 0.81300002 -0.00285092 6.079134e-39 307 242
-0.017147599 0.815 -0.0028579333 7.6392641e-39 308 242
-0.015718633 0.815 -0.0028579333 1.0589884e-38 309 242
-0.014289666 0.815 -0.0028579333 1.6494691e-38 310 242
-0.0128607 0.815 -0.0028579333 1.7140061e-38 311 242
-0.01140368 0.81300002 -0.00285092 1.5103135e-38 312 242
-0.0099782199 0.81300002 -0.00285092 5.0534634e-39 313 242
-0.00142546 0.81300002 -0.00285092 7.0064923e-45 319 242
0 0.81300002 -0.00285092 7.6324271e-39 320 242
0.00142546 0.81300002 -0.00285092 1.5653806e-38 321 242
0.0028439066 0.81099999 -0.0028439066 1.8804977e-38 322 242
0.0042658602 0.81099999 -0.0028439066 1.2812261e-38 323 242
0.0056878133 0.81099999 -0.0028439066 7.0972586e-39 324 242
0.0071097664 0.81099999 -0.0028439066 9.2181182e-39 325 242
0.0085317204 0.81099999 -0.0028439066 1.0511023e-38 326 242
0.009953673 0.81099999 -0.0028439066 1.1801762e-38 327 242
0.011375627 0.81099999 -0.0028439066 1.2351328e-38 328 242
0.012766019 0.80900002 -0.0028368933 1.0968393e-38 329 242
0.014184467 0.80900002 -0.0028368933 4.9778283e-39 330 242
0.015641484 0.81099999 -0.0028439066 0 331 242
0.017063441 0.81099999 -0.0028439066 1.8058074e-38 332 242
0.018485393 0.81099999 -0.0028439066 2.3501577e-38 333 242
0.01995644 0.81300002 -0.00285092 2.3509823e-38 334 242
0.021434501 0.815 -0.0028579333 2.3509828e-38 335 242
0.022863466 0.815 -0.0028579333 2.3509827e-38 336 242
0.024292432 0.815 -0.0028579333 2.3508026e-38 337 242
0.02565828 0.81300002 -0.00285092 2.3231797e-38 338 242
0.02708374 0.81300002 -0.00285092 2.3509837e-38 339 242
0.0285092 0.81300002 -0.00285092 2.3509886e-38 340 242
0.02986102 0.81099999 -0.0028439066 2.3509886e-38 341 242
0.031282969 0.81099999 -0.0028439066 1.9352803e-38 342 242
0.03278558 0.81300002 -0.00285092 2.8497857e-39 343 242
0.03421104 0.81300002 -0.00285092 0 344 242
0.0356365 0.81300002 -0.00285092 1.2024934e-39 345 242
0.03706196 0.81300002 -0.00285092 1.3807694e-39 346 242
0.038487419 0.81300002 -0.00285092 0 347 242
0.039912879 0.81300002 -0.00285092 2.4842303e-39 348 242
0.041338343 0.81300002 -0.00285092 8.2000006e-39 349 242
0.042763799 0.81300002 -0.00285092 1.2629359e-38 350 242
0.044189259 0.81300002 -0.00285092 8.3880002e-39 351 242
0.045502506 0.81099999 -0.0028439066 2.5836426e-39 352 242
0.046924461 0.81099999 -0.0028439066 9.4360636e-41 353 242
0.048346411 0.81099999 -0.0028439066 1.8431909e-39 354 242
0.049768366 0.81099999 -0.0028439066 1.8431909e-39 355 242
0.051190317 0.81099999 -0.0028439066 1.7517142e-39 356 242
0.052612271 0.81099999 -0.0028439066 1.7517142e-39 357 242
0.054034222 0.81099999 -0.0028439066 1.8431909e-39 358 242
0.055456176 0.81099999 -0.0028439066 1.8431909e-39 359 242
0.056878131 0.81099999 -0.0028439066 2.0268591e-39 360 242
0.058300085 0.81099999 -0.0028439066 2.1190547e-39 361 242
0.05957476 0.80900002 -0.0028368933 1.8438944e-39 362 242
0.060842417 0.80699998 -0.0028298798 3.1346332e-39 363 242
0.062257357 0.80699998 -0.0028298798 7.095095e-39 364 242
0.063514493 0.80500001 -0.0028228667 1.1059507e-38 365 242
0.064925931 0.80500001 -0.0028228667 9.5894399e-39 366 242
0.066172548 0.80299997 -0.0028158531 0 367 242
0.067580476 0.80299997 -0.0028158531 0 368 242
0.068988405 0.80299997 -0.0028158531 1.4012985e-44 369 242
0.070396326 0.80299997 -0.0028158531 1.4012985e-45 370 242
0.071804255 0.80299997 -0.0028158531 0 371 242
0.073121011 0.80199999 -0.0028123464 0 372 242
0.074341334 0.80000001 -0.0028053334 0 373 242
0.075743996 0.80000001 -0.0028053334 0 374 242
0.077146664 0.80000001 -0.0028053334 0 375 242
0.078352958 0.79799998 -0.0027983198 1.8367239e-40 376 242
0.079752117 0.79799998 -0.0027983198 6.4321561e-40 377 242
0.081151277 0.79799998 -0.0027983198 3.9586682e-42 378 242
0.082550429 0.79799998 -0.0027983198 0 379 242
-0.068927035 0.81900001 -0.0043079397 9.0416583e-39 272 243
-0.067491055 0.81900001 -0.0043079397 3.8787031e-39 273 243
-0.066055074 0.81900001 -0.0043079397 7.0943776e-39 274 243
-0.064461298 0.81699997 -0.0042974199 8.7535402e-39 275 243
-0.06302882 0.81699997 -0.0042974199 9.123752e-39 276 243
-0.06144556 0.815 -0.0042868997 9.4928933e-39 277 243
-0.060016599 0.815 -0.0042868997 6.3571797e-39 278 243
-0.058443859 0.81300002 -0.0042763799 3.3147239e-39 279 243
-0.057018399 0.81300002 -0.0042763799 2.7644396e-39 280 243
-0.055592939 0.81300002 -0.0042763799 3.5020046e-39 281 243
-0.054167479 0.81300002 -0.0042763799 3.961908e-39 282 243
-0.052612271 0.81099999 -0.0042658602 4.0544623e-39 283 243
-0.051190317 0.81099999 -0.0042658602 3.869348e-39 284 243
-0.049768366 0.81099999 -0.0042658602 2.7630018e-39 285 243
-0.048465639 0.81300002 -0.0042763799 1.1052545e-39 286 243
-0.047040179 0.81300002 -0.0042763799 8.204297e-39 287 243
-0.045502506 0.81099999 -0.0042658602 1.262213e-38 288 243
-0.044080548 0.81099999 -0.0042658602 1.0870414e-38 289 243
-0.042658597 0.81099999 -0.0042658602 4.61265e-39 290 243
-0.041236643 0.81099999 -0.0042658602 4.5204543e-39 291 243
-0.039814692 0.81099999 -0.0042658602 7.2870267e-39 292 243
-0.038392738 0.81099999 -0.0042658602 6.8264073e-39 293 243
-0.036970787 0.81099999 -0.0042658602 6.9150184e-39 294 243
-0.035548832 0.81099999 -0.0042658602 4.9789101e-39 295 243
-0.034126882 0.81099999 -0.0042658602 1.6591514e-39 296 243
-0.03278558 0.81300002 -0.0042763799 0 297 243
-0.031205826 0.80900002 -0.00425534 2.0365477e-39 298 243
-0.02978738 0.80900002 -0.00425534 1.0979522e-38 299 243
-0.028368933 0.80900002 -0.00425534 1.3087421e-38 300 243
-0.026950486 0.80900002 -0.00425534 2.3931039e-39 301 243
-0.024113594 0.80900002 -0.00425534 3.9629505e-39 303 243
-0.01995644 0.81300002 -0.0042763799 6.1709933e-39 306 243
-0.01853098 0.81300002 -0.0042763799 6.9085584e-39 307 243
-0.01710552 0.81300002 -0.0042763799 1.1425048e-38 308 243
-0.01568006 0.81300002 -0.0042763799 1.5021038e-38 309 243
-0.0142546 0.81300002 -0.0042763799 1.8062392e-38 310 243
-0.01282914 0.81300002 -0.0042763799 1.7601414e-38 311 243
-0.01140368 0.81300002 -0.0042763799 1.6215979e-38 312 243
-0.0099782199 0.81300002 -0.0042763799 7.4577525e-39 313 243
-0.0085527599 0.81300002 -0.0042763799 4.4189008e-39 314 243
-0.00142546 0.81300002 -0.0042763799 0 319 243
0 0.81300002 -0.0042763799 1.3164525e-38 320 243
0.00142546 0.81300002 -0.0042763799 1.9618218e-38 321 243
0.0028439066 0.81099999 -0.0042658602 1.8520128e-38 322 243
0.0042658602 0.81099999 -0.0042658602 1.1789846e-38 323 243
0.0056878133 0.81099999 -0.0042658602 6.1760128e-39 324 243
0.0071097664 0.81099999 -0.0042658602 8.5730992e-39 325 243
0.0085317204 0.81099999 -0.0042658602 8.7600268e-39 326 243
0.0099291261 0.80900002 -0.00425534 9.129168e-39 327 243
0.011347573 0.80900002 -0.00425534 1.0046082e-38 328 243
0.012766019 0.80900002 -0.00425534 9.5851057e-39 329 243
0.014184467 0.80900002 -0.00425534 3.0431592e-39 330 243
0.015602913 0.80900002 -0.00425534 0 331 243
0.017063441 0.81099999 -0.0042658602 2.1102715e-38 332 243
0.018485393 0.81099999 -0.0042658602 2.3509886e-38 333 243
0.01995644 0.81300002 -0.0042763799 2.3509886e-38 334 243
0.0213819 0.81300002 -0.0042763799 2.3509886e-38 335 243
0.02280736 0.81300002 -0.0042763799 2.3509886e-38 336 243
0.02423282 0.81300002 -0.0042763799 2.3509886e-38 337 243
0.02565828 0.81300002 -0.0042763799 2.3509886e-38 338 243
0.02708374 0.81300002 -0.0042763799 2.3509886e-38 339 243
0.0285092 0.81300002 -0.0042763799 2.3509886e-38 340 243
0.02986102 0.81099999 -0.0042658602 2.3509886e-38 341 243
0.031282969 0.81099999 -0.0042658602 1.7325218e-38 342 243
0.032704927 0.81099999 -0.0042658602 4.5917748e-40 343 243
0.034126882 0.81099999 -0.0042658602 9.4348024e-41 344 243
0.035548832 0.81099999 -0.0042658602 1.6613136e-39 345 243
0.036970787 0.81099999 -0.0042658602 7.3576437e-40 346 243
0.038487419 0.81300002 -0.0042763799 0 347 243
0.039912879 0.81300002 -0.0042763799 5.2497391e-39 348 243
0.041338343 0.81300002 -0.0042763799 9.8595206e-39 349 243
0.042763799 0.81300002 -0.0042763799 1.2446044e-38 350 243
0.044189259 0.81300002 -0.0042763799 6.8217507e-39 351 243
0.045502506 0.81099999 -0.0042658602 4.6873434e-42 352 243
0.046924461 0.81099999 -0.0042658602 1.8979887e-40 353 243
0.048346411 0.81099999 -0.0042658602 2.0261529e-39 354 243
0.049768366 0.81099999 -0.0042658602 1.9339558e-39 355 243
0.051190317 0.81099999 -0.0042658602 1.5673257e-39 356 243
0.052612271 0.81099999 -0.0042658602 1.751717e-39 357 243
0.054034222 0.81099999 -0.0042658602 1.8439126e-39 358 243
0.055456176 0.81099999 -0.0042658602 1.751717e-39 359 243
0.056878131 0.81099999 -0.0042658602 1.8435469e-39 360 243
0.058300085 0.81099999 -0.0042658602 1.9357425e-39 361 243
0.05957476 0.80900002 -0.00425534 1.7502554e-39 362 243
0.060842417 0.80699998 -0.0042448197 3.8707521e-39 363 243
0.062103067 0.80500001 -0.0042343 8.9375713e-39 364 243
0.063356698 0.80299997 -0.0042237798 1.1242103e-38 365 243
0.064764626 0.80299997 -0.0042237798 8.2057838e-39 366 243
0.066172548 0.80299997 -0.0042237798 0 367 243
0.067496315 0.80199999 -0.0042185197 0 368 243
0.068902493 0.80199999 -0.0042185197 1.4012985e-45 369 243
0.070308663 0.80199999 -0.0042185197 0 370 243
0.071714841 0.80199999 -0.0042185197 0 371 243
0.073121011 0.80199999 -0.0042185197 0 372 243
0.074341334 0.80000001 -0.0042079999 0 373 243
0.075743996 0.80000001 -0.0042079999 2.7550789e-40 374 243
0.077146664 0.80000001 -0.0042079999 3.6734619e-40 375 243
0.078352958 0.79799998 -0.0041974802 8.4077908e-45 376 243
0.079752117 0.79799998 -0.0041974802 2.7624077e-40 377 243
0.081151277 0.79799998 -0.0041974802 2.776757e-40 378 243
0.082550429 0.79799998 -0.0041974802 8.4077908e-45 379 243
-0.070534848 0.82099998 -0.0057579465 1.1801409e-38 271 244
-0.068927035 0.81900001 -0.0057439199 6.7360417e-39 272 244
-0.06732624 0.81699997 -0.0057298928 4.431151e-39 273 244
-0.065893769 0.81699997 -0.0057298928 8.383666e-39 274 244
-0.064461298 0.81699997 -0.0057298928 9.5822092e-39 275 244
-0.062874533 0.815 -0.0057158666 9.0329885e-39 276 244
-0.06144556 0.815 -0.0057158666 8.8485972e-39 277 244
-0.059869319 0.81300002 -0.0057018399 4.9760403e-39 278 244
-0.058443859 0.81300002 -0.0057018399 2.9477364e-39 279 244
-0.057018399 0.81300002 -0.0057018399 3.0413824e-39 280 244
-0.055456176 0.81099999 -0.0056878133 3.0413824e-39 281 244
-0.054034222 0.81099999 -0.0056878133 3.4090929e-39 282 244
-0.052612271 0.81099999 -0.0056878133 3.5012885e-39 283 244
-0.051190317 0.81099999 -0.0056878133 3.5924024e-39 284 244
-0.049768366 0.81099999 -0.0056878133 1.7484898e-39 285 244
-0.048346411 0.81099999 -0.0056878133 4.5953621e-40 286 244
-0.046924461 0.81099999 -0.0056878133 1.0969813e-38 287 244
-0.045502506 0.81099999 -0.0056878133 1.3081683e-38 288 244
-0.044080548 0.81099999 -0.0056878133 8.3793472e-39 289 244
-0.042658597 0.81099999 -0.0056878133 3.234756e-39 290 244
-0.041236643 0.81099999 -0.0056878133 4.2489093e-39 291 244
-0.039814692 0.81099999 -0.0056878133 7.2877511e-39 292 244
-0.038298059 0.80900002 -0.0056737866 7.4721424e-39 293 244
-0.036879614 0.80900002 -0.0056737866 7.7494552e-39 294 244
-0.035461165 0.80900002 -0.0056737866 4.9832275e-39 295 244
-0.03404272 0.80900002 -0.0056737866 7.3863003e-40 296 244
-0.032704927 0.81099999 -0.0056878133 1.383991e-39 297 244
-0.031205826 0.80900002 -0.0056737866 7.4613398e-39 298 244
-0.02978738 0.80900002 -0.0056737866 1.400723e-38 299 244
-0.028368933 0.80900002 -0.0056737866 1.1888178e-38 300 244
-0.026950486 0.80900002 -0.0056737866 2.0232508e-39 301 244
-0.025532039 0.80900002 -0.0056737866 2.4860394e-39 302 244
-0.02280736 0.81300002 -0.0057018399 5.1608029e-39 304 244
-0.01995644 0.81300002 -0.0057018399 4.9749739e-39 306 244
-0.01853098 0.81300002 -0.0057018399 2.94667e-39 307 244
-0.01710552 0.81300002 -0.0057018399 3.6899734e-39 308 244
-0.01568006 0.81300002 -0.0057018399 1.2079776e-38 309 244
-0.0142546 0.81300002 -0.0057018399 1.797092e-38 310 244
-0.012797579 0.81099999 -0.0056878133 1.3268943e-38 311 244
-0.011347573 0.80900002 -0.0056737866 8.3854639e-39 312 244
-0.0099291261 0.80900002 -0.0056737866 6.2649644e-39 313 244
0.00142546 0.81300002 -0.0057018399 2.3493312e-38 321 244
0.0028439066 0.81099999 -0.0056878133 2.1096572e-38 322 244
0.0042658602 0.81099999 -0.0056878133 1.2337629e-38 323 244
0.0056878133 0.81099999 -0.0056878133 3.6878056e-39 324 244
0.0071097664 0.81099999 -0.0056878133 6.1770876e-39 325 244
0.0085317204 0.81099999 -0.0056878133 5.7150571e-39 326 244
0.0099291261 0.80900002 -0.0056737866 5.7150571e-39 327 244
0.011347573 0.80900002 -0.0056737866 5.4413372e-39 328 244
0.012766019 0.80900002 -0.0056737866 4.242794e-39 329 244
0.014184467 0.80900002 -0.0056737866 5.3809861e-42 330 244
0.015602913 0.80900002 -0.0056737866 2.3105968e-39 331 244
0.01702136 0.80900002 -0.0056737866 2.2579613e-38 332 244
0.018485393 0.81099999 -0.0056878133 2.3509876e-38 333 244
0.019907346 0.81099999 -0.0056878133 2.3509884e-38 334 244
0.021329299 0.81099999 -0.0056878133 2.350988e-38 335 244
0.022751253 0.81099999 -0.0056878133 2.3509846e-38 336 244
0.02423282 0.81300002 -0.0057018399 2.3509845e-38 337 244
0.025595158 0.81099999 -0.0056878133 2.3509879e-38 338 244
0.027017111 0.81099999 -0.0056878133 2.3509886e-38 339 244
0.028439065 0.81099999 -0.0056878133 2.3509886e-38 340 244
0.02986102 0.81099999 -0.0056878133 2.2957068e-38 341 244
0.031282969 0.81099999 -0.0056878133 1.2908464e-38 342 244
0.032704927 0.81099999 -0.0056878133 0 343 244
0.034126882 0.81099999 -0.0056878133 3.6985872e-40 344 244
0.035548832 0.81099999 -0.0056878133 1.5684019e-39 345 244
0.036970787 0.81099999 -0.0056878133 0 346 244
0.038487419 0.81300002 -0.0057018399 0 347 244
0.039814692 0.81099999 -0.0056878133 7.2794891e-39 348 244
0.041236643 0.81099999 -0.0056878133 1.0783282e-38 349 244
0.042658597 0.81099999 -0.0056878133 1.2076549e-38 350 244
0.044080548 0.81099999 -0.0056878133 4.8852894e-39 351 244
0.045502506 0.81099999 -0.0056878133 1.2611686e-44 352 244
0.046924461 0.81099999 -0.0056878133 1.109244e-39 353 244
0.048346411 0.81099999 -0.0056878133 1.7510079e-39 354 244
0.049768366 0.81099999 -0.0056878133 1.5669768e-39 355 244
0.051190317 0.81099999 -0.0056878133 1.4758489e-39 356 244
0.052612271 0.81099999 -0.0056878133 1.568046e-39 357 244
0.054034222 0.81099999 -0.0056878133 1.7506408e-39 358 244
0.055456176 0.81099999 -0.0056878133 1.8428378e-39 359 244
0.056878131 0.81099999 -0.0056878133 2.026506e-39 360 244
0.058156308 0.80900002 -0.0056737866 1.934309e-39 361 244
0.05957476 0.80900002 -0.0056737866 1.1967313e-39 362 244
0.060691636 0.80500001 -0.0056457333 4.4235699e-39 363 244
0.062103067 0.80500001 -0.0056457333 1.1052676e-38 364 244
0.063356698 0.80299997 -0.0056317062 1.1237067e-38 365 244
0.064764626 0.80299997 -0.0056317062 6.362946e-39 366 244
0.066172548 0.80299997 -0.0056317062 0 367 244
0.067496315 0.80199999 -0.0056246929 0 368 244
0.068730667 0.80000001 -0.0056106667 0 369 244
0.070133328 0.80000001 -0.0056106667 0 370 244
0.071714841 0.80199999 -0.0056246929 0 371 244
0.072938666 0.80000001 -0.0056106667 0 372 244
0.074341334 0.80000001 -0.0056106667 0 373 244
0.075554639 0.79799998 -0.0055966396 0 374 244
0.076953799 0.79799998 -0.0055966396 0 375 244
0.078352958 0.79799998 -0.0055966396 1.4012985e-45 376 244
0.079752117 0.79799998 -0.0055966396 1.8439686e-40 377 244
0.081151277 0.79799998 -0.0055966396 4.6062502e-40 378 244
0.082550429 0.79799998 -0.0055966396 1.1981901e-39 379 244
-0.070363015 0.81900001 -0.0071799001 9.4986876e-39 271 245
-0.068590395 0.815 -0.007144833 4.5226235e-39 272 245
-0.067161433 0.815 -0.007144833 5.3523856e-39 273 245
-0.065571159 0.81300002 -0.0071272999 8.2954207e-39 274 245
-0.064145707 0.81300002 -0.0071272999 8.9407901e-39 275 245
-0.062720239 0.81300002 -0.0071272999 8.8485902e-39 276 245
-0.061294779 0.81300002 -0.0071272999 8.0188296e-39 277 245
-0.059869319 0.81300002 -0.0071272999 4.1484306e-39 278 245
-0.058443859 0.81300002 -0.0071272999 2.7654962e-39 279 245
-0.057018399 0.81300002 -0.0071272999 2.674039e-39 280 245
-0.055456176 0.81099999 -0.0071097664 2.5818434e-39 281 245
-0.054034222 0.81099999 -0.0071097664 2.3981808e-39 282 245
-0.052612271 0.81099999 -0.0071097664 2.4903764e-39 283 245
-0.051190317 0.81099999 -0.0071097664 2.8569911e-39 284 245
-0.049768366 0.81099999 -0.0071097664 6.4429742e-40 285 245
-0.048346411 0.81099999 -0.0071097664 2.9387359e-39 286 245
-0.046924461 0.81099999 -0.0071097664 1.4644337e-38 287 245
-0.045502506 0.81099999 -0.0071097664 1.243561e-38 288 245
-0.044080548 0.81099999 -0.0071097664 5.7975249e-39 289 245
-0.042658597 0.81099999 -0.0071097664 1.6667338e-39 290 245
-0.041236643 0.81099999 -0.0071097664 3.5102863e-39 291 245
-0.039716505 0.80900002 -0.0070922333 6.7313558e-39 292 245
-0.038298059 0.80900002 -0.0070922333 8.1142916e-39 293 245
-0.036879614 0.80900002 -0.0070922333 7.6536638e-39 294 245
-0.035461165 0.80900002 -0.0070922333 4.7955979e-39 295 245
-0.03404272 0.80900002 -0.0070922333 3.5873241e-43 296 245
-0.032624274 0.80900002 -0.0070922333 3.5959631e-39 297 245
-0.031205826 0.80900002 -0.0070922333 1.2708231e-38 298 245
-0.029713741 0.80699998 -0.0070746993 1.464434e-38 299 245
-0.028298797 0.80699998 -0.0070746993 9.2173952e-39 300 245
-0.026883857 0.80699998 -0.0070746993 2.3949186e-39 301 245
-0.025468919 0.80699998 -0.0070746993 5.2504664e-39 302 245
-0.02405398 0.80699998 -0.0070746993 7.831944e-39 303 245
-0.0213819 0.81300002 -0.0071272999 6.2675106e-39 305 245
-0.019907346 0.81099999 -0.0071097664 4.2359599e-39 306 245
-0.018485393 0.81099999 -0.0071097664 4.5917748e-40 307 245
-0.017063441 0.81099999 -0.0071097664 1.7463094e-39 308 245
-0.015641484 0.81099999 -0.0071097664 1.1611217e-38 309 245
-0.014184467 0.80900002 -0.0070922333 1.7146547e-38 310 245
-0.012766019 0.80900002 -0.0070922333 8.2961269e-39 311 245
-0.011319519 0.80699998 -0.0070746993 1.102026e-39 312 245
-0.0098800333 0.80500001 -0.0070571667 4.5129013e-39 313 245
-0.0084686 0.80500001 -0.0070571667 6.4457585e-39 314 245
0.0014149399 0.80699998 -0.0070746993 2.3500885e-38 321 245
0.0028298798 0.80699998 -0.0070746993 2.1010504e-38 322 245
0.0042448197 0.80699998 -0.0070746993 1.4280223e-38 323 245
0.0056457333 0.80500001 -0.0070571667 5.8061387e-39 324 245
0.0070571667 0.80500001 -0.0070571667 5.8061387e-39 325 245
0.0084896395 0.80699998 -0.0070746993 4.9760403e-39 326 245
0.0099045793 0.80699998 -0.0070746993 4.8838446e-39 327 245
0.011319519 0.80699998 -0.0070746993 2.1226827e-39 328 245
0.012702899 0.80500001 -0.0070571667 1.9618179e-44 329 245
0.014114333 0.80500001 -0.0070571667 3.3136112e-39 330 245
0.015525767 0.80500001 -0.0070571667 1.0781421e-38 331 245
0.016979279 0.80699998 -0.0070746993 2.3506189e-38 332 245
0.018439807 0.80900002 -0.0070922333 2.3509818e-38 333 245
0.019858252 0.80900002 -0.0070922333 2.350987e-38 334 245
0.021276699 0.80900002 -0.0070922333 2.3509865e-38 335 245
0.022751253 0.81099999 -0.0071097664 2.3509824e-38 336 245
0.024173206 0.81099999 -0.0071097664 2.3509818e-38 337 245
0.025595158 0.81099999 -0.0071097664 2.3509852e-38 338 245
0.027017111 0.81099999 -0.0071097664 2.3509876e-38 339 245
0.028439065 0.81099999 -0.0071097664 2.3509886e-38 340 245
0.02986102 0.81099999 -0.0071097664 1.9453625e-38 341 245
0.031282969 0.81099999 -0.0071097664 9.4950611e-39 342 245
0.032704927 0.81099999 -0.0071097664 0 343 245
0.034126882 0.81099999 -0.0071097664 1.1963754e-39 344 245
0.035548832 0.81099999 -0.0071097664 2.1183331e-39 345 245
0.036970787 0.81099999 -0.0071097664 0 346 245
0.038392738 0.81099999 -0.0071097664 0 347 245
0.039814692 0.81099999 -0.0071097664 9.4907549e-39 348 245
0.041236643 0.81099999 -0.0071097664 1.1888201e-38 349 245
0.042658597 0.81099999 -0.0071097664 1.0694346e-38 350 245
0.044080548 0.81099999 -0.0071097664 3.2261408e-39 351 245
0.045502506 0.81099999 -0.0071097664 5.6051939e-45 352 245
0.046924461 0.81099999 -0.0071097664 1.6580976e-39 353 245
0.048346411 0.81099999 -0.0071097664 1.5673285e-39 354 245
0.049768366 0.81099999 -0.0071097664 1.751361e-39 355 245
0.051190317 0.81099999 -0.0071097664 1.7509967e-39 356 245
0.052612271 0.81099999 -0.0071097664 1.8431937e-39 357 245
0.053900972 0.80900002 -0.0070922333 1.933953e-39 358 245
0.055319421 0.80900002 -0.0070922333 2.0265088e-39 359 245
0.056737866 0.80900002 -0.0070922333 2.026506e-39 360 245
0.058012534 0.80699998 -0.0070746993 1.6580822e-39 361 245
0.059427481 0.80699998 -0.0070746993 1.0105492e-39 362 245
0.060691636 0.80500001 -0.0070571667 5.343734e-39 363 245
0.061948773 0.80299997 -0.0070396326 1.1611607e-38 364 245
0.063356698 0.80299997 -0.0070396326 9.3989124e-39 365 245
0.064764626 0.80299997 -0.0070396326 4.4286342e-39 366 245
0.066172548 0.80299997 -0.0070396326 0 367 245
0.067496315 0.80199999 -0.0070308661 0 368 245
0.068730667 0.80000001 -0.007013333 0 369 245
0.070133328 0.80000001 -0.007013333 0 370 245
0.071535997 0.80000001 -0.007013333 0 371 245
0.072938666 0.80000001 -0.007013333 0 372 245
0.074155472 0.79799998 -0.0069957995 0 373 245
0.075554639 0.79799998 -0.0069957995 0 374 245
0.076953799 0.79799998 -0.0069957995 0 375 245
0.078352958 0.79799998 -0.0069957995 4.2038954e-45 376 245
0.079752117 0.79799998 -0.0069957995 1.2611686e-44 377 245
0.081151277 0.79799998 -0.0069957995 2.8866748e-42 378 245
0.082550429 0.79799998 -0.0069957995 1.2972254e-39 379 245
-0.07197433 0.82099998 -0.0086369189 1.3740761e-38 270 246
-0.07019119 0.81699997 -0.0085948398 7.102676e-39 271 246
-0.068422079 0.81300002 -0.0085527599 3.5095478e-39 272 246
-0.066996619 0.81300002 -0.0085527599 5.6300473e-39 273 246
-0.065409854 0.81099999 -0.0085317204 8.5709286e-39 274 246
-0.063987896 0.81099999 -0.0085317204 9.0319053e-39 275 246
-0.062565938 0.81099999 -0.0085317204 9.0304676e-39 276 246
-0.061143994 0.81099999 -0.0085317204 8.0159569e-39 277 246
-0.05972204 0.81099999 -0.0085317204 3.5055793e-39 278 246
-0.058156308 0.80900002 -0.0085106799 1.6616667e-39 279 246
-0.056737866 0.80900002 -0.0085106799 1.7531589e-39 280 246
-0.055319421 0.80900002 -0.0085106799 1.5687676e-39 281 246
-0.054034222 0.81099999 -0.0085317204 2.2112658e-39 282 246
-0.052612271 0.81099999 -0.0085317204 2.2112658e-39 283 246
-0.051190317 0.81099999 -0.0085317204 1.934309e-39 284 246
-0.049768366 0.81099999 -0.0085317204 0 285 246
-0.048346411 0.81099999 -0.0085317204 5.2418274e-39 286 246
-0.046924461 0.81099999 -0.0085317204 1.510676e-38 287 246
-0.045502506 0.81099999 -0.0085317204 1.1696973e-38 288 246
-0.043971848 0.80900002 -0.0085106799 3.768149e-39 289 246
-0.042553399 0.80900002 -0.0085106799 1.1996348e-39 290 246
-0.041236643 0.81099999 -0.0085317204 2.4903736e-39 291 246
-0.039716505 0.80900002 -0.0085106799 3.4087244e-39 292 246
-0.038203377 0.80699998 -0.0084896395 3.5927555e-39 293 246
-0.036788441 0.80699998 -0.0084896395 3.2261254e-39 294 246
-0.035373498 0.80699998 -0.0084896395 2.1197764e-39 295 246
-0.03404272 0.80900002 -0.0085106799 0 296 246
-0.032624274 0.80900002 -0.0085106799 5.5320713e-39 297 246
-0.031128678 0.80699998 -0.0084896395 1.5378308e-38 298 246
-0.029640101 0.80500001 -0.0084686 1.3719146e-38 299 246
-0.028228667 0.80500001 -0.0084686 3.7890088e-39 300 246
-0.026883857 0.80699998 -0.0084896395 1.3919224e-39 301 246
-0.025405798 0.80500001 -0.0084686 7.6497135e-39 302 246
-0.023934752 0.80299997 -0.0084475596 9.8627674e-39 303 246
-0.022526825 0.80299997 -0.0084475596 8.9469362e-39 304 246
-0.021276699 0.80900002 -0.0085106799 7.8409473e-39 305 246
-0.019907346 0.81099999 -0.0085317204 6.527181e-39 306 246
-0.018485393 0.81099999 -0.0085317204 2.5713939e-39 307 246
-0.017063441 0.81099999 -0.0085317204 7.2686893e-39 308 246
-0.015602913 0.80900002 -0.0085106799 1.5197513e-38 309 246
-0.014184467 0.80900002 -0.0085106799 1.548813e-38 310 246
-0.01273446 0.80699998 -0.0084896395 4.7008827e-39 311 246
-0.011319519 0.80699998 -0.0084896395 2.3877257e-39 312 246
-0.0098800333 0.80500001 -0.0084686 6.7162582e-39 313 246
-0.0084686 0.80500001 -0.0084686 5.6188915e-39 314 246
-0.0070571667 0.80500001 -0.0084686 5.0657178e-39 315 246
-0.0056317062 0.80299997 -0.0084475596 3.1364493e-39 316 246
-0.0042237798 0.80299997 -0.0084475596 1.1081454e-39 317 246
-0.0028158531 0.80299997 -0.0084475596 9.713801e-42 318 246
0 0.80500001 -0.0084686 2.3500875e-38 320 246
0.0014114333 0.80500001 -0.0084686 2.3501237e-38 321 246
0.0028228667 0.80500001 -0.0084686 1.8795288e-38 322 246
0.0042448197 0.80699998 -0.0084896395 1.5476246e-38 323 246
0.0056457333 0.80500001 -0.0084686 1.2075074e-38 324 246
0.0070571667 0.80500001 -0.0084686 1.2259105e-38 325 246
0.0084896395 0.80699998 -0.0084896395 1.2260204e-38 326 246
0.0099045793 0.80699998 -0.0084896395 1.23524e-38 327 246
0.011319519 0.80699998 -0.0084896395 1.1340062e-38 328 246
0.012702899 0.80500001 -0.0084686 1.1524454e-38 329 246
0.014114333 0.80500001 -0.0084686 1.6596623e-38 330 246
0.015525767 0.80500001 -0.0084686 2.1851774e-38 331 246
0.016979279 0.80699998 -0.0084896395 2.3509874e-38 332 246
0.018439807 0.80900002 -0.0085106799 2.3509881e-38 333 246
0.019858252 0.80900002 -0.0085106799 2.3509886e-38 334 246
0.021276699 0.80900002 -0.0085106799 2.3509886e-38 335 246
0.022751253 0.81099999 -0.0085317204 2.3509867e-38 336 246
0.024173206 0.81099999 -0.0085317204 2.3509867e-38 337 246
0.025595158 0.81099999 -0.0085317204 2.3509886e-38 338 246
0.027017111 0.81099999 -0.0085317204 2.3509886e-38 339 246
0.028439065 0.81099999 -0.0085317204 2.3509886e-38 340 246
0.02986102 0.81099999 -0.0085317204 1.6963993e-38 341 246
0.031282969 0.81099999 -0.0085317204 5.4413344e-39 342 246
0.032704927 0.81099999 -0.0085317204 0 343 246
0.03404272 0.80900002 -0.0085106799 2.3009307e-39 344 246
0.035461165 0.80900002 -0.0085106799 1.9317894e-39 345 246
0.036970787 0.81099999 -0.0085317204 0 346 246
0.038392738 0.81099999 -0.0085317204 1.8367099e-40 347 246
0.039814692 0.81099999 -0.0085317204 1.1609456e-38 348 246
0.041236643 0.81099999 -0.0085317204 1.2254826e-38 349 246
0.042658597 0.81099999 -0.0085317204 9.3114111e-39 350 246
0.044080548 0.81099999 -0.0085317204 2.0279563e-39 351 246
0.045390293 0.80900002 -0.0085106799 5.5102419e-40 352 246
0.046808738 0.80900002 -0.0085106799 2.11548e-39 353 246
0.048227187 0.80900002 -0.0085106799 1.934309e-39 354 246
0.049645633 0.80900002 -0.0085106799 1.934309e-39 355 246
0.051064078 0.80900002 -0.0085106799 2.0268591e-39 356 246
0.052482527 0.80900002 -0.0085106799 2.0268591e-39 357 246
0.053900972 0.80900002 -0.0085106799 1.8431909e-39 358 246
0.055319421 0.80900002 -0.0085106799 1.8431909e-39 359 246
0.056597594 0.80699998 -0.0084896395 2.1183359e-39 360 246
0.058012534 0.80699998 -0.0084896395 1.9339432e-39 361 246
0.059280202 0.80500001 -0.0084686 1.3789674e-39 362 246
0.060540844 0.80299997 -0.0084475596 6.8181382e-39 363 246
0.061871622 0.80199999 -0.0084370393 1.1799593e-38 364 246
0.063277796 0.80199999 -0.0084370393 7.5589528e-39 365 246
0.064764626 0.80299997 -0.0084475596 7.4584671e-40 366 246
0.066090144 0.80199999 -0.0084370393 0 367 246
0.067327999 0.80000001 -0.0084159998 5.5101298e-40 368 246
0.068558834 0.79799998 -0.0083949603 4.5917748e-40 369 246
0.069957994 0.79799998 -0.0083949603 0 370 246
0.071535997 0.80000001 -0.0084159998 0 371 246
0.072938666 0.80000001 -0.0084159998 0 372 246
0.074155472 0.79799998 -0.0083949603 0 373 246
0.075554639 0.79799998 -0.0083949603 0 374 246
0.076953799 0.79799998 -0.0083949603 0 375 246
0.078352958 0.79799998 -0.0083949603 0 376 246
0.079752117 0.79799998 -0.0083949603 1.8367099e-40 377 246
0.08135467 0.80000001 -0.0084159998 2.7622395e-40 378 246
0.082757331 0.80000001 -0.0084159998 3.8718479e-39 379 246
-0.071799003 0.81900001 -0.01005186 1.2172717e-38 270 247
-0.070019364 0.815 -0.010002766 6.0874451e-39 271 247
-0.068253763 0.81099999 -0.009953673 4.2427968e-39 272 247
-0.066831805 0.81099999 -0.009953673 6.9164701e-39 273 247
-0.065409854 0.81099999 -0.009953673 7.7454839e-39 274 247
-0.063830093 0.80900002 -0.0099291261 8.2986563e-39 275 247
-0.062411651 0.80900002 -0.0099291261 9.214849e-39 276 247
-0.060842417 0.80699998 -0.0099045793 8.2932529e-39 277 247
-0.059427481 0.80699998 -0.0099045793 6.357516e-39 278 247
-0.057868768 0.80500001 -0.0098800333 4.3292121e-39 279 247
-0.056457333 0.80500001 -0.0098800333 3.2243261e-39 280 247
-0.055045899 0.80500001 -0.0098800333 2.4867611e-39 281 247
-0.053900972 0.80900002 -0.0099291261 2.1179856e-39 282 247
-0.052482527 0.80900002 -0.0099291261 2.1179856e-39 283 247
-0.051064078 0.80900002 -0.0099291261 2.6657419e-39 284 247
-0.049645633 0.80900002 -0.0099291261 4.6018501e-39 285 247
-0.048227187 0.80900002 -0.0099291261 1.0858911e-38 286 247
-0.046924461 0.81099999 -0.009953673 1.6021508e-38 287 247
-0.045390293 0.80900002 -0.0099291261 9.3992655e-39 288 247
-0.04386314 0.80699998 -0.0099045793 1.2860557e-39 289 247
-0.042448197 0.80699998 -0.0099045793 1.383303e-39 290 247
-0.041134953 0.80900002 -0.0099291261 2.6740418e-39 291 247
-0.039618317 0.80699998 -0.0099045793 2.762999e-39 292 247
-0.038203377 0.80699998 -0.0099045793 2.670802e-39 293 247
-0.036788441 0.80699998 -0.0099045793 3.0399377e-39 294 247
-0.035373498 0.80699998 -0.0099045793 1.6566445e-39 295 247
-0.03404272 0.80900002 -0.0099291261 9.1835496e-40 296 247
-0.032624274 0.80900002 -0.0099291261 9.0257984e-39 297 247
-0.031128678 0.80699998 -0.0099045793 1.5755e-38 298 247
-0.029640101 0.80500001 -0.0098800333 9.9466757e-39 299 247
-0.028228667 0.80500001 -0.0098800333 8.6305972e-42 300 247
-0.026883857 0.80699998 -0.0099045793 2.3146017e-39 301 247
-0.025405798 0.80500001 -0.0098800333 7.0029218e-39 302 247
-0.023934752 0.80299997 -0.0098554865 8.1092694e-39 303 247
-0.022526825 0.80299997 -0.0098554865 8.3858591e-39 304 247
-0.021171499 0.80500001 -0.0098800333 8.2936634e-39 305 247
-0.019858252 0.80900002 -0.0099291261 2.8519479e-39 306 247
-0.018439807 0.80900002 -0.0099291261 9.1835496e-40 307 247
-0.01702136 0.80900002 -0.0099291261 1.2798282e-38 308 247
-0.015564339 0.80699998 -0.0099045793 1.6670498e-38 309 247
-0.014149399 0.80699998 -0.0099045793 1.2536808e-38 310 247
-0.01273446 0.80699998 -0.0099045793 3.2250478e-39 311 247
-0.011291467 0.80500001 -0.0098800333 3.5848494e-39 312 247
-0.0098800333 0.80500001 -0.0098800333 9.4853697e-39 313 247
-0.0084686 0.80500001 -0.0098800333 8.4819951e-39 314 247
-0.0070571667 0.80500001 -0.0098800333 7.0990607e-39 315 247
-0.0056317062 0.80299997 -0.0098554865 5.527049e-39 316 247
-0.0042237798 0.80299997 -0.0098554865 9.1835496e-40 317 247
-0.0028228667 0.80500001 -0.0098800333 0 318 247
-0.0014079266 0.80299997 -0.0098554865 4.3342316e-39 319 247
0 0.80299997 -0.0098554865 2.212115e-38 320 247
0.0014114333 0.80500001 -0.0098800333 2.1383583e-38 321 247
0.0028228667 0.80500001 -0.0098800333 1.2068232e-38 322 247
0.0042343 0.80500001 -0.0098800333 1.1423221e-38 323 247
0.0056457333 0.80500001 -0.0098800333 1.2171208e-38 324 247
0.0070571667 0.80500001 -0.0098800333 1.2355958e-38 325 247
0.0084686 0.80500001 -0.0098800333 1.244676e-38 326 247
0.0099045793 0.80699998 -0.0099045793 1.1156022e-38 327 247
0.011319519 0.80699998 -0.0099045793 1.1712092e-38 328 247
0.012702899 0.80500001 -0.0098800333 1.4661992e-38 329 247
