# .PCD v.7 - Point Cloud Data file format
FIELDS x y z rgb imX imY
SIZE 4 4 4 4 4 4
TYPE F F F F F F
COUNT 1 1 1 1 1 1
WIDTH 849
HEIGHT 1
VIEWPOINT 0 0 0 1 0 0 0
POINTS 849
DATA ascii
0.082364589 0.73400003 0.055338707 1.8158568e-38 384 197
0.083537564 0.73299998 0.055263311 1.8435513e-38 385 197
0.084822752 0.73299998 0.055263311 1.8159302e-38 386 197
0.086107947 0.73299998 0.055263311 1.8066748e-38 387 197
0.087154694 0.73100001 0.055112526 1.7333148e-38 388 197
-0.044815198 0.70999998 0.052284397 1.9272499e-38 284 198
-0.043447599 0.708 0.052137118 2.0010064e-38 285 198
-0.042146627 0.70700002 0.05206348 2.0651841e-38 286 198
-0.040733438 0.704 0.051842559 1.9637687e-38 287 198
-0.039330769 0.70099998 0.051621638 1.862641e-38 288 198
-0.037938625 0.69800001 0.051400717 1.9087029e-38 289 198
-0.036662199 0.69700003 0.051327083 2.03756e-38 290 198
-0.035389278 0.69599998 0.051253434 2.0652547e-38 291 198
-0.034021679 0.69300002 0.051032521 2.0743661e-38 292 198
-0.032711938 0.69099998 0.050885238 2.0835856e-38 293 198
-0.031500384 0.69099998 0.050885238 2.1111004e-38 294 198
-0.030288832 0.69099998 0.050885238 2.1018809e-38 295 198
-0.029035198 0.69 0.050811596 2.0926254e-38 296 198
-0.027825398 0.69 0.050811596 1.9359287e-38 297 198
-0.026615599 0.69 0.050811596 1.6321498e-38 298 198
-0.025405798 0.69 0.050811596 1.7796628e-38 299 198
-0.024125867 0.68800002 0.050664321 2.0831894e-38 300 198
-0.022919573 0.68800002 0.050664321 2.1661654e-38 301 198
-0.021713281 0.68800002 0.050664321 2.1479064e-38 302 198
-0.020506985 0.68800002 0.050664321 2.1110283e-38 303 198
-0.019300694 0.68800002 0.050664321 2.1019159e-38 304 198
-0.018068098 0.68699998 0.050590675 2.0926962e-38 305 198
-0.01686356 0.68699998 0.050590675 2.1018436e-38 306 198
-0.015636226 0.68599999 0.050517038 2.1018436e-38 307 198
-0.01443344 0.68599999 0.050517038 2.1203553e-38 308 198
-0.013230653 0.68599999 0.050517038 2.0281238e-38 309 198
-0.012027865 0.68599999 0.050517038 1.8436232e-38 310 198
-0.01079352 0.68400002 0.050369758 1.7237689e-38 311 198
-0.0095942402 0.68400002 0.050369758 1.8526262e-38 312 198
-0.0083949603 0.68400002 0.050369758 2.1660912e-38 313 198
-0.0071956799 0.68400002 0.050369758 2.184567e-38 314 198
-0.0059876335 0.68300003 0.05029612 2.1569443e-38 315 198
-0.0047901068 0.68300003 0.05029612 2.1477969e-38 316 198
-0.0035925799 0.68300003 0.05029612 2.166236e-38 317 198
-0.0023950534 0.68300003 0.05029612 2.1386862e-38 318 198
-0.0011975267 0.68300003 0.05029612 2.0373069e-38 319 198
0 0.68300003 0.05029612 1.723986e-38 320 198
0.0011975267 0.68300003 0.05029612 1.7608644e-38 321 198
0.0023950534 0.68300003 0.05029612 2.0186524e-38 322 198
0.0035925799 0.68300003 0.05029612 1.9910296e-38 323 198
0.0047901068 0.68300003 0.05029612 1.769723e-38 324 198
0.0059876335 0.68300003 0.05029612 1.6867467e-38 325 198
0.0071851597 0.68300003 0.05029612 1.8065639e-38 326 198
0.0083826864 0.68300003 0.05029612 2.1568713e-38 327 198
0.0095802136 0.68300003 0.05029612 2.2121168e-38 328 198
0.01077774 0.68300003 0.05029612 2.1567994e-38 329 198
0.011975267 0.68300003 0.05029612 2.1843142e-38 330 198
0.013172794 0.68300003 0.05029612 2.1843142e-38 331 198
0.014370319 0.68300003 0.05029612 2.1843142e-38 332 198
0.015567848 0.68300003 0.05029612 2.1843142e-38 333 198
0.016789921 0.68400002 0.050369758 2.1567275e-38 334 198
0.0179892 0.68400002 0.050369758 2.1751306e-38 335 198
0.01918848 0.68400002 0.050369758 2.166019e-38 336 198
0.020447372 0.68599999 0.050517038 2.1383603e-38 337 198
0.021650158 0.68599999 0.050517038 2.0279757e-38 338 198
0.022852944 0.68599999 0.050517038 1.6591932e-38 339 198
0.024055731 0.68599999 0.050517038 1.4660492e-38 340 198
0.025258519 0.68599999 0.050517038 1.9546861e-38 341 198
0.026461305 0.68599999 0.050517038 2.2303394e-38 342 198
0.027664091 0.68599999 0.050517038 2.2303394e-38 343 198
0.02886688 0.68599999 0.050517038 2.2026807e-38 344 198
0.030069664 0.68599999 0.050517038 2.1934253e-38 345 198
0.031272452 0.68599999 0.050517038 2.1934253e-38 346 198
0.032333218 0.68300003 0.05029612 2.2026807e-38 347 198
0.033530746 0.68300003 0.05029612 2.1661265e-38 348 198
0.034880809 0.68599999 0.050517038 2.1200288e-38 349 198
0.036136195 0.68699998 0.050590675 2.1288884e-38 350 198
0.037177678 0.68400002 0.050369758 2.1104852e-38 351 198
0.038376961 0.68400002 0.050369758 2.1195602e-38 352 198
0.039807681 0.68800002 0.050664321 2.1103406e-38 353 198
0.041133199 0.69 0.050811596 2.0916138e-38 354 198
0.042342998 0.69 0.050811596 1.8795639e-38 355 198
0.043552797 0.69 0.050811596 1.742027e-38 356 198
0.0447626 0.69 0.050811596 1.9171987e-38 357 198
0.046039023 0.69099998 0.050885238 2.0092867e-38 358 198
0.047250576 0.69099998 0.050885238 2.0461649e-38 359 198
0.04846213 0.69099998 0.050885238 2.0368009e-38 360 198
0.049673684 0.69099998 0.050885238 2.0368009e-38 361 198
0.051032521 0.69300002 0.051032521 1.9909183e-38 362 198
0.052322973 0.69400001 0.051106159 1.9724791e-38 363 198
0.053694077 0.69599998 0.051253434 1.9721918e-38 364 198
0.054993302 0.69700003 0.051327083 1.8246787e-38 365 198
0.056296028 0.69800001 0.051400717 1.668487e-38 366 198
0.05768466 0.69999999 0.051547997 1.8436585e-38 367 198
0.058911994 0.69999999 0.051547997 1.9447498e-38 368 198
0.060139328 0.69999999 0.051547997 1.9447498e-38 369 198
0.061366666 0.69999999 0.051547997 1.963152e-38 370 198
0.062593997 0.69999999 0.051547997 1.963152e-38 371 198
0.063821331 0.69999999 0.051547997 1.9815183e-38 372 198
0.065048665 0.69999999 0.051547997 1.9722987e-38 373 198
0.066086642 0.69800001 0.051400717 1.9630071e-38 374 198
0.06731046 0.69800001 0.051400717 1.944568e-38 375 198
0.071479887 0.72799999 0.053609919 1.9444611e-38 376 198
0.072756313 0.72799999 0.053609919 1.9720838e-38 377 198
0.074032739 0.72799999 0.053609919 1.9354576e-38 378 198
0.07551606 0.73000002 0.053757198 1.9538969e-38 379 198
0.076901197 0.73100001 0.053830836 2.0090696e-38 380 198
0.078182884 0.73100001 0.053830836 1.9998501e-38 381 198
0.07946457 0.73100001 0.053830836 1.9077618e-38 382 198
0.081077635 0.73400003 0.054051761 1.8340053e-38 383 198
0.082027942 0.73100001 0.053830836 1.8524094e-38 384 198
0.083309628 0.73100001 0.053830836 1.8708844e-38 385 198
0.084591322 0.73100001 0.053830836 1.8342246e-38 386 198
0.085873008 0.73100001 0.053830836 1.8434441e-38 387 198
0.087154694 0.73100001 0.053830836 1.7792324e-38 388 198
0.088436373 0.73100001 0.053830836 1.7792324e-38 389 198
0.089595333 0.73000002 0.053757198 1.7333148e-38 390 198
-0.044688959 0.708 0.050895758 2.074331e-38 284 199
-0.043386232 0.70700002 0.050823875 2.074331e-38 285 199
-0.042087011 0.70599997 0.050751984 1.991283e-38 286 199
-0.040675577 0.70300001 0.050536323 1.8529895e-38 287 199
-0.039274666 0.69999999 0.050320663 1.9178862e-38 288 199
-0.037938625 0.69800001 0.050176892 2.04696e-38 289 199
-0.036609598 0.69599998 0.050033119 2.065291e-38 290 199
-0.035287585 0.69400001 0.049889345 2.0560714e-38 291 199
-0.034021679 0.69300002 0.049817458 2.0835859e-38 292 199
-0.032711938 0.69099998 0.049673684 2.0835859e-38 293 199
-0.031500384 0.69099998 0.049673684 2.1110648e-38 294 199
-0.030288832 0.69099998 0.049673684 2.1295398e-38 295 199
-0.029035198 0.69 0.049601797 2.04678e-38 296 199
-0.027825398 0.69 0.049601797 1.8071072e-38 297 199
-0.026615599 0.69 0.049601797 1.5950567e-38 298 199
-0.02533216 0.68800002 0.049458027 1.926961e-38 299 199
-0.024125867 0.68800002 0.049458027 2.1661657e-38 300 199
-0.022886258 0.68699998 0.049386136 2.1477266e-38 301 199
-0.021681719 0.68699998 0.049386136 2.1018087e-38 302 199
-0.020477179 0.68699998 0.049386136 2.092589e-38 303 199
-0.019272638 0.68699998 0.049386136 2.0926243e-38 304 199
-0.018041799 0.68599999 0.049314249 2.0926243e-38 305 199
-0.016839013 0.68599999 0.049314249 2.092624e-38 306 199
-0.01559064 0.68400002 0.049170479 2.092624e-38 307 199
-0.01439136 0.68400002 0.049170479 2.1111354e-38 308 199
-0.01319208 0.68400002 0.049170479 1.8714268e-38 309 199
-0.0119928 0.68400002 0.049170479 1.622426e-38 310 199
-0.01079352 0.68400002 0.049170479 1.8345118e-38 311 199
-0.0095802136 0.68300003 0.049098592 2.1016272e-38 312 199
-0.0083826864 0.68300003 0.049098592 2.1937868e-38 313 199
-0.0071956799 0.68400002 0.049170479 2.1202101e-38 314 199
-0.0059876335 0.68300003 0.049098592 2.1202101e-38 315 199
-0.0047901068 0.68300003 0.049098592 2.1294304e-38 316 199
-0.0035925799 0.68300003 0.049098592 2.1386499e-38 317 199
-0.0023950534 0.68300003 0.049098592 2.0558902e-38 318 199
-0.0011975267 0.68300003 0.049098592 1.9913533e-38 319 199
0 0.68300003 0.049098592 1.7148743e-38 320 199
0.0011957732 0.68199998 0.049026705 1.8162536e-38 321 199
0.0023915465 0.68199998 0.049026705 1.9819894e-38 322 199
0.00358732 0.68199998 0.049026705 1.8620991e-38 323 199
0.004783093 0.68199998 0.049026705 1.723517e-38 324 199
0.005978866 0.68199998 0.049026705 1.9448223e-38 325 199
0.00717464 0.68199998 0.049026705 2.101482e-38 326 199
0.0083704125 0.68199998 0.049026705 2.166019e-38 327 199
0.009566186 0.68199998 0.049026705 2.1567994e-38 328 199
0.010761959 0.68199998 0.049026705 2.1383603e-38 329 199
0.011957732 0.68199998 0.049026705 2.1750588e-38 330 199
0.013172794 0.68300003 0.049098592 2.1843142e-38 331 199
0.01434928 0.68199998 0.049026705 2.1843142e-38 332 199
0.015545053 0.68199998 0.049026705 2.1750588e-38 333 199
0.016765373 0.68300003 0.049098592 2.1567275e-38 334 199
0.017962901 0.68300003 0.049098592 2.1936056e-38 335 199
0.019160427 0.68300003 0.049098592 2.2121168e-38 336 199
0.020357953 0.68300003 0.049098592 1.9631886e-38 337 199
0.02155548 0.68300003 0.049098592 1.6044541e-38 338 199
0.022719691 0.68199998 0.049026705 1.6136737e-38 339 199
0.023915464 0.68199998 0.049026705 1.963082e-38 340 199
0.02514806 0.68300003 0.049098592 2.2212297e-38 341 199
0.026345588 0.68300003 0.049098592 2.2210846e-38 342 199
0.027543113 0.68300003 0.049098592 2.2026454e-38 343 199
0.028740639 0.68300003 0.049098592 2.1843136e-38 344 199
0.029938167 0.68300003 0.049098592 2.1843136e-38 345 199
0.031135695 0.68300003 0.049098592 2.1750944e-38 346 199
0.032285877 0.68199998 0.049026705 2.1843139e-38 347 199
0.03348165 0.68199998 0.049026705 2.1752741e-38 348 199
0.034677424 0.68199998 0.049026705 2.1199569e-38 349 199
0.035873197 0.68199998 0.049026705 2.1103775e-38 350 199
0.037123326 0.68300003 0.049098592 2.1011579e-38 351 199
0.038320854 0.68300003 0.049098592 2.0918662e-38 352 199
0.03957624 0.68400002 0.049170479 2.0918662e-38 353 199
0.040954359 0.68699998 0.049386136 2.0550956e-38 354 199
0.042220265 0.68800002 0.049458027 1.9536804e-38 355 199
0.043426562 0.68800002 0.049458027 1.8430102e-38 356 199
0.044632856 0.68800002 0.049458027 1.8245712e-38 357 199
0.045972396 0.69 0.049601797 1.8620974e-38 358 199
0.047182199 0.69 0.049601797 1.954329e-38 359 199
0.048391998 0.69 0.049601797 2.0183258e-38 360 199
0.049601797 0.69 0.049601797 2.0275455e-38 361 199
0.050811596 0.69 0.049601797 1.981663e-38 362 199
0.052096792 0.69099998 0.049673684 1.981663e-38 363 199
0.053462639 0.69300002 0.049817458 2.0183614e-38 364 199
0.054756597 0.69400001 0.049889345 1.8616289e-38 365 199
0.056134716 0.69599998 0.050033119 1.6409714e-38 366 199
0.05743745 0.69700003 0.050105009 1.7792648e-38 367 199
0.058743682 0.69800001 0.050176892 1.9447142e-38 368 199
0.060139328 0.69999999 0.050320663 1.9539337e-38 369 199
0.061366666 0.69999999 0.050320663 1.9815198e-38 370 199
0.062593997 0.69999999 0.050320663 1.9815198e-38 371 199
0.063821331 0.69999999 0.050320663 1.9815905e-38 372 199
0.065048665 0.69999999 0.050320663 1.99081e-38 373 199
0.066086642 0.69800001 0.050176892 2.0182523e-38 374 199
0.06731046 0.69800001 0.050176892 1.9998132e-38 375 199
0.071479887 0.72799999 0.052333489 1.9904863e-38 376 199
0.072656378 0.727 0.052261602 1.9720472e-38 377 199
0.073931053 0.727 0.052261602 1.8434768e-38 378 199
0.075205728 0.727 0.052261602 1.8711356e-38 379 199
0.076480396 0.727 0.052261602 1.9630438e-38 380 199
0.077862024 0.72799999 0.052333489 1.9722634e-38 381 199
0.07913845 0.72799999 0.052333489 1.9815186e-38 382 199
0.080414876 0.72799999 0.052333489 1.9630794e-38 383 199
0.081691302 0.72799999 0.052333489 1.9535722e-38 384 199
0.082967728 0.72799999 0.052333489 1.8982907e-38 385 199
0.084475599 0.73000002 0.052477267 1.8066361e-38 386 199
0.085755527 0.73000002 0.052477267 1.8250752e-38 387 199
0.087035462 0.73000002 0.052477267 1.8068176e-38 388 199
0.088315405 0.73000002 0.052477267 1.8160371e-38 389 199
0.089595333 0.73000002 0.052477267 1.7333501e-38 390 199
0.090875268 0.73000002 0.052477267 1.7333501e-38 391 199
-0.044625837 0.70700002 0.049584266 2.065256e-38 284 200
-0.043324865 0.70599997 0.04951413 1.9546571e-38 285 200
-0.041967787 0.704 0.049373865 1.8625688e-38 286 200
-0.040559858 0.70099998 0.049163464 1.8809719e-38 287 200
-0.039162453 0.69800001 0.048953064 1.9915701e-38 288 200
-0.037884273 0.69700003 0.048882935 2.0837657e-38 289 200
-0.036609598 0.69599998 0.048812799 2.065291e-38 290 200
-0.035236739 0.69300002 0.048602402 2.0376683e-38 291 200
-0.034021679 0.69300002 0.048602402 2.0835859e-38 292 200
-0.032711938 0.69099998 0.04846213 2.0835859e-38 293 200
-0.031500384 0.69099998 0.04846213 2.111137e-38 294 200
-0.030244999 0.69 0.048391998 2.0835143e-38 295 200
-0.029035198 0.69 0.048391998 1.9086313e-38 296 200
-0.027744746 0.68800002 0.048251733 1.7334596e-38 297 200
-0.026538454 0.68800002 0.048251733 1.7879851e-38 298 200
-0.02533216 0.68800002 0.048251733 2.0738274e-38 299 200
-0.024090799 0.68699998 0.048181597 2.1294314e-38 300 200
-0.022886258 0.68699998 0.048181597 2.0833694e-38 301 200
-0.021681719 0.68699998 0.048181597 2.0650026e-38 302 200
-0.020477179 0.68699998 0.048181597 2.0650026e-38 303 200
-0.019244585 0.68599999 0.048111461 2.0650382e-38 304 200
-0.018041799 0.68599999 0.048111461 2.0650382e-38 305 200
-0.016789921 0.68400002 0.0479712 2.1109555e-38 306 200
-0.01559064 0.68400002 0.0479712 2.1109555e-38 307 200
-0.01439136 0.68400002 0.0479712 1.9912811e-38 308 200
-0.013172794 0.68300003 0.047901068 1.7884507e-38 309 200
-0.011975267 0.68300003 0.047901068 1.7324497e-38 310 200
-0.01077774 0.68300003 0.047901068 2.0366953e-38 311 200
-0.0095802136 0.68300003 0.047901068 2.1293934e-38 312 200
-0.0083826864 0.68300003 0.047901068 2.1293934e-38 313 200
-0.0071851597 0.68300003 0.047901068 2.1109906e-38 314 200
-0.0059876335 0.68300003 0.047901068 2.1294298e-38 315 200
-0.0047901068 0.68300003 0.047901068 2.1295023e-38 316 200
-0.00358732 0.68199998 0.047830928 2.1295023e-38 317 200
-0.0023915465 0.68199998 0.047830928 2.0465985e-38 318 200
-0.0011957732 0.68199998 0.047830928 2.0005007e-38 319 200
0 0.68199998 0.047830928 1.9083048e-38 320 200
0.0011957732 0.68199998 0.047830928 1.9083048e-38 321 200
0.0023845332 0.68000001 0.047690667 1.8805369e-38 322 200
0.0035767998 0.68000001 0.047690667 1.8067804e-38 323 200
0.0047690663 0.68000001 0.047690667 1.8890002e-38 324 200
0.0059613334 0.68000001 0.047690667 2.147148e-38 325 200
0.0071535995 0.68000001 0.047690667 2.1661265e-38 326 200
0.0083458666 0.68000001 0.047690667 2.1200288e-38 327 200
0.0095381327 0.68000001 0.047690667 2.1200288e-38 328 200
0.0107304 0.68000001 0.047690667 2.1292484e-38 329 200
0.011922667 0.68000001 0.047690667 2.1567994e-38 330 200
0.013153506 0.68199998 0.047830928 2.1567994e-38 331 200
0.01434928 0.68199998 0.047830928 2.1567994e-38 332 200
0.015545053 0.68199998 0.047830928 2.1567994e-38 333 200
0.016740825 0.68199998 0.047830928 2.1384679e-38 334 200
0.017936599 0.68199998 0.047830928 2.1661265e-38 335 200
0.019132372 0.68199998 0.047830928 2.037412e-38 336 200
0.020328145 0.68199998 0.047830928 1.7055077e-38 337 200
0.0214608 0.68000001 0.047690667 1.5117174e-38 338 200
0.022653066 0.68000001 0.047690667 1.9081586e-38 339 200
0.023845334 0.68000001 0.047690667 2.1843142e-38 340 200
0.025111238 0.68199998 0.047830928 2.1935338e-38 341 200
0.026307013 0.68199998 0.047830928 2.2210843e-38 342 200
0.027502786 0.68199998 0.047830928 2.2026451e-38 343 200
0.028614398 0.68000001 0.047690667 2.1843492e-38 344 200
0.029806666 0.68000001 0.047690667 2.1843492e-38 345 200
0.031090107 0.68199998 0.047830928 2.1750941e-38 346 200
0.032191198 0.68000001 0.047690667 2.1843136e-38 347 200
0.033383466 0.68000001 0.047690667 2.1751662e-38 348 200
0.034575731 0.68000001 0.047690667 2.1198489e-38 349 200
0.035767999 0.68000001 0.047690667 2.0644596e-38 350 200
0.037068974 0.68199998 0.047830928 2.05524e-38 351 200
0.038264744 0.68199998 0.047830928 2.0643514e-38 352 200
0.039518382 0.68300003 0.047901068 2.0367287e-38 353 200
0.040775519 0.68400002 0.0479712 2.0000299e-38 354 200
0.042097531 0.68599999 0.048111461 2.0000299e-38 355 200
0.043426562 0.68800002 0.048251733 1.9260214e-38 356 200
0.044632856 0.68800002 0.048251733 1.7416301e-38 357 200
0.045839146 0.68800002 0.048251733 1.751534e-38 358 200
0.047045439 0.68800002 0.048251733 1.9174501e-38 359 200
0.048391998 0.69 0.048391998 1.9999592e-38 360 200
0.049601797 0.69 0.048391998 2.0184344e-38 361 200
0.050811596 0.69 0.048391998 1.9999945e-38 362 200
0.052021399 0.69 0.048391998 1.9999945e-38 363 200
0.053231198 0.69 0.048391998 1.9908103e-38 364 200
0.054519895 0.69099998 0.04846213 1.9170538e-38 365 200
0.055892758 0.69300002 0.048602402 1.7603216e-38 366 200
0.057190225 0.69400001 0.048672531 1.8064193e-38 367 200
0.05865952 0.69700003 0.048882935 1.8435864e-38 368 200
0.059967503 0.69800001 0.048953064 1.9081233e-38 369 200
0.061191335 0.69800001 0.048953064 1.9631886e-38 370 200
0.062415157 0.69800001 0.048953064 1.9631886e-38 371 200
0.063638985 0.69800001 0.048953064 1.9999577e-38 372 200
0.065048665 0.69999999 0.049093332 1.9907381e-38 373 200
0.066086642 0.69800001 0.048953064 1.9907732e-38 374 200
0.06731046 0.69800001 0.048953064 1.9815536e-38 375 200
0.068534292 0.69800001 0.048953064 1.9998848e-38 376 200
0.072656378 0.727 0.050986931 1.972262e-38 377 200
0.073727667 0.72500002 0.050846666 1.8984702e-38 378 200
0.074998833 0.72500002 0.050846666 1.8892506e-38 379 200
0.076269999 0.72500002 0.050846666 1.9169466e-38 380 200
0.077541165 0.72500002 0.050846666 1.9353857e-38 381 200
0.078812331 0.72500002 0.050846666 1.9630088e-38 382 200
0.080083504 0.72500002 0.050846666 1.9999229e-38 383 200
0.081579089 0.727 0.050986931 1.9998501e-38 384 200
0.082853764 0.727 0.050986931 1.9445327e-38 385 200
0.084244154 0.72799999 0.051057063 1.8617364e-38 386 200
0.085755527 0.73000002 0.051197331 1.8525169e-38 387 200
0.087035462 0.73000002 0.051197331 1.8525908e-38 388 200
0.088315405 0.73000002 0.051197331 1.8618463e-38 389 200
0.089595333 0.73000002 0.051197331 1.8067823e-38 390 200
0.090875268 0.73000002 0.051197331 1.7975627e-38 391 200
0.092155196 0.73000002 0.051197331 1.74257e-38 392 200
-0.044625837 0.70700002 0.048344657 1.9916424e-38 284 201
-0.043202132 0.704 0.048139516 1.8349098e-38 285 201
-0.041788943 0.70099998 0.047934376 1.8533845e-38 286 201
-0.040502001 0.69999999 0.047865998 2.0100811e-38 287 201
-0.039162453 0.69800001 0.047729239 2.0560717e-38 288 201
-0.037884273 0.69700003 0.047660861 2.0376686e-38 289 201
-0.036504399 0.69400001 0.047455717 2.074331e-38 290 201
-0.035236739 0.69300002 0.047387339 2.074331e-38 291 201
-0.033923492 0.69099998 0.047250576 2.0743308e-38 292 201
-0.032711938 0.69099998 0.047250576 2.0835862e-38 293 201
-0.031454802 0.69 0.047182199 2.1203568e-38 294 201
-0.030157333 0.68800002 0.047045439 2.0189418e-38 295 201
-0.028951041 0.68800002 0.047045439 1.6415154e-38 296 201
-0.027704418 0.68699998 0.046977058 1.6046731e-38 297 201
-0.026499879 0.68699998 0.046977058 1.8989431e-38 298 201
-0.025295338 0.68699998 0.046977058 2.074079e-38 299 201
-0.024090799 0.68699998 0.046977058 2.0650382e-38 300 201
-0.022852944 0.68599999 0.046908677 2.0557828e-38 301 201
-0.021650158 0.68599999 0.046908677 2.0557828e-38 302 201
-0.020447372 0.68599999 0.046908677 2.0557828e-38 303 201
-0.019244585 0.68599999 0.046908677 2.0557828e-38 304 201
-0.0179892 0.68400002 0.046771921 2.0650382e-38 305 201
-0.016789921 0.68400002 0.046771921 2.129467e-38 306 201
-0.01559064 0.68400002 0.046771921 2.0741496e-38 307 201
-0.014370319 0.68300003 0.04670354 1.7333857e-38 308 201
-0.013172794 0.68300003 0.04670354 1.6503737e-38 309 201
-0.011975267 0.68300003 0.04670354 1.8895066e-38 310 201
-0.01077774 0.68300003 0.04670354 2.1015566e-38 311 201
-0.0095802136 0.68300003 0.04670354 2.1110989e-38 312 201
-0.0083826864 0.68300003 0.04670354 2.0926237e-38 313 201
-0.00717464 0.68199998 0.046635158 2.1202101e-38 314 201
-0.005978866 0.68199998 0.046635158 2.1294298e-38 315 201
-0.004783093 0.68199998 0.046635158 2.1294304e-38 316 201
-0.00358732 0.68199998 0.046635158 2.1201748e-38 317 201
-0.0023915465 0.68199998 0.046635158 2.0373789e-38 318 201
-0.0011957732 0.68199998 0.046635158 2.0189397e-38 319 201
0 0.68199998 0.046635158 2.0740774e-38 320 201
0.0011922666 0.68000001 0.046498399 1.9450035e-38 321 201
0.0023845332 0.68000001 0.046498399 1.6407578e-38 322 201
0.0035767998 0.68000001 0.046498399 1.7513927e-38 323 201
0.0047690663 0.68000001 0.046498399 2.0277271e-38 324 201
0.0059525664 0.67900002 0.046430022 2.156801e-38 325 201
0.0071430802 0.67900002 0.046430022 2.1385051e-38 326 201
0.0083335936 0.67900002 0.046430022 2.1200301e-38 327 201
0.009524107 0.67900002 0.046430022 2.1292133e-38 328 201
0.010714619 0.67900002 0.046430022 2.1384329e-38 329 201
0.011905133 0.67900002 0.046430022 2.1384329e-38 330 201
0.013095647 0.67900002 0.046430022 2.1384329e-38 331 201
0.01428616 0.67900002 0.046430022 2.1475445e-38 332 201
0.015476674 0.67900002 0.046430022 2.1475445e-38 333 201
0.016691733 0.68000001 0.046498399 2.1660912e-38 334 201
0.017883999 0.68000001 0.046498399 2.0646761e-38 335 201
0.019048214 0.67900002 0.046430022 1.7329872e-38 336 201
0.020238725 0.67900002 0.046430022 1.5854742e-38 337 201
0.021429239 0.67900002 0.046430022 1.806456e-38 338 201
0.022619752 0.67900002 0.046430022 2.1107375e-38 339 201
0.023810266 0.67900002 0.046430022 2.1933903e-38 340 201
0.024963958 0.67799997 0.046361636 2.1657676e-38 341 201
0.026152719 0.67799997 0.046361636 2.1750588e-38 342 201
0.027341479 0.67799997 0.046361636 2.1843142e-38 343 201
0.028572321 0.67900002 0.046430022 2.1936407e-38 344 201
0.029762832 0.67900002 0.046430022 2.1844211e-38 345 201
0.030953348 0.67900002 0.046430022 2.1567628e-38 346 201
0.032143861 0.67900002 0.046430022 2.110629e-38 347 201
0.033334374 0.67900002 0.046430022 2.0462003e-38 348 201
0.034524884 0.67900002 0.046430022 2.0185057e-38 349 201
0.035715401 0.67900002 0.046430022 2.0368006e-38 350 201
0.036905911 0.67900002 0.046430022 2.0460202e-38 351 201
0.038096428 0.67900002 0.046430022 2.0368009e-38 352 201
0.039344799 0.68000001 0.046498399 2.0275455e-38 353 201
0.040656291 0.68199998 0.046635158 2.0183258e-38 354 201
0.041913435 0.68300003 0.04670354 2.0368009e-38 355 201
0.043174081 0.68400002 0.046771921 1.9721915e-38 356 201
0.044503104 0.68599999 0.046908677 1.8431535e-38 357 201
0.045772515 0.68699998 0.046977058 1.7330225e-38 358 201
0.047045439 0.68800002 0.047045439 1.8159626e-38 359 201
0.048251733 0.68800002 0.047045439 1.9449293e-38 360 201
0.049458027 0.68800002 0.047045439 1.9357097e-38 361 201
0.050664321 0.68800002 0.047045439 2.0090343e-38 362 201
0.051870614 0.68800002 0.047045439 2.0182539e-38 363 201
0.053231198 0.69 0.047182199 1.9264896e-38 364 201
0.054440998 0.69 0.047182199 1.9080865e-38 365 201
0.055650797 0.69 0.047182199 1.9259864e-38 366 201
0.057107817 0.69300002 0.047387339 1.7876928e-38 367 201
0.058407038 0.69400001 0.047455717 1.6595191e-38 368 201
0.05988159 0.69700003 0.047660861 1.8347268e-38 369 201
0.061103668 0.69700003 0.047660861 1.981628e-38 370 201
0.062415157 0.69800001 0.047729239 1.9724084e-38 371 201
0.063638985 0.69800001 0.047729239 1.9724438e-38 372 201
0.06486281 0.69800001 0.047729239 1.9632242e-38 373 201
0.066086642 0.69800001 0.047729239 1.9907028e-38 374 201
0.06731046 0.69800001 0.047729239 1.9814833e-38 375 201
0.068534292 0.69800001 0.047729239 1.9815186e-38 376 201
0.069758117 0.69800001 0.047729239 2.0183967e-38 377 201
0.073524274 0.72299999 0.049438741 2.0273643e-38 378 201
0.074791931 0.72299999 0.049438741 1.9259491e-38 379 201
0.076059602 0.72299999 0.049438741 1.8338979e-38 380 201
0.077327259 0.72299999 0.049438741 1.8154588e-38 381 201
0.078594916 0.72299999 0.049438741 1.8893602e-38 382 201
0.080083504 0.72500002 0.0495755 1.9538972e-38 383 201
0.08135467 0.72500002 0.0495755 2.018182e-38 384 201
0.082625829 0.72500002 0.0495755 2.018182e-38 385 201
0.084128432 0.727 0.049712259 1.9630438e-38 386 201
0.08552058 0.72799999 0.049780637 1.9169819e-38 387 201
0.086797006 0.72799999 0.049780637 1.8251105e-38 388 201
0.088073432 0.72799999 0.049780637 1.8251105e-38 389 201
0.089349858 0.72799999 0.049780637 1.8710305e-38 390 201
0.090875268 0.73000002 0.0499174 1.861811e-38 391 201
0.092155196 0.73000002 0.0499174 1.7791962e-38 392 201
0.093563125 0.73100001 0.049985781 1.7699766e-38 393 201
-0.044436477 0.704 0.046905171 1.8902998e-38 284 202
-0.043140765 0.70300001 0.046838548 1.862641e-38 285 202
-0.041788943 0.70099998 0.046705291 1.96366e-38 286 202
-0.040386278 0.69800001 0.046505414 2.0835143e-38 287 202
-0.039106347 0.69700003 0.046438783 2.0652191e-38 288 202
-0.037829921 0.69599998 0.046372157 2.04678e-38 289 202
-0.036451802 0.69300002 0.04617228 2.0467803e-38 290 202
-0.035135046 0.69099998 0.046039023 2.0559998e-38 291 202
-0.033923492 0.69099998 0.046039023 2.0652191e-38 292 202
-0.032664597 0.69 0.045972396 2.0559995e-38 293 202
-0.031454802 0.69 0.045972396 2.0744392e-38 294 202
-0.030157333 0.68800002 0.045839146 1.9269262e-38 295 202
-0.028951041 0.68800002 0.045839146 1.5860538e-38 296 202
-0.027704418 0.68699998 0.045772515 1.7151277e-38 297 202
-0.026499879 0.68699998 0.045772515 2.0005378e-38 298 202
-0.025258519 0.68599999 0.045705888 2.0558552e-38 299 202
-0.024055731 0.68599999 0.045705888 2.055783e-38 300 202
-0.022852944 0.68599999 0.045705888 2.0465635e-38 301 202
-0.021650158 0.68599999 0.045705888 2.0281967e-38 302 202
-0.020447372 0.68599999 0.045705888 2.0281967e-38 303 202
-0.01918848 0.68400002 0.045572639 2.0190487e-38 304 202
-0.0179892 0.68400002 0.045572639 2.0375237e-38 305 202
-0.016765373 0.68300003 0.045506012 2.0835491e-38 306 202
-0.015567848 0.68300003 0.045506012 1.9636947e-38 307 202
-0.014370319 0.68300003 0.045506012 1.6319698e-38 308 202
-0.013172794 0.68300003 0.045506012 1.6781037e-38 309 202
-0.011957732 0.68199998 0.045439381 2.0187959e-38 310 202
-0.010761959 0.68199998 0.045439381 2.101736e-38 311 202
-0.009566186 0.68199998 0.045439381 2.1110633e-38 312 202
-0.0083704125 0.68199998 0.045439381 2.092624e-38 313 202
-0.00717464 0.68199998 0.045439381 2.1109908e-38 314 202
-0.005978866 0.68199998 0.045439381 2.1202104e-38 315 202
-0.004783093 0.68199998 0.045439381 2.092624e-38 316 202
-0.0035767998 0.68000001 0.045306131 2.092624e-38 317 202
-0.0023845332 0.68000001 0.045306131 2.1017004e-38 318 202
-0.0011922666 0.68000001 0.045306131 2.1201754e-38 319 202
0 0.68000001 0.045306131 1.9819544e-38 320 202
0.0011922666 0.68000001 0.045306131 1.8252217e-38 321 202
0.0023810267 0.67900002 0.045239504 1.6864244e-38 322 202
0.0035715401 0.67900002 0.045239504 1.8984744e-38 323 202
0.0047620535 0.67900002 0.045239504 2.1292146e-38 324 202
0.0059437994 0.67799997 0.045172878 2.13847e-38 325 202
0.0071325595 0.67799997 0.045172878 2.1292499e-38 326 202
0.0083213197 0.67799997 0.045172878 2.1200303e-38 327 202
0.0095100794 0.67799997 0.045172878 2.1292855e-38 328 202
0.010698839 0.67799997 0.045172878 2.1292855e-38 329 202
0.011905133 0.67900002 0.045239504 2.1292136e-38 330 202
0.013095647 0.67900002 0.045239504 2.1292136e-38 331 202
0.01428616 0.67900002 0.045239504 2.119994e-38 332 202
0.015476674 0.67900002 0.045239504 2.1292136e-38 333 202
0.016667187 0.67900002 0.045239504 2.0649285e-38 334 202
0.017857701 0.67900002 0.045239504 1.8620979e-38 335 202
0.019048214 0.67900002 0.045239504 1.5209736e-38 336 202
0.020238725 0.67900002 0.045239504 1.7145844e-38 337 202
0.021429239 0.67900002 0.045239504 2.018686e-38 338 202
0.022619752 0.67900002 0.045239504 2.1200654e-38 339 202
0.023775198 0.67799997 0.045172878 2.1475083e-38 340 202
0.024963958 0.67799997 0.045172878 2.1475083e-38 341 202
0.026152719 0.67799997 0.045172878 2.1751662e-38 342 202
0.027341479 0.67799997 0.045172878 2.1843858e-38 343 202
0.028530238 0.67799997 0.045172878 2.1843855e-38 344 202
0.029762832 0.67900002 0.045239504 2.1843855e-38 345 202
0.030953348 0.67900002 0.045239504 2.0647117e-38 346 202
0.03209652 0.67799997 0.045172878 1.97248e-38 347 202
0.033285279 0.67799997 0.045172878 1.7059046e-38 348 202
0.034524884 0.67900002 0.045239504 1.7704415e-38 349 202
0.035715401 0.67900002 0.045239504 1.9450011e-38 350 202
0.036905911 0.67900002 0.045239504 1.9542209e-38 351 202
0.038096428 0.67900002 0.045239504 2.0275455e-38 352 202
0.039286941 0.67900002 0.045239504 1.9999227e-38 353 202
0.040537067 0.68000001 0.045306131 1.9815554e-38 354 202
0.041852064 0.68199998 0.045439381 1.9999945e-38 355 202
0.043110959 0.68300003 0.045506012 1.9815907e-38 356 202
0.04437336 0.68400002 0.045572639 1.8893952e-38 357 202
0.045705888 0.68599999 0.045705888 1.7329143e-38 358 202
0.046977058 0.68699998 0.045772515 1.677597e-38 359 202
0.048181597 0.68699998 0.045772515 1.8438735e-38 360 202
0.049386136 0.68699998 0.045772515 1.8899712e-38 361 202
0.050590675 0.68699998 0.045772515 1.9631523e-38 362 202
0.051870614 0.68800002 0.045839146 1.9631523e-38 363 202
0.053076908 0.68800002 0.045839146 1.9447492e-38 364 202
0.054283202 0.68800002 0.045839146 1.9539688e-38 365 202
0.055489492 0.68800002 0.045839146 1.9262383e-38 366 202
0.0568606 0.69 0.045972396 1.7233721e-38 367 202
0.058322877 0.69300002 0.04617228 1.6408282e-38 368 202
0.059795678 0.69599998 0.046372157 1.8528781e-38 369 202
0.061103668 0.69700003 0.046438783 1.9449295e-38 370 202
0.062325738 0.69700003 0.046438783 1.9541491e-38 371 202
0.063638985 0.69800001 0.046505414 1.9724438e-38 372 202
0.06486281 0.69800001 0.046505414 1.9632242e-38 373 202
0.066086642 0.69800001 0.046505414 1.963152e-38 374 202
0.06731046 0.69800001 0.046505414 1.9539325e-38 375 202
0.068534292 0.69800001 0.046505414 1.9630438e-38 376 202
0.069758117 0.69800001 0.046505414 1.9630438e-38 377 202
0.073524274 0.72299999 0.048171077 1.9721915e-38 378 202
0.074791931 0.72299999 0.048171077 1.981447e-38 379 202
0.076059602 0.72299999 0.048171077 1.9444608e-38 380 202
0.077327259 0.72299999 0.048171077 1.8799239e-38 381 202
0.078594916 0.72299999 0.048171077 1.8524094e-38 382 202
0.080083504 0.72500002 0.048304334 1.8892875e-38 383 202
0.08135467 0.72500002 0.048304334 1.9352778e-38 384 202
0.082625829 0.72500002 0.048304334 1.9721921e-38 385 202
0.083897002 0.72500002 0.048304334 1.9722987e-38 386 202
0.085403107 0.727 0.048437584 1.9630792e-38 387 202
0.086677782 0.727 0.048437584 1.9444961e-38 388 202
0.0877105 0.72500002 0.048304334 1.9168014e-38 389 202
0.088981666 0.72500002 0.048304334 1.8802128e-38 390 202
0.090875268 0.73000002 0.048637468 1.8802128e-38 391 202
0.092155196 0.73000002 0.048637468 1.8342612e-38 392 202
0.093435131 0.73000002 0.048637468 1.8250416e-38 393 202
-0.045670826 0.704 0.045670826 1.9454019e-38 283 203
-0.04437336 0.70300001 0.04560595 1.7981407e-38 284 203
-0.042956665 0.69999999 0.04541133 1.8811168e-38 285 203
-0.041610107 0.69800001 0.045281585 2.037525e-38 286 203
-0.040328421 0.69700003 0.045216713 2.0560001e-38 287 203
-0.039050236 0.69599998 0.045151837 2.0191935e-38 288 203
-0.037721213 0.69400001 0.045022093 2.0099739e-38 289 203
-0.036451802 0.69300002 0.044957221 2.0375606e-38 290 203
-0.035135046 0.69099998 0.044827472 2.0559998e-38 291 203
-0.033923492 0.69099998 0.044827472 2.074331e-38 292 203
-0.032664597 0.69 0.0447626 2.0467082e-38 293 203
-0.031454802 0.69 0.0447626 1.9639487e-38 294 203
-0.030157333 0.68800002 0.044632856 1.8163996e-38 295 203
-0.028951041 0.68800002 0.044632856 1.6134611e-38 296 203
-0.027704418 0.68699998 0.044567976 1.8439141e-38 297 203
-0.026499879 0.68699998 0.044567976 2.0650748e-38 298 203
-0.025258519 0.68599999 0.044503104 2.0281967e-38 299 203
-0.024055731 0.68599999 0.044503104 2.0189768e-38 300 203
-0.022786319 0.68400002 0.04437336 2.0189768e-38 301 203
-0.02158704 0.68400002 0.04437336 2.0189771e-38 302 203
-0.020387759 0.68400002 0.04437336 2.0189771e-38 303 203
-0.01918848 0.68400002 0.04437336 2.0097578e-38 304 203
-0.017962901 0.68300003 0.044308487 2.0281969e-38 305 203
-0.016765373 0.68300003 0.044308487 1.9639471e-38 306 203
-0.015567848 0.68300003 0.044308487 1.8163981e-38 307 203
-0.01434928 0.68199998 0.044243611 1.6594134e-38 308 203
-0.013153506 0.68199998 0.044243611 1.8254016e-38 309 203
-0.011957732 0.68199998 0.044243611 2.0925887e-38 310 203
-0.010761959 0.68199998 0.044243611 2.0833691e-38 311 203
-0.009566186 0.68199998 0.044243611 2.0741493e-38 312 203
-0.0083704125 0.68199998 0.044243611 2.0741493e-38 313 203
-0.00717464 0.68199998 0.044243611 2.1017357e-38 314 203
-0.005978866 0.68199998 0.044243611 2.1017357e-38 315 203
-0.0047690663 0.68000001 0.044113863 2.0834045e-38 316 203
-0.0035767998 0.68000001 0.044113863 2.092624e-38 317 203
-0.0023845332 0.68000001 0.044113863 2.1201751e-38 318 203
-0.0011905134 0.67900002 0.044048995 2.1386144e-38 319 203
0 0.67900002 0.044048995 1.7700116e-38 320 203
0.0011905134 0.67900002 0.044048995 1.5764008e-38 321 203
0.0023775198 0.67799997 0.043984115 1.7972384e-38 322 203
0.0035662798 0.67799997 0.043984115 2.0461666e-38 323 203
0.0047550397 0.67799997 0.043984115 2.1384697e-38 324 203
0.0059437994 0.67799997 0.043984115 2.1200306e-38 325 203
0.0071325595 0.67799997 0.043984115 2.1017344e-38 326 203
0.0083213197 0.67799997 0.043984115 2.1017344e-38 327 203
0.0095100794 0.67799997 0.043984115 2.1200654e-38 328 203
0.010698839 0.67799997 0.043984115 2.1200654e-38 329 203
0.011887599 0.67799997 0.043984115 2.1200656e-38 330 203
0.013076359 0.67799997 0.043984115 2.1016625e-38 331 203
0.014265119 0.67799997 0.043984115 2.1475092e-38 332 203
0.015476674 0.67900002 0.044048995 2.1752038e-38 333 203
0.016642639 0.67799997 0.043984115 1.9542211e-38 334 203
0.0178314 0.67799997 0.043984115 1.7237321e-38 335 203
0.019020159 0.67799997 0.043984115 1.6038052e-38 336 203
0.020208918 0.67799997 0.043984115 1.9264899e-38 337 203
0.021397678 0.67799997 0.043984115 2.1477599e-38 338 203
0.022586439 0.67799997 0.043984115 2.1292849e-38 339 203
0.023775198 0.67799997 0.043984115 2.1383603e-38 340 203
0.024963958 0.67799997 0.043984115 2.1475799e-38 341 203
0.026152719 0.67799997 0.043984115 2.156835e-38 342 203
0.027341479 0.67799997 0.043984115 2.1475796e-38 343 203
0.028530238 0.67799997 0.043984115 2.1383603e-38 344 203
0.029718997 0.67799997 0.043984115 2.1199572e-38 345 203
0.030907756 0.67799997 0.043984115 2.0279055e-38 346 203
0.03209652 0.67799997 0.043984115 1.8803923e-38 347 203
0.033285279 0.67799997 0.043984115 1.4939263e-38 348 203
0.034474038 0.67799997 0.043984115 1.5861579e-38 349 203
0.0356628 0.67799997 0.043984115 1.8806088e-38 350 203
0.036851559 0.67799997 0.043984115 1.9083034e-38 351 203
0.038040318 0.67799997 0.043984115 2.0275458e-38 352 203
0.039286941 0.67900002 0.044048995 1.9907034e-38 353 203
0.040477451 0.67900002 0.044048995 1.9814479e-38 354 203
0.041729335 0.68000001 0.044113863 1.9907034e-38 355 203
0.043047838 0.68199998 0.044243611 1.9724435e-38 356 203
0.044308487 0.68300003 0.044308487 1.9447848e-38 357 203
0.045572639 0.68400002 0.04437336 1.7052561e-38 358 203
0.046908677 0.68599999 0.044503104 1.5577429e-38 359 203
0.048111461 0.68599999 0.044503104 1.7518223e-38 360 203
0.049314249 0.68599999 0.044503104 1.8716765e-38 361 203
0.050590675 0.68699998 0.044567976 1.953969e-38 362 203
0.051795214 0.68699998 0.044567976 1.9447495e-38 363 203
0.052999757 0.68699998 0.044567976 1.963152e-38 364 203
0.054283202 0.68800002 0.044632856 1.963152e-38 365 203
0.055489492 0.68800002 0.044632856 1.9355649e-38 366 203
0.0568606 0.69 0.0447626 1.7603932e-38 367 203
0.058070395 0.69 0.0447626 1.6958566e-38 368 203
0.059795678 0.69599998 0.045151837 1.83415e-38 369 203
0.061015997 0.69599998 0.045151837 1.8897195e-38 370 203
0.062325738 0.69700003 0.045216713 1.9265978e-38 371 203
0.06354782 0.69700003 0.045216713 1.9907747e-38 372 203
0.06486281 0.69800001 0.045281585 1.9907747e-38 373 203
0.06599196 0.69700003 0.045216713 1.9815907e-38 374 203
0.067214034 0.69700003 0.045216713 1.9539322e-38 375 203
0.068534292 0.69800001 0.045281585 1.9629718e-38 376 203
0.069758117 0.69800001 0.045281585 1.8892153e-38 377 203
0.07098195 0.69800001 0.045281585 1.8433699e-38 378 203
0.074791931 0.72299999 0.046903417 1.9632242e-38 379 203
0.076059602 0.72299999 0.046903417 2.073535e-38 380 203
0.077327259 0.72299999 0.046903417 1.990523e-38 381 203
0.078594916 0.72299999 0.046903417 1.8985055e-38 382 203
0.080083504 0.72500002 0.047033165 1.8339686e-38 383 203
0.081130236 0.72299999 0.046903417 1.870704e-38 384 203
0.082397893 0.72299999 0.046903417 1.9075821e-38 385 203
0.083665557 0.72299999 0.046903417 1.9261659e-38 386 203
0.085168168 0.72500002 0.047033165 1.9814833e-38 387 203
0.086439334 0.72500002 0.047033165 1.9998501e-38 388 203
0.0877105 0.72500002 0.047033165 1.9629718e-38 389 203
0.088981666 0.72500002 0.047033165 1.8893955e-38 390 203
0.090501808 0.727 0.047162913 1.880176e-38 391 203
0.091776483 0.727 0.047162913 1.8250403e-38 392 203
0.093179137 0.72799999 0.047227785 1.8157848e-38 393 203
-0.047038425 0.70599997 0.044562716 1.9639487e-38 282 204
-0.04560595 0.70300001 0.04437336 1.8901922e-38 283 204
-0.044247117 0.70099998 0.044247117 1.8808287e-38 284 204
-0.042833932 0.69800001 0.04405776 1.9914276e-38 285 204
-0.041550495 0.69700003 0.043994639 2.0285209e-38 286 204
-0.040270556 0.69599998 0.043931518 2.0192655e-38 287 204
-0.038938027 0.69400001 0.043805279 2.0191935e-38 288 204
-0.037666857 0.69300002 0.043742158 2.0099739e-38 289 204
-0.036451802 0.69300002 0.043742158 2.04678e-38 290 204
-0.035135046 0.69099998 0.043615919 2.0559995e-38 291 204
-0.0338744 0.69 0.043552797 2.0834787e-38 292 204
-0.032664597 0.69 0.043552797 2.0742592e-38 293 204
-0.031363625 0.68800002 0.043426562 1.76137e-38 294 204
-0.030113498 0.68699998 0.043363437 1.6230765e-38 295 204
-0.028908957 0.68699998 0.043363437 1.72388e-38 296 204
-0.027664091 0.68599999 0.043300316 1.9359659e-38 297 204
-0.026461305 0.68599999 0.043300316 2.0557833e-38 298 204
-0.025184879 0.68400002 0.043174081 2.0280888e-38 299 204
-0.0239856 0.68400002 0.043174081 2.0097575e-38 300 204
-0.022753006 0.68300003 0.043110959 2.0097575e-38 301 204
-0.02155548 0.68300003 0.043110959 2.0189771e-38 302 204
-0.020357953 0.68300003 0.043110959 2.0097575e-38 303 204
-0.019160427 0.68300003 0.043110959 2.0373083e-38 304 204
-0.017936599 0.68199998 0.043047838 2.0465279e-38 305 204
-0.016740825 0.68199998 0.043047838 1.7521133e-38 306 204
-0.015545053 0.68199998 0.043047838 1.6230394e-38 307 204
-0.01434928 0.68199998 0.043047838 1.7516095e-38 308 204
-0.013153506 0.68199998 0.043047838 1.926781e-38 309 204
-0.011922667 0.68000001 0.042921599 2.1018087e-38 310 204
-0.0107304 0.68000001 0.042921599 2.0833694e-38 311 204
-0.0095381327 0.68000001 0.042921599 2.0741496e-38 312 204
-0.0083458666 0.68000001 0.042921599 2.0741496e-38 313 204
-0.0071535995 0.68000001 0.042921599 2.101736e-38 314 204
-0.0059613334 0.68000001 0.042921599 2.0833328e-38 315 204
-0.0047690663 0.68000001 0.042921599 2.0741849e-38 316 204
-0.0035715401 0.67900002 0.042858478 2.092624e-38 317 204
-0.0023810267 0.67900002 0.042858478 2.101736e-38 318 204
-0.0011905134 0.67900002 0.042858478 2.0740774e-38 319 204
0 0.67799997 0.042795356 1.585692e-38 320 204
0.0011887599 0.67799997 0.042795356 1.5488496e-38 321 204
0.0023705065 0.676 0.042669121 1.9542587e-38 322 204
0.0035557596 0.676 0.042669121 2.074113e-38 323 204
0.0047410131 0.676 0.042669121 2.1017357e-38 324 204
0.0059262668 0.676 0.042669121 2.0833326e-38 325 204
0.0071115191 0.676 0.042669121 2.0833676e-38 326 204
0.0082967728 0.676 0.042669121 2.0833676e-38 327 204
0.0094820261 0.676 0.042669121 2.1016625e-38 328 204
0.01066728 0.676 0.042669121 2.1016625e-38 329 204
0.011852534 0.676 0.042669121 2.1107389e-38 330 204
0.013037786 0.676 0.042669121 2.1107389e-38 331 204
0.014265119 0.67799997 0.042795356 2.13847e-38 332 204
0.015453878 0.67799997 0.042795356 2.1015919e-38 333 204
0.016593546 0.676 0.042669121 1.6132418e-38 334 204
0.017778801 0.676 0.042669121 1.6316809e-38 335 204
0.018964052 0.676 0.042669121 1.8803926e-38 336 204
0.020149305 0.676 0.042669121 2.0555284e-38 337 204
0.021334561 0.676 0.042669121 2.156836e-38 338 204
0.022519812 0.676 0.042669121 2.1199938e-38 339 204
0.023705067 0.676 0.042669121 2.1199219e-38 340 204
0.024890319 0.676 0.042669121 2.138325e-38 341 204
0.026075572 0.676 0.042669121 2.1383247e-38 342 204
0.027260827 0.676 0.042669121 2.1199216e-38 343 204
0.028446076 0.676 0.042669121 2.0923346e-38 344 204
0.029631332 0.676 0.042669121 2.0739315e-38 345 204
0.030816587 0.676 0.042669121 2.0554921e-38 346 204
0.032001842 0.676 0.042669121 1.9632605e-38 347 204
0.033187091 0.676 0.042669121 1.640756e-38 348 204
0.034372345 0.676 0.042669121 1.640756e-38 349 204
0.035557602 0.676 0.042669121 1.8069602e-38 350 204
0.036742851 0.676 0.042669121 1.8899003e-38 351 204
0.037928104 0.676 0.042669121 1.981628e-38 352 204
0.039229076 0.67799997 0.042795356 1.9539693e-38 353 204
0.040417835 0.67799997 0.042795356 1.9721565e-38 354 204
0.041667968 0.67900002 0.042858478 1.9813761e-38 355 204
0.042858478 0.67900002 0.042858478 1.9447495e-38 356 204
0.044048995 0.67900002 0.042858478 1.9447495e-38 357 204
0.045439381 0.68199998 0.043047838 1.732879e-38 358 204
0.04670354 0.68300003 0.043110959 1.5484878e-38 359 204
0.0479712 0.68400002 0.043174081 1.6595188e-38 360 204
0.049314249 0.68599999 0.043300316 1.825507e-38 361 204
0.050517038 0.68599999 0.043300316 1.9448577e-38 362 204
0.051719822 0.68599999 0.043300316 1.9356022e-38 363 204
0.052999757 0.68699998 0.043363437 1.9447492e-38 364 204
0.054204296 0.68699998 0.043363437 1.9355296e-38 365 204
0.055408835 0.68699998 0.043363437 1.9264533e-38 366 204
0.056695789 0.68800002 0.043426562 1.8803555e-38 367 204
0.058070395 0.69 0.043552797 1.8521932e-38 368 204
0.05953794 0.69300002 0.043742158 1.815279e-38 369 204
0.060840666 0.69400001 0.043805279 1.7608617e-38 370 204
0.062236317 0.69599998 0.043931518 1.8715325e-38 371 204
0.063456632 0.69599998 0.043931518 1.9999227e-38 372 204
0.064769886 0.69700003 0.043994639 1.9999227e-38 373 204
0.06599196 0.69700003 0.043994639 1.9815907e-38 374 204
0.067214034 0.69700003 0.043994639 1.9539322e-38 375 204
0.068436109 0.69700003 0.043994639 1.9629718e-38 376 204
0.069658175 0.69700003 0.043994639 1.8892153e-38 377 204
0.07098195 0.69800001 0.04405776 1.7420986e-38 378 204
0.072205767 0.69800001 0.04405776 1.8158551e-38 379 204
0.076059602 0.72299999 0.04563576 1.9815551e-38 380 204
0.077327259 0.72299999 0.04563576 2.0000301e-38 381 204
0.078594916 0.72299999 0.04563576 2.0366194e-38 382 204
0.080083504 0.72500002 0.045761999 1.9813021e-38 383 204
0.081130236 0.72299999 0.04563576 1.9535359e-38 384 204
0.082397893 0.72299999 0.04563576 1.9258412e-38 385 204
0.083665557 0.72299999 0.04563576 1.7973797e-38 386 204
0.084933214 0.72299999 0.04563576 1.8526612e-38 387 204
0.086200871 0.72299999 0.04563576 1.9171261e-38 388 204
0.087468542 0.72299999 0.04563576 1.9355652e-38 389 204
0.088736199 0.72299999 0.04563576 1.9630074e-38 390 204
0.090252832 0.72500002 0.045761999 1.9169097e-38 391 204
0.091776483 0.727 0.045888241 1.788269e-38 392 204
0.093179137 0.72799999 0.045951359 1.788269e-38 393 204
0.09445557 0.72799999 0.045951359 1.7424251e-38 394 204
-0.046838548 0.70300001 0.043140765 1.8166505e-38 282 205
-0.04541133 0.69999999 0.042956665 1.82587e-38 283 205
-0.04405776 0.69800001 0.042833932 1.9730961e-38 284 205
-0.042833932 0.69800001 0.042833932 2.0191937e-38 285 205
-0.041550495 0.69700003 0.042772565 1.9917148e-38 286 205
-0.040270556 0.69599998 0.042711195 1.9824594e-38 287 205
-0.038938027 0.69400001 0.042588469 1.9916429e-38 288 205
-0.037666857 0.69300002 0.042527102 2.0100461e-38 289 205
-0.036346599 0.69099998 0.042404365 2.028449e-38 290 205
-0.035135046 0.69099998 0.042404365 2.028449e-38 291 205
-0.0338744 0.69 0.042342998 2.0560001e-38 292 205
-0.032569919 0.68800002 0.042220265 2.037525e-38 293 205
-0.031318039 0.68699998 0.042158898 1.6044929e-38 294 205
-0.030113498 0.68699998 0.042158898 1.5307364e-38 295 205
-0.028908957 0.68699998 0.042158898 1.8805037e-38 296 205
-0.027664091 0.68599999 0.042097531 2.0280167e-38 297 205
-0.026461305 0.68599999 0.042097531 2.0189774e-38 298 205
-0.025184879 0.68400002 0.041974798 2.0005022e-38 299 205
-0.0239856 0.68400002 0.041974798 2.0005743e-38 300 205
-0.022753006 0.68300003 0.041913435 2.0005743e-38 301 205
-0.02155548 0.68300003 0.041913435 2.0097575e-38 302 205
-0.020357953 0.68300003 0.041913435 2.0097575e-38 303 205
-0.019132372 0.68199998 0.041852064 2.0282323e-38 304 205
-0.017936599 0.68199998 0.041852064 2.0282323e-38 305 205
-0.016740825 0.68199998 0.041852064 1.6415141e-38 306 205
-0.015499466 0.68000001 0.041729335 1.5216598e-38 307 205
-0.014307199 0.68000001 0.041729335 1.8531324e-38 308 205
-0.013114933 0.68000001 0.041729335 1.9822063e-38 309 205
-0.011922667 0.68000001 0.041729335 2.0650026e-38 310 205
-0.0107304 0.68000001 0.041729335 2.0465635e-38 311 205
-0.009524107 0.67900002 0.041667968 2.0648947e-38 312 205
-0.0083335936 0.67900002 0.041667968 2.0648947e-38 313 205
-0.0071430802 0.67900002 0.041667968 2.0741496e-38 314 205
-0.0059525664 0.67900002 0.041667968 2.06493e-38 315 205
-0.0047620535 0.67900002 0.041667968 2.0741493e-38 316 205
-0.0035662798 0.67799997 0.041606598 2.0926243e-38 317 205
-0.0023775198 0.67799997 0.041606598 2.0188675e-38 318 205
-0.0011852533 0.676 0.041483864 1.9082329e-38 319 205
0 0.676 0.041483864 1.5764358e-38 320 205
0.0011852533 0.676 0.041483864 1.6501923e-38 321 205
0.0023705065 0.676 0.041483864 2.0556735e-38 322 205
0.0035505001 0.67500001 0.041422497 2.0833323e-38 323 205
0.0047339997 0.67500001 0.041422497 2.0649653e-38 324 205
0.0059262668 0.676 0.041483864 2.0649653e-38 325 205
0.0071115191 0.676 0.041483864 2.0742202e-38 326 205
0.0082967728 0.676 0.041483864 2.0649648e-38 327 205
0.0094820261 0.676 0.041483864 2.08326e-38 328 205
0.01066728 0.676 0.041483864 2.0740044e-38 329 205
0.011852534 0.676 0.041483864 2.1107389e-38 330 205
0.013037786 0.676 0.041483864 2.129178e-38 331 205
0.014223038 0.676 0.041483864 2.0831891e-38 332 205
0.015408293 0.676 0.041483864 1.9264924e-38 333 205
0.016593546 0.676 0.041483864 1.4747691e-38 334 205
0.017778801 0.676 0.041483864 1.6314658e-38 335 205
0.018935999 0.67500001 0.041422497 2.0464889e-38 336 205
0.020119499 0.67500001 0.041422497 2.1018063e-38 337 205
0.021334561 0.676 0.041483864 2.119994e-38 338 205
0.022519812 0.676 0.041483864 2.1107386e-38 339 205
0.023705067 0.676 0.041483864 2.1107386e-38 340 205
0.024890319 0.676 0.041483864 2.1107386e-38 341 205
0.026075572 0.676 0.041483864 2.1107386e-38 342 205
0.027260827 0.676 0.041483864 2.1015189e-38 343 205
0.028446076 0.676 0.041483864 2.0923346e-38 344 205
0.029631332 0.676 0.041483864 2.0739315e-38 345 205
0.030816587 0.676 0.041483864 2.0830429e-38 346 205
0.032001842 0.676 0.041483864 2.0738234e-38 347 205
0.033187091 0.676 0.041483864 1.8064204e-38 348 205
0.034372345 0.676 0.041483864 1.6589434e-38 349 205
0.035557602 0.676 0.041483864 1.7515352e-38 350 205
0.036742851 0.676 0.041483864 1.8990482e-38 351 205
0.037928104 0.676 0.041483864 1.9909202e-38 352 205
0.039229076 0.67799997 0.041606598 1.9263832e-38 353 205
0.040417835 0.67799997 0.041606598 1.9446423e-38 354 205
0.041667968 0.67900002 0.041667968 1.926203e-38 355 205
0.042858478 0.67900002 0.041667968 1.9170911e-38 356 205
0.044048995 0.67900002 0.041667968 1.9539693e-38 357 205
