# .PCD v.7 - Point Cloud Data file format
FIELDS x y z rgb imX imY
SIZE 4 4 4 4 4 4
TYPE F F F F F F
COUNT 1 1 1 1 1 1
WIDTH 846
HEIGHT 1
VIEWPOINT 0 0 0 1 0 0 0
POINTS 846
DATA ascii
0.018680012 0.76099998 -0.037360024 1.465512e-38 334 268
0.0199617 0.759 -0.03726184 1.465512e-38 335 268
0.021236373 0.75700003 -0.037163652 1.474696e-38 336 268
0.022504034 0.755 -0.037065465 1.4654764e-38 337 268
0.023827799 0.755 -0.037065465 1.4654767e-38 338 268
0.025151566 0.755 -0.037065465 1.4470736e-38 339 268
0.026475333 0.755 -0.037065465 1.4103395e-38 340 268
0.027799098 0.755 -0.037065465 1.4195591e-38 341 268
0.029122867 0.755 -0.037065465 1.4746241e-38 342 268
0.030527288 0.75700003 -0.037163652 1.4654045e-38 343 268
0.031938717 0.759 -0.03726184 1.4561132e-38 344 268
0.033269498 0.759 -0.03726184 1.4468936e-38 345 268
0.034600276 0.759 -0.03726184 1.4469302e-38 346 268
0.03583638 0.75700003 -0.037163652 1.4469302e-38 347 268
0.037163652 0.75700003 -0.037163652 1.447038e-38 348 268
0.038389232 0.755 -0.037065465 1.4654411e-38 349 268
0.039712999 0.755 -0.037065465 1.4654411e-38 350 268
0.040982414 0.75400001 -0.037016369 1.4654411e-38 351 268
0.042304426 0.75400001 -0.037016369 1.4471101e-38 352 268
0.043626439 0.75400001 -0.037016369 1.4655493e-38 353 268
0.044948451 0.75400001 -0.037016369 1.4841682e-38 354 268
0 0.76099998 -0.038694311 1.4100877e-38 320 269
0.0013342865 0.76099998 -0.038694311 1.4377104e-38 321 269
0.0026685731 0.76099998 -0.038694311 1.4283823e-38 322 269
0.0039923396 0.759 -0.038592618 1.4744441e-38 323 269
0.0053231199 0.759 -0.038592618 1.5115019e-38 324 269
0.0066714329 0.76099998 -0.038694311 1.5391966e-38 325 269
0.0080057196 0.76099998 -0.038694311 1.5483436e-38 326 269
0.0093400059 0.76099998 -0.038694311 1.5667827e-38 327 269
0.010674292 0.76099998 -0.038694311 1.548271e-38 328 269
0.012008579 0.76099998 -0.038694311 1.5390514e-38 329 269
0.013342866 0.76099998 -0.038694311 1.5207921e-38 330 269
0.014677152 0.76099998 -0.038694311 1.5392314e-38 331 269
0.015969358 0.759 -0.038592618 1.520937e-38 332 269
0.017254554 0.75700003 -0.038490929 1.5117174e-38 333 269
0.018581826 0.75700003 -0.038490929 1.465512e-38 334 269
0.019909101 0.75700003 -0.038490929 1.4378534e-38 335 269
0.021180267 0.755 -0.038389232 1.4561849e-38 336 269
0.022474226 0.75400001 -0.038338386 1.4469652e-38 337 269
0.02379624 0.75400001 -0.038338386 1.4469655e-38 338 269
0.025118252 0.75400001 -0.038338386 1.4377101e-38 339 269
0.02637013 0.75199997 -0.038236689 1.3732817e-38 340 269
0.027688639 0.75199997 -0.038236689 1.3548066e-38 341 269
0.029007144 0.75199997 -0.038236689 1.3733536e-38 342 269
0.030406307 0.75400001 -0.038338386 1.4010123e-38 343 269
0.031770397 0.755 -0.038389232 1.4377104e-38 344 269
0.033094164 0.755 -0.038389232 1.4193073e-38 345 269
0.034417931 0.755 -0.038389232 1.4376385e-38 346 269
0.035741698 0.755 -0.038389232 1.4653332e-38 347 269
0.037065465 0.755 -0.038389232 1.4654764e-38 348 269
0.038389232 0.755 -0.038389232 1.4470733e-38 349 269
0.039660402 0.75400001 -0.038338386 1.4470733e-38 350 269
0.040982414 0.75400001 -0.038338386 1.4470733e-38 351 269
0.042304426 0.75400001 -0.038338386 1.4654767e-38 352 269
0.043626439 0.75400001 -0.038338386 1.4839158e-38 353 269
0.044948451 0.75400001 -0.038338386 1.4289224e-38 354 269
-0.00133604 0.76200002 -0.040081199 8.7585848e-39 319 270
0 0.76099998 -0.040028598 1.1336097e-38 320 270
0.0013342865 0.76099998 -0.040028598 1.2995618e-38 321 270
0.0026685731 0.76099998 -0.040028598 1.4007962e-38 322 270
0.0039923396 0.759 -0.0399234 1.3085646e-38 323 270
0.0053231199 0.759 -0.0399234 1.1976758e-38 324 270
0.0066714329 0.76099998 -0.040028598 1.004065e-38 325 270
0.0080057196 0.76099998 -0.040028598 9.2148364e-39 326 270
0.0093400059 0.76099998 -0.040028598 1.0228988e-38 327 270
0.010674292 0.76099998 -0.040028598 9.7662081e-39 328 270
0.012008579 0.76099998 -0.040028598 9.582177e-39 329 270
0.0133078 0.759 -0.0399234 1.0598124e-38 330 270
0.014638579 0.759 -0.0399234 1.2626428e-38 331 270
0.015927281 0.75700003 -0.039818201 1.3368331e-38 332 270
0.017208965 0.755 -0.039712999 1.3828951e-38 333 270
0.018508185 0.75400001 -0.039660402 1.4010474e-38 334 270
0.019830201 0.75400001 -0.039660402 1.4010474e-38 335 270
0.021096105 0.75199997 -0.039555199 1.4376382e-38 336 270
0.022414612 0.75199997 -0.039555199 1.4376382e-38 337 270
0.023669999 0.75 -0.039449997 1.4376382e-38 338 270
0.024984999 0.75 -0.039449997 1.4376382e-38 339 270
0.026264934 0.74900001 -0.0393974 1.4009041e-38 340 270
0.027578179 0.74900001 -0.0393974 1.3732815e-38 341 270
0.028891427 0.74900001 -0.0393974 1.4100521e-38 342 270
0.030244999 0.75 -0.039449997 1.4377106e-38 343 270
0.031644158 0.75199997 -0.039555199 1.4193791e-38 344 270
0.032962665 0.75199997 -0.039555199 1.4193791e-38 345 270
0.034372345 0.75400001 -0.039660402 1.4469652e-38 346 270
0.035694357 0.75400001 -0.039660402 1.4561849e-38 347 270
0.037016369 0.75400001 -0.039660402 1.465512e-38 348 270
0.038338386 0.75400001 -0.039660402 1.4378534e-38 349 270
0.039660402 0.75400001 -0.039660402 1.4469652e-38 350 270
0.040873703 0.75199997 -0.039555199 1.4561849e-38 351 270
0.04219221 0.75199997 -0.039555199 1.4470733e-38 352 270
0.043394998 0.75 -0.039449997 1.4654764e-38 353 270
0.044709999 0.75 -0.039449997 1.456365e-38 354 270
0.046024997 0.75 -0.039449997 1.4655846e-38 355 270
-0.0013342865 0.76099998 -0.041362885 5.8083219e-39 319 271
0 0.755 -0.041036766 7.5582466e-39 320 271
0.0013237667 0.755 -0.041036766 9.8631373e-39 321 271
0.00266156 0.759 -0.041254178 1.1703807e-38 322 271
0.0039923396 0.759 -0.041254178 1.013648e-38 323 271
0.0053231199 0.759 -0.041254178 7.5553347e-39 324 271
0.0066538998 0.759 -0.041254178 6.1724002e-39 325 271
0.0079846792 0.759 -0.041254178 6.2642427e-39 326 271
0.00931546 0.759 -0.041254178 7.6475359e-39 327 271
0.01064624 0.759 -0.041254178 7.3680596e-39 328 271
0.012008579 0.76099998 -0.041362885 6.7226901e-39 329 271
0.0133078 0.759 -0.041254178 6.541882e-39 330 271
0.014638579 0.759 -0.041254178 7.5563941e-39 331 271
0.01586416 0.75400001 -0.040982414 1.0879415e-38 332 271
0.017140586 0.75199997 -0.040873703 1.2815523e-38 333 271
0.018409999 0.75 -0.040764999 1.3919e-38 334 271
0.019724999 0.75 -0.040764999 1.4103392e-38 335 271
0.021011947 0.74900001 -0.040710647 1.4469655e-38 336 271
0.022265578 0.74699998 -0.040601939 1.419307e-38 337 271
0.023575317 0.74699998 -0.040601939 1.4468936e-38 338 271
0.024885058 0.74699998 -0.040601939 1.4468936e-38 339 271
0.026194798 0.74699998 -0.040601939 1.4193789e-38 340 271
0.027504537 0.74699998 -0.040601939 1.4009397e-38 341 271
0.028814279 0.74699998 -0.040601939 1.4101593e-38 342 271
0.030124018 0.74699998 -0.040601939 1.4193789e-38 343 271
0.031517919 0.74900001 -0.040710647 1.4469655e-38 344 271
0.032874998 0.75 -0.040764999 1.4469655e-38 345 271
0.034281172 0.75199997 -0.040873703 1.4561849e-38 346 271
0.035694357 0.75400001 -0.040982414 1.4561849e-38 347 271
0.037016369 0.75400001 -0.040982414 1.4561849e-38 348 271
0.038338386 0.75400001 -0.040982414 1.4469652e-38 349 271
0.039555199 0.75199997 -0.040873703 1.4561129e-38 350 271
0.040873703 0.75199997 -0.040873703 1.4561129e-38 351 271
0.04208 0.75 -0.040764999 1.4653326e-38 352 271
0.04333714 0.74900001 -0.040710647 1.4837357e-38 353 271
0.044471547 0.74599999 -0.040547583 1.4654767e-38 354 271
0.045779534 0.74599999 -0.040547583 1.4839158e-38 355 271
0.047087517 0.74599999 -0.040547583 1.4748044e-38 356 271
-0.0013237667 0.755 -0.042360533 7.184425e-39 319 272
0 0.755 -0.042360533 5.6250222e-39 320 272
0.0013237667 0.755 -0.042360533 7.6536848e-39 321 272
0.0026475333 0.755 -0.042360533 8.0235407e-39 322 272
0.0039923396 0.759 -0.042584959 5.2576718e-39 323 272
0.0053231199 0.759 -0.042584959 4.1520249e-39 324 272
0.0066538998 0.759 -0.042584959 9.0383919e-39 325 272
0.0079846792 0.759 -0.042584959 1.2535006e-38 326 272
0.00931546 0.759 -0.042584959 1.3457322e-38 327 272
0.01064624 0.759 -0.042584959 1.3361887e-38 328 272
0.01197702 0.759 -0.042584959 1.1702005e-38 329 272
0.0133078 0.759 -0.042584959 8.1067064e-39 330 272
0.014542146 0.75400001 -0.042304426 6.4475452e-39 331 272
0.01586416 0.75400001 -0.042304426 8.5763221e-39 332 272
0.017140586 0.75199997 -0.04219221 1.2079757e-38 333 272
0.018336359 0.74699998 -0.041911677 1.4748041e-38 334 272
0.019646099 0.74699998 -0.041911677 1.4748041e-38 335 272
0.020955838 0.74699998 -0.041911677 1.5022107e-38 336 272
0.022235774 0.74599999 -0.04185557 1.4837357e-38 337 272
0.023543758 0.74599999 -0.04185557 1.4469652e-38 338 272
0.024851745 0.74599999 -0.04185557 1.4469652e-38 339 272
0.026089599 0.74400002 -0.04174336 1.4285984e-38 340 272
0.027394081 0.74400002 -0.04174336 1.4193789e-38 341 272
0.028775707 0.74599999 -0.04185557 1.4285984e-38 342 272
0.03008369 0.74599999 -0.04185557 1.4285984e-38 343 272
0.031391677 0.74599999 -0.04185557 1.4468934e-38 344 272
0.032699663 0.74599999 -0.04185557 1.4561129e-38 345 272
0.034144413 0.74900001 -0.042023893 1.446965e-38 346 272
0.035505001 0.75 -0.04208 1.446965e-38 347 272
0.036918186 0.75199997 -0.04219221 1.4652602e-38 348 272
0.038236689 0.75199997 -0.04219221 1.4744797e-38 349 272
0.039449997 0.75 -0.04208 1.446965e-38 350 272
0.040710647 0.74900001 -0.042023893 1.446965e-38 351 272
0.042023893 0.74900001 -0.042023893 1.4744795e-38 352 272
0.04316356 0.74599999 -0.04185557 1.4744795e-38 353 272
0.044352323 0.74400002 -0.04174336 1.465512e-38 354 272
0.0456568 0.74400002 -0.04174336 1.4747315e-38 355 272
0.046771921 0.741 -0.041575037 1.4746962e-38 356 272
0.048071139 0.741 -0.041575037 1.4746962e-38 357 272
-0.0013237667 0.755 -0.043684296 6.727037e-39 319 273
0 0.755 -0.043684296 6.8210501e-39 320 273
0.0013220133 0.75400001 -0.043626439 8.0195933e-39 321 273
0.0026440267 0.75400001 -0.043626439 8.9419027e-39 322 273
0.0039923396 0.759 -0.043915741 7.6511653e-39 323 273
0.0053231199 0.759 -0.043915741 5.994518e-39 324 273
0.010295574 0.73400003 -0.042469237 1.4927786e-38 328 273
0.01170876 0.74199998 -0.042932119 1.2991678e-38 329 273
0.014310705 0.74199998 -0.042932119 9.4918087e-39 331 273
0.015653761 0.74400002 -0.043047838 1.1061643e-38 332 273
0.016958239 0.74400002 -0.043047838 1.2905555e-38 333 273
0.01826272 0.74400002 -0.043047838 1.5482727e-38 334 273
0.019567199 0.74400002 -0.043047838 1.5482727e-38 335 273
0.02087168 0.74400002 -0.043047838 1.5022105e-38 336 273
0.022176161 0.74400002 -0.043047838 1.4929909e-38 337 273
0.023480639 0.74400002 -0.043047838 1.4654401e-38 338 273
0.02478512 0.74400002 -0.043047838 1.446965e-38 339 273
0.026019465 0.74199998 -0.042932119 1.4377454e-38 340 273
0.027320439 0.74199998 -0.042932119 1.446965e-38 341 273
0.02869856 0.74400002 -0.043047838 1.428634e-38 342 273
0.030003037 0.74400002 -0.043047838 1.4194145e-38 343 273
0.031307522 0.74400002 -0.043047838 1.4376382e-38 344 273
0.032612 0.74400002 -0.043047838 1.4376382e-38 345 273
0.034007654 0.74599999 -0.04316356 1.4101593e-38 346 273
0.035220962 0.74400002 -0.043047838 1.4101593e-38 347 273
0.036525439 0.74400002 -0.043047838 1.4193426e-38 348 273
0.03793161 0.74599999 -0.04316356 1.4469652e-38 349 273
0.039292198 0.74699998 -0.043221418 1.4653682e-38 350 273
0.040601939 0.74699998 -0.043221418 1.4561485e-38 351 273
0.041911677 0.74699998 -0.043221418 1.4468931e-38 352 273
0.04316356 0.74599999 -0.04316356 1.4837713e-38 353 273
0.044352323 0.74400002 -0.043047838 1.4470733e-38 354 273
0.0456568 0.74400002 -0.043047838 1.474696e-38 355 273
0.046771921 0.741 -0.042874258 1.474696e-38 356 273
0.048071139 0.741 -0.042874258 1.474696e-38 357 273
0.0013220133 0.75400001 -0.044948451 8.0167066e-39 321 274
0.0026440267 0.75400001 -0.044948451 9.8588438e-39 322 274
0.00396604 0.75400001 -0.044948451 1.2808744e-38 323 274
0.014310705 0.74199998 -0.044233091 1.3458744e-38 331 274
0.015611678 0.74199998 -0.044233091 1.4193789e-38 332 274
0.016912652 0.74199998 -0.044233091 1.437854e-38 333 274
0.018189078 0.741 -0.044173479 1.5205417e-38 334 274
0.019488299 0.741 -0.044173479 1.492919e-38 335 274
0.020815572 0.74199998 -0.044233091 1.4836638e-38 336 274
0.022116546 0.74199998 -0.044233091 1.4929193e-38 337 274
0.023417519 0.74199998 -0.044233091 1.4561849e-38 338 274
0.024718491 0.74199998 -0.044233091 1.4377457e-38 339 274
0.026019465 0.74199998 -0.044233091 1.4376738e-38 340 274
0.027320439 0.74199998 -0.044233091 1.4468934e-38 341 274
0.028621411 0.74199998 -0.044233091 1.4468934e-38 342 274
0.029922385 0.74199998 -0.044233091 1.4376738e-38 343 274
0.031307522 0.74400002 -0.044352323 1.4283821e-38 344 274
0.032524332 0.74199998 -0.044233091 1.4376016e-38 345 274
0.033825304 0.74199998 -0.044233091 1.4376016e-38 346 274
0.035078939 0.741 -0.044173479 1.4560047e-38 347 274
0.036378156 0.741 -0.044173479 1.4376735e-38 348 274
0.037728224 0.74199998 -0.044233091 1.4468931e-38 349 274
0.0390292 0.74199998 -0.044233091 1.4653679e-38 350 274
0.040438879 0.74400002 -0.044352323 1.4377091e-38 351 274
0.04174336 0.74400002 -0.044352323 1.4283818e-38 352 274
0.043047838 0.74400002 -0.044352323 1.4836992e-38 353 274
0.044352323 0.74400002 -0.044352323 1.4929909e-38 354 274
0.045534063 0.74199998 -0.044233091 1.51143e-38 355 274
0.046771921 0.741 -0.044173479 1.5299049e-38 356 274
0.047941394 0.73900002 -0.044054255 1.566783e-38 357 274
0.049037226 0.736 -0.043875411 1.5944417e-38 358 274
-0.054346316 0.73799998 -0.0452886 1.4744797e-38 278 275
-0.052908584 0.736 -0.045165867 1.4836994e-38 279 275
-0.051618133 0.736 -0.045165867 1.4376735e-38 280 275
-0.050327681 0.736 -0.045165867 1.216404e-38 281 275
-0.049170475 0.73799998 -0.0452886 8.2003566e-39 282 275
0.010295574 0.73400003 -0.045043133 1.382032e-38 328 275
0.01429142 0.741 -0.045472696 1.4103748e-38 331 275
0.01559064 0.741 -0.045472696 1.5021388e-38 332 275
0.016889861 0.741 -0.045472696 1.5021388e-38 333 275
0.018189078 0.741 -0.045472696 1.4836994e-38 334 275
0.019488299 0.741 -0.045472696 1.4744797e-38 335 275
0.020787518 0.741 -0.045472696 1.4652249e-38 336 275
0.02208674 0.741 -0.045472696 1.4652249e-38 337 275
0.023385961 0.741 -0.045472696 1.4377101e-38 338 275
0.024685178 0.741 -0.045472696 1.419307e-38 339 275
0.025984399 0.741 -0.045472696 1.4193423e-38 340 275
0.027283618 0.741 -0.045472696 1.4193423e-38 341 275
0.028582839 0.741 -0.045472696 1.4560403e-38 342 275
0.029922385 0.74199998 -0.045534063 1.4283818e-38 343 275
0.031223357 0.74199998 -0.045534063 1.4283818e-38 344 275
0.032480497 0.741 -0.045472696 1.4376372e-38 345 275
0.033779722 0.741 -0.045472696 1.4009032e-38 346 275
0.034984261 0.73900002 -0.045349967 1.3916836e-38 347 275
0.036279973 0.73900002 -0.045349967 1.4101227e-38 348 275
0.037575684 0.73900002 -0.045349967 1.4377454e-38 349 275
0.038976599 0.741 -0.045472696 1.4837343e-38 350 275
0.04027582 0.741 -0.045472696 1.4745148e-38 351 275
0.041631144 0.74199998 -0.045534063 1.4927741e-38 352 275
0.042932119 0.74199998 -0.045534063 1.5665306e-38 353 275
0.044233091 0.74199998 -0.045534063 1.5942619e-38 354 275
0.045534063 0.74199998 -0.045534063 1.612701e-38 355 275
0.046771921 0.741 -0.045472696 1.6220279e-38 356 275
0.047941394 0.73900002 -0.045349967 1.6496865e-38 357 275
0.049037226 0.736 -0.045165867 1.557671e-38 358 275
0.050327681 0.736 -0.045165867 1.557671e-38 359 275
-0.055640277 0.73799998 -0.046582557 1.4561849e-38 277 276
-0.05419904 0.736 -0.046456318 1.4284189e-38 278 276
-0.052908584 0.736 -0.046456318 1.4007962e-38 279 276
-0.051618133 0.736 -0.046456318 1.4469655e-38 280 276
-0.050327681 0.736 -0.046456318 1.3916483e-38 281 276
-0.049037226 0.736 -0.046456318 1.0966579e-38 282 276
-0.047746774 0.736 -0.046456318 1.0044264e-38 283 276
0.006434733 0.73400003 -0.046330083 7.4761473e-39 325 276
0.0077216802 0.73400003 -0.046330083 1.2906313e-38 326 276
0.0090086265 0.73400003 -0.046330083 1.4197052e-38 327 276
0.010295574 0.73400003 -0.046330083 1.4468931e-38 328 276
0.011566739 0.73299998 -0.046266954 1.3178192e-38 329 276
0.012851933 0.73299998 -0.046266954 1.2995952e-38 330 276
0.014252847 0.73900002 -0.046645679 1.3825714e-38 331 276
0.01554856 0.73900002 -0.046645679 1.5205054e-38 332 276
0.016844273 0.73900002 -0.046645679 1.5205054e-38 333 276
0.018139986 0.73900002 -0.046645679 1.5020307e-38 334 276
0.0194357 0.73900002 -0.046645679 1.4744078e-38 335 276
0.020731414 0.73900002 -0.046645679 1.4652246e-38 336 276
0.022027127 0.73900002 -0.046645679 1.456005e-38 337 276
0.023322839 0.73900002 -0.046645679 1.4101227e-38 338 276
0.024618553 0.73900002 -0.046645679 1.4193423e-38 339 276
0.025984399 0.741 -0.046771921 1.4376369e-38 340 276
0.027283618 0.741 -0.046771921 1.4652596e-38 341 276
0.028582839 0.741 -0.046771921 1.4376367e-38 342 276
0.029761078 0.73799998 -0.046582557 1.4284171e-38 343 276
0.031055039 0.73799998 -0.046582557 1.4467483e-38 344 276
0.032348998 0.73799998 -0.046582557 1.4560038e-38 345 276
0.033642959 0.73799998 -0.046582557 1.4283093e-38 346 276
0.034936916 0.73799998 -0.046582557 1.3914312e-38 347 276
0.036230877 0.73799998 -0.046582557 1.4376369e-38 348 276
0.037524838 0.73799998 -0.046582557 1.4929543e-38 349 276
0.0388714 0.73900002 -0.046645679 1.5481268e-38 350 276
0.040167112 0.73900002 -0.046645679 1.5665659e-38 351 276
0.041575037 0.741 -0.046771921 1.6493622e-38 352 276
0.042874258 0.741 -0.046771921 1.69546e-38 353 276
0.044173479 0.741 -0.046771921 1.7048596e-38 354 276
0.045534063 0.74199998 -0.046835039 1.7324825e-38 355 276
0.046771921 0.741 -0.046771921 1.6866004e-38 356 276
0.047941394 0.73900002 -0.046645679 1.6589057e-38 357 276
0.049237106 0.73900002 -0.046645679 1.5023174e-38 358 276
-0.055640277 0.73799998 -0.047876518 1.4560776e-38 277 277
-0.05419904 0.736 -0.047746774 1.4008328e-38 278 277
-0.052908584 0.736 -0.047746774 1.354735e-38 279 277
-0.051618133 0.736 -0.047746774 1.410124e-38 280 277
-0.050327681 0.736 -0.047746774 1.4470382e-38 281 277
-0.049037226 0.736 -0.047746774 1.3453703e-38 282 277
-0.047746774 0.736 -0.047746774 1.161015e-38 283 277
0.006434733 0.73400003 -0.047617026 7.2845268e-39 325 277
0.0077216802 0.73400003 -0.047617026 1.1524448e-38 326 277
0.0090086265 0.73400003 -0.047617026 1.4198121e-38 327 277
0.010295574 0.73400003 -0.047617026 1.4653679e-38 328 277
0.011566739 0.73299998 -0.04755215 1.2993798e-38 329 277
0.012851933 0.73299998 -0.04755215 1.2351653e-38 330 277
0.014137126 0.73299998 -0.04755215 1.3181413e-38 331 277
0.01554856 0.73900002 -0.047941394 1.4561479e-38 332 277
0.016821479 0.73799998 -0.047876518 1.4653677e-38 333 277
0.018066347 0.736 -0.047746774 1.4560403e-38 334 277
0.019356798 0.736 -0.047746774 1.4376372e-38 335 277
0.020647252 0.736 -0.047746774 1.4376372e-38 336 277
0.021997318 0.73799998 -0.047876518 1.4283818e-38 337 277
0.023291279 0.73799998 -0.047876518 1.4099425e-38 338 277
0.024585238 0.73799998 -0.047876518 1.4283818e-38 339 277
0.025809066 0.736 -0.047746774 1.4652952e-38 340 277
0.02709952 0.736 -0.047746774 1.4745148e-38 341 277
0.028389972 0.736 -0.047746774 1.5203958e-38 342 277
0.029680425 0.736 -0.047746774 1.5296154e-38 343 277
0.030970879 0.736 -0.047746774 1.5572745e-38 344 277
0.032261331 0.736 -0.047746774 1.5848971e-38 345 277
0.033551786 0.736 -0.047746774 1.5941173e-38 346 277
0.034842238 0.736 -0.047746774 1.6217761e-38 347 277
0.036132693 0.736 -0.047746774 1.6770932e-38 348 277
0.037524838 0.73799998 -0.047876518 1.6955682e-38 349 277
0.038818799 0.73799998 -0.047876518 1.7414858e-38 350 277
0.040167112 0.73900002 -0.047941394 1.7599251e-38 351 277
0.041575037 0.741 -0.048071139 1.8150622e-38 352 277
0.042874258 0.741 -0.048071139 1.8150622e-38 353 277
0.044173479 0.741 -0.048071139 1.6773083e-38 354 277
0.045472696 0.741 -0.048071139 1.64043e-38 355 277
0.046771921 0.741 -0.048071139 1.6217035e-38 356 277
0.047941394 0.73900002 -0.047941394 1.5202883e-38 357 277
0.049237106 0.73900002 -0.047941394 1.3538676e-38 358 277
0.050532822 0.73900002 -0.047941394 1.3538676e-38 359 277
-0.05419904 0.736 -0.049037226 1.4009044e-38 278 278
-0.052908584 0.736 -0.049037226 1.3825013e-38 279 278
-0.051477864 0.73400003 -0.048903972 1.3733533e-38 280 278
-0.050190922 0.73400003 -0.048903972 1.4102675e-38 281 278
-0.048903972 0.73400003 -0.048903972 1.4468934e-38 282 278
0.0025633732 0.73100001 -0.048704091 6.6326735e-39 322 278
0.00384506 0.73100001 -0.048704091 6.2638924e-39 323 278
0.005140773 0.73299998 -0.048837345 5.341213e-39 324 278
0.0064259665 0.73299998 -0.048837345 7.8304951e-39 325 278
0.0077111595 0.73299998 -0.048837345 1.0875099e-38 326 278
0.0090086265 0.73400003 -0.048903972 1.447073e-38 327 278
0.010295574 0.73400003 -0.048903972 1.4929896e-38 328 278
0.011566739 0.73299998 -0.048837345 1.3915384e-38 329 278
0.012816866 0.73100001 -0.048704091 1.3454756e-38 330 278
0.014098554 0.73100001 -0.048704091 1.400793e-38 331 278
0.01538024 0.73100001 -0.048704091 1.4837341e-38 332 278
0.016730307 0.73400003 -0.048903972 1.4929896e-38 333 278
0.017992707 0.73299998 -0.048837345 1.465223e-38 334 278
0.019277899 0.73299998 -0.048837345 1.4467839e-38 335 278
0.020591147 0.73400003 -0.048903972 1.5018492e-38 336 278
0.021937706 0.736 -0.049037226 1.5018492e-38 337 278
0.023228159 0.736 -0.049037226 1.4559316e-38 338 278
0.024518613 0.736 -0.049037226 1.5020293e-38 339 278
0.025809066 0.736 -0.049037226 1.5756054e-38 340 278
0.02709952 0.736 -0.049037226 1.5756054e-38 341 278
0.028389972 0.736 -0.049037226 1.6216665e-38 342 278
0.029599773 0.73400003 -0.048903972 1.6585089e-38 343 278
0.030886721 0.73400003 -0.048903972 1.704535e-38 344 278
0.032173667 0.73400003 -0.048903972 1.7321938e-38 345 278
0.033551786 0.736 -0.049037226 1.7231187e-38 346 278
0.034842238 0.736 -0.049037226 1.7784361e-38 347 278
0.036132693 0.736 -0.049037226 1.7877631e-38 348 278
0.037423145 0.736 -0.049037226 1.7969828e-38 349 278
0.038818799 0.73799998 -0.049170475 1.8245692e-38 350 278
0.040167112 0.73900002 -0.049237106 1.8153138e-38 351 278
0.041462827 0.73900002 -0.049237106 1.8335733e-38 352 278
0.042874258 0.741 -0.049370356 1.7875115e-38 353 278
0.044173479 0.741 -0.049370356 1.649614e-38 354 278
0.045472696 0.741 -0.049370356 1.5482347e-38 355 278
0.046835039 0.74199998 -0.049436983 1.4835177e-38 356 278
0.048071139 0.741 -0.049370356 1.3175654e-38 357 278
0.049370356 0.741 -0.049370356 9.5789176e-39 358 278
0.050669577 0.741 -0.049370356 9.5789176e-39 359 278
-0.05419904 0.736 -0.050327681 1.4009041e-38 278 279
-0.052764814 0.73400003 -0.050190922 1.382501e-38 279 279
-0.051477864 0.73400003 -0.050190922 1.3642417e-38 280 279
-0.050190922 0.73400003 -0.050190922 1.3365829e-38 281 279
-0.048903972 0.73400003 -0.050190922 1.3456226e-38 282 279
-0.047617026 0.73400003 -0.050190922 1.2810857e-38 283 279
-0.0012799334 0.73000002 -0.0499174 8.9408027e-39 319 279
0 0.73000002 -0.0499174 8.2021544e-39 320 279
0.0012799334 0.73000002 -0.0499174 5.896905e-39 321 279
0.0025598668 0.73000002 -0.0499174 5.1564687e-39 322 279
0.0038397999 0.73000002 -0.0499174 4.7880463e-39 323 279
0.005140773 0.73299998 -0.050122537 3.4126606e-39 324 279
0.0064259665 0.73299998 -0.050122537 5.2565732e-39 325 279
0.0077111595 0.73299998 -0.050122537 9.7691046e-39 326 279
0.0089963535 0.73299998 -0.050122537 1.4009745e-38 327 279
0.010281546 0.73299998 -0.050122537 1.4928091e-38 328 279
0.011566739 0.73299998 -0.050122537 1.4835896e-38 329 279
0.012816866 0.73100001 -0.049985781 1.5295432e-38 330 279
0.014098554 0.73100001 -0.049985781 1.5572019e-38 331 279
0.01538024 0.73100001 -0.049985781 1.5848609e-38 332 279
0.016661927 0.73100001 -0.049985781 1.5940804e-38 333 279
0.017943613 0.73100001 -0.049985781 1.6217035e-38 334 279
0.019277899 0.73299998 -0.050122537 1.6493622e-38 335 279
0.020563092 0.73299998 -0.050122537 1.6953884e-38 336 279
0.021878093 0.73400003 -0.050190922 1.7414502e-38 337 279
0.023165042 0.73400003 -0.050190922 1.7323386e-38 338 279
0.024451986 0.73400003 -0.050190922 1.7692168e-38 339 279
0.025738932 0.73400003 -0.050190922 1.8151701e-38 340 279
0.02702588 0.73400003 -0.050190922 1.8151701e-38 341 279
0.028312827 0.73400003 -0.050190922 1.8335733e-38 342 279
0.029599773 0.73400003 -0.050190922 1.8335733e-38 343 279
0.030886721 0.73400003 -0.050190922 1.8060225e-38 344 279
0.032173667 0.73400003 -0.050190922 1.7691444e-38 345 279
0.033551786 0.736 -0.050327681 1.7324822e-38 346 279
0.034842238 0.736 -0.050327681 1.6864202e-38 347 279
0.036132693 0.736 -0.050327681 1.6679811e-38 348 279
0.037423145 0.736 -0.050327681 1.6218833e-38 349 279
0.038713597 0.736 -0.050327681 1.594152e-38 350 279
0.040112756 0.73799998 -0.050464436 1.5480902e-38 351 279
0.041462827 0.73900002 -0.050532822 1.4926649e-38 352 279
0.042874258 0.741 -0.050669577 1.4004693e-38 353 279
0.044173479 0.741 -0.050669577 1.2712512e-38 354 279
0.045472696 0.741 -0.050669577 1.0960795e-38 355 279
0.046835039 0.74199998 -0.050737958 9.5785799e-39 356 279
0.048136011 0.74199998 -0.050737958 8.4722337e-39 357 279
0.049436983 0.74199998 -0.050737958 5.6181124e-39 358 279
-0.054051761 0.73400003 -0.051477864 1.3273274e-38 278 280
-0.052764814 0.73400003 -0.051477864 1.3273274e-38 279 280
-0.051407732 0.73299998 -0.051407732 1.28123e-38 280 280
-0.050122537 0.73299998 -0.051407732 1.2720103e-38 281 280
-0.048837345 0.73299998 -0.051407732 1.2810854e-38 282 280
-0.04755215 0.73299998 -0.051407732 1.2810854e-38 283 280
-0.0025493465 0.727 -0.050986931 1.0413419e-38 318 280
-0.0012746733 0.727 -0.050986931 9.6758524e-39 319 280
0 0.72799999 -0.051057063 9.7666033e-39 320 280
0.0012764266 0.72799999 -0.051057063 8.9368426e-39 321 280
0.0025528532 0.72799999 -0.051057063 8.7470564e-39 322 280
0.0038292799 0.72799999 -0.051057063 8.839252e-39 323 280
0.005140773 0.73299998 -0.051407732 1.0036357e-38 324 280
0.0064259665 0.73299998 -0.051407732 1.1327096e-38 325 280
0.0077111595 0.73299998 -0.051407732 1.2436661e-38 326 280
0.0089963535 0.73299998 -0.051407732 1.538728e-38 327 280
0.010281546 0.73299998 -0.051407732 1.6215946e-38 328 280
0.011566739 0.73299998 -0.051407732 1.6399977e-38 329 280
0.012816866 0.73100001 -0.051267464 1.6768038e-38 330 280
0.014098554 0.73100001 -0.051267464 1.6860234e-38 331 280
0.01538024 0.73100001 -0.051267464 1.713718e-38 332 280
0.016661927 0.73100001 -0.051267464 1.7229377e-38 333 280
0.017943613 0.73100001 -0.051267464 1.7414852e-38 334 280
0.019277899 0.73299998 -0.051407732 1.7599604e-38 335 280
0.020563092 0.73299998 -0.051407732 1.7875115e-38 336 280
0.021848286 0.73299998 -0.051407732 1.796731e-38 337 280
0.023165042 0.73400003 -0.051477864 1.7601402e-38 338 280
0.024451986 0.73400003 -0.051477864 1.7601402e-38 339 280
0.025738932 0.73400003 -0.051477864 1.7968026e-38 340 280
0.02702588 0.73400003 -0.051477864 1.7968026e-38 341 280
0.028312827 0.73400003 -0.051477864 1.7600323e-38 342 280
0.029599773 0.73400003 -0.051477864 1.723154e-38 343 280
0.030886721 0.73400003 -0.051477864 1.6771282e-38 344 280
0.032173667 0.73400003 -0.051477864 1.6494694e-38 345 280
0.033551786 0.736 -0.051618133 1.5666378e-38 346 280
0.034842238 0.736 -0.051618133 1.5021009e-38 347 280
0.036132693 0.736 -0.051618133 1.4560035e-38 348 280
0.037423145 0.736 -0.051618133 1.3730274e-38 349 280
0.038713597 0.736 -0.051618133 1.2992702e-38 350 280
0.040112756 0.73799998 -0.051758397 1.243953e-38 351 280
0.041462827 0.73900002 -0.051828533 1.15165e-38 352 280
0.042758539 0.73900002 -0.051828533 1.0317957e-38 353 280
0.044173479 0.741 -0.051968798 7.9269843e-39 354 280
0.045472696 0.741 -0.051968798 6.2678217e-39 355 280
0.046835039 0.74199998 -0.05203893 5.5284924e-39 356 280
0.048136011 0.74199998 -0.05203893 5.805438e-39 357 280
-0.053978115 0.73299998 -0.052692924 1.1892145e-38 278 281
-0.052692924 0.73299998 -0.052692924 1.1431166e-38 279 281
-0.051267464 0.73100001 -0.052549154 1.1338615e-38 280 281
-0.049985781 0.73100001 -0.052549154 1.1523365e-38 281 281
-0.048837345 0.73299998 -0.052692924 1.2625394e-38 282 281
-0.0050636264 0.722 -0.051902171 1.0137907e-38 316 281
-0.0037977197 0.722 -0.051902171 1.0321939e-38 317 281
-0.0025318132 0.722 -0.051902171 1.1152412e-38 318 281
-0.0012711667 0.72500002 -0.052117832 1.2074368e-38 319 281
0 0.72500002 -0.052117832 1.3731003e-38 320 281
0.0012764266 0.72799999 -0.052333489 1.4560403e-38 321 281
0.0025528532 0.72799999 -0.052333489 1.5756423e-38 322 281
0.0038292799 0.72799999 -0.052333489 1.6586542e-38 323 281
0.0051057064 0.72799999 -0.052333489 1.7690369e-38 324 281
0.0064259665 0.73299998 -0.052692924 1.7321588e-38 325 281
0.0076795998 0.73000002 -0.052477267 1.6770932e-38 326 281
0.0089595336 0.73000002 -0.052477267 1.7416301e-38 327 281
0.010253493 0.73100001 -0.052549154 1.8427932e-38 328 281
0.01153518 0.73100001 -0.052549154 1.8520128e-38 329 281
0.012816866 0.73100001 -0.052549154 1.8795989e-38 330 281
0.014098554 0.73100001 -0.052549154 1.8795989e-38 331 281
0.01538024 0.73100001 -0.052549154 1.8519762e-38 332 281
0.016639132 0.73000002 -0.052477267 1.833537e-38 333 281
0.017919067 0.73000002 -0.052477267 1.7509572e-38 334 281
0.019225299 0.73100001 -0.052549154 1.7324822e-38 335 281
0.020506985 0.73100001 -0.052549154 1.7231187e-38 336 281
0.021788673 0.73100001 -0.052549154 1.6862405e-38 337 281
0.02307036 0.73100001 -0.052549154 1.6218114e-38 338 281
0.024451986 0.73400003 -0.052764814 1.5848971e-38 339 281
0.025738932 0.73400003 -0.052764814 1.5388351e-38 340 281
0.026989058 0.73299998 -0.052692924 1.4650784e-38 341 281
0.028274251 0.73299998 -0.052692924 1.3730257e-38 342 281
0.029599773 0.73400003 -0.052764814 1.2992333e-38 343 281
0.030886721 0.73400003 -0.052764814 1.2071812e-38 344 281
0.032173667 0.73400003 -0.052764814 1.0873269e-38 345 281
0.033551786 0.736 -0.052908584 9.7651207e-39 346 281
0.034842238 0.736 -0.052908584 8.3821863e-39 347 281
0.036132693 0.736 -0.052908584 7.7353735e-39 348 281
0.037423145 0.736 -0.052908584 6.1676891e-39 349 281
0.038713597 0.736 -0.052908584 5.2443091e-39 350 281
0.040112756 0.73799998 -0.053052358 5.2443091e-39 351 281
0.041406717 0.73799998 -0.053052358 4.4188854e-39 352 281
0.042758539 0.73900002 -0.053124249 4.8798622e-39 353 281
0.044054255 0.73900002 -0.053124249 4.6173191e-39 354 281
-0.053609919 0.72799999 -0.053609919 1.3179646e-38 278 282
-0.052261602 0.727 -0.053536277 1.2718308e-38 279 282
-0.050986931 0.727 -0.053536277 1.2810504e-38 280 282
-0.049985781 0.73100001 -0.053830836 1.2994895e-38 281 282
-0.048704091 0.73100001 -0.053830836 1.3179641e-38 282 282
-0.042921603 0.72000003 -0.053020801 1.1612677e-38 286 282
-0.0076059597 0.72299999 -0.053241719 1.3450117e-38 314 282
-0.0063382997 0.72299999 -0.053241719 1.4371713e-38 315 282
-0.0050636264 0.722 -0.053168077 1.4465334e-38 316 282
-0.0037977197 0.722 -0.053168077 1.4465334e-38 317 282
-0.0025318132 0.722 -0.053168077 1.4467489e-38 318 282
-0.0012676599 0.72299999 -0.053241719 1.5112858e-38 319 282
0 0.72299999 -0.053241719 1.6586542e-38 320 282
0.0012676599 0.72299999 -0.053241719 1.7231912e-38 321 282
0.0025423334 0.72500002 -0.053388998 1.8243174e-38 322 282
0.0038135003 0.72500002 -0.053388998 1.8427565e-38 323 282
0.0050986931 0.727 -0.053536277 1.8427918e-38 324 282
0.0063821329 0.72799999 -0.053609919 1.8243168e-38 325 282
0.0076795998 0.73000002 -0.053757198 1.7231543e-38 326 282
0.0089595336 0.73000002 -0.053757198 1.7231543e-38 327 282
0.010253493 0.73100001 -0.053830836 1.7416657e-38 328 282
0.011519399 0.73000002 -0.053757198 1.7324462e-38 329 282
0.012799333 0.73000002 -0.053757198 1.7507401e-38 330 282
0.014079267 0.73000002 -0.053757198 1.732301e-38 331 282
0.0153592 0.73000002 -0.053757198 1.6586527e-38 332 282
0.016639132 0.73000002 -0.053757198 1.6309581e-38 333 282
0.017919067 0.73000002 -0.053757198 1.5848253e-38 334 282
0.019225299 0.73100001 -0.053830836 1.5202883e-38 335 282
0.020506985 0.73100001 -0.053830836 1.4465671e-38 336 282
0.021788673 0.73100001 -0.053830836 1.3820302e-38 337 282
0.02307036 0.73100001 -0.053830836 1.2990536e-38 338 282
0.024418673 0.73299998 -0.053978115 1.2068938e-38 339 282
0.025738932 0.73400003 -0.054051761 1.1054433e-38 340 282
0.026989058 0.73299998 -0.053978115 1.0132477e-38 341 282
0.028274251 0.73299998 -0.053978115 9.1204856e-39 342 282
0.029599773 0.73400003 -0.054051761 8.4751162e-39 343 282
0.030886721 0.73400003 -0.054051761 7.8315488e-39 344 282
0.032173667 0.73400003 -0.054051761 7.463125e-39 345 282
0.033551786 0.736 -0.05419904 6.8191948e-39 346 282
0.034842238 0.736 -0.05419904 5.9894355e-39 347 282
0.036132693 0.736 -0.05419904 6.4482641e-39 348 282
0.037423145 0.736 -0.05419904 6.7248509e-39 349 282
0.038713597 0.736 -0.05419904 7.2776898e-39 350 282
0.040112756 0.73799998 -0.054346316 7.6468325e-39 351 282
0.041406717 0.73799998 -0.054346316 8.1081764e-39 352 282
-0.053388998 0.72500002 -0.054660168 1.3913962e-38 278 283
-0.052117832 0.72500002 -0.054660168 1.3821766e-38 279 283
-0.050636265 0.722 -0.054433983 1.3731013e-38 280 283
-0.0492336 0.72000003 -0.054283202 1.400796e-38 281 283
-0.0479712 0.72000003 -0.054283202 1.4008676e-38 282 283
-0.046838548 0.722 -0.054433983 1.3824283e-38 283 283
-0.045446403 0.72000003 -0.054283202 1.3824283e-38 284 283
-0.044183999 0.72000003 -0.054283202 1.4008676e-38 285 283
-0.042921603 0.72000003 -0.054283202 1.3731013e-38 286 283
-0.041659199 0.72000003 -0.054283202 1.1334285e-38 287 283
-0.0088736191 0.72299999 -0.054509375 1.7140063e-38 313 283
-0.0076059597 0.72299999 -0.054509375 1.7692168e-38 314 283
-0.0063382997 0.72299999 -0.054509375 1.7599614e-38 315 283
-0.0050706398 0.72299999 -0.054509375 1.7231556e-38 316 283
-0.0038029798 0.72299999 -0.054509375 1.6770938e-38 317 283
-0.0025353199 0.72299999 -0.054509375 1.686313e-38 318 283
-0.0012676599 0.72299999 -0.054509375 1.7416304e-38 319 283
0 0.72299999 -0.054509375 1.8337535e-38 320 283
0.0012676599 0.72299999 -0.054509375 1.842973e-38 321 283
0.0025423334 0.72500002 -0.054660168 1.8795992e-38 322 283
0.0038135003 0.72500002 -0.054660168 1.8703796e-38 323 283
0.0050986931 0.727 -0.054810952 1.7968029e-38 324 283
0.0063821329 0.72799999 -0.054886345 1.7783998e-38 325 283
0.0076795998 0.73000002 -0.055037133 1.7138991e-38 326 283
0.0089595336 0.73000002 -0.055037133 1.6585818e-38 327 283
0.010253493 0.73100001 -0.055112526 1.6034442e-38 328 283
0.011519399 0.73000002 -0.055037133 1.5573464e-38 329 283
0.012799333 0.73000002 -0.055037133 1.4835896e-38 330 283
0.014079267 0.73000002 -0.055037133 1.4282722e-38 331 283
0.0153592 0.73000002 -0.055037133 1.345404e-38 332 283
0.016639132 0.73000002 -0.055037133 1.2532084e-38 333 283
0.017919067 0.73000002 -0.055037133 1.1885996e-38 334 283
0.019225299 0.73100001 -0.055112526 1.0779288e-38 335 283
0.020506985 0.73100001 -0.055112526 9.3956179e-39 336 283
0.021848286 0.73299998 -0.055263311 8.5654985e-39 337 283
0.023133477 0.73299998 -0.055263311 7.5499047e-39 338 283
0.024418673 0.73299998 -0.055263311 6.3513615e-39 339 283
0.025738932 0.73400003 -0.055338707 5.3361502e-39 340 283
0.02702588 0.73400003 -0.055338707 4.690785e-39 341 283
0.028312827 0.73400003 -0.055338707 4.2326977e-39 342 283
0.029599773 0.73400003 -0.055338707 4.9702627e-39 343 283
0.030886721 0.73400003 -0.055338707 5.1586197e-39 344 283
-0.052117832 0.72500002 -0.055931333 1.3636655e-38 279 284
-0.050496001 0.72000003 -0.055545598 1.3639173e-38 280 284
-0.049165215 0.71899998 -0.055468451 1.3823564e-38 281 284
-0.04790457 0.71899998 -0.055468451 1.3732087e-38 282 284
-0.046643924 0.71899998 -0.055468451 1.3455502e-38 283 284
-0.045257039 0.71700001 -0.055314157 1.2903406e-38 284 284
-0.043938532 0.71600002 -0.055237014 1.3548775e-38 285 284
-0.042683143 0.71600002 -0.055237014 1.4284542e-38 286 284
-0.041427758 0.71600002 -0.055237014 1.2348434e-38 287 284
-0.040172372 0.71600002 -0.055237014 9.586528e-39 288 284
-0.020114239 0.71700001 -0.055314157 1.5476246e-38 304 284
-0.018857099 0.71700001 -0.055314157 1.6213811e-38 305 284
-0.017649053 0.71899998 -0.055468451 1.6401076e-38 306 284
-0.016388407 0.71899998 -0.055468451 1.6862054e-38 307 284
-0.01512776 0.71899998 -0.055468451 1.7231187e-38 308 284
-0.013867113 0.71899998 -0.055468451 1.7507774e-38 309 284
-0.012624 0.72000003 -0.055545598 1.7967663e-38 310 284
-0.01139316 0.722 -0.055699892 1.8336086e-38 311 284
-0.010127253 0.722 -0.055699892 1.8795623e-38 312 284
-0.0088613462 0.722 -0.055699892 1.8795623e-38 313 284
-0.0075954394 0.722 -0.055699892 1.8152418e-38 314 284
-0.0063295332 0.722 -0.055699892 1.7968026e-38 315 284
-0.0050706398 0.72299999 -0.055777039 1.723119e-38 316 284
-0.0038029798 0.72299999 -0.055777039 1.658582e-38 317 284
-0.0025353199 0.72299999 -0.055777039 1.612736e-38 318 284
-0.0012676599 0.72299999 -0.055777039 1.631175e-38 319 284
0 0.72299999 -0.055777039 1.6494341e-38 320 284
0.0012711667 0.72500002 -0.055931333 1.6033723e-38 321 284
0.0025493465 0.727 -0.056085624 1.5848609e-38 322 284
0.0038240198 0.727 -0.056085624 1.538763e-38 323 284
0.0050986931 0.727 -0.056085624 1.4833375e-38 324 284
0.0063821329 0.72799999 -0.056162767 1.4003614e-38 325 284
0.0076795998 0.73000002 -0.056317069 1.3358232e-38 326 284
0.0089595336 0.73000002 -0.056317069 1.2251885e-38 327 284
0.010253493 0.73100001 -0.056394216 1.1423193e-38 328 284
0.01153518 0.73100001 -0.056394216 1.0501597e-38 329 284
0.012816866 0.73100001 -0.056394216 9.2090687e-39 330 284
0.014079267 0.73000002 -0.056317069 8.2874725e-39 331 284
0.0153592 0.73000002 -0.056317069 7.0943369e-39 332 284
0.016639132 0.73000002 -0.056317069 6.6333588e-39 333 284
0.017919067 0.73000002 -0.056317069 6.7252069e-39 334 284
0.019225299 0.73100001 -0.056394216 6.8174039e-39 335 284
0.020506985 0.73100001 -0.056394216 6.3600187e-39 336 284
0.021848286 0.73299998 -0.056548502 6.8206367e-39 337 284
0.023133477 0.73299998 -0.056548502 7.4642111e-39 338 284
0.024418673 0.73299998 -0.056548502 8.1095805e-39 339 284
0.025703866 0.73299998 -0.056548502 8.7535276e-39 340 284
-0.050496001 0.72000003 -0.056808002 1.3361141e-38 280 285
-0.049165215 0.71899998 -0.056729097 1.3637368e-38 281 285
-0.04790457 0.71899998 -0.056729097 1.363917e-38 282 285
-0.046643924 0.71899998 -0.056729097 1.3546974e-38 283 285
-0.045193922 0.71600002 -0.056492399 1.3271467e-38 284 285
-0.043938532 0.71600002 -0.056492399 1.4009032e-38 285 285
-0.042683143 0.71600002 -0.056492399 1.4652602e-38 286 285
-0.041427758 0.71600002 -0.056492399 1.3546256e-38 287 285
-0.040172372 0.71600002 -0.056492399 1.1886008e-38 288 285
-0.038916986 0.71600002 -0.056492399 9.2123351e-39 289 285
-0.021371379 0.71700001 -0.056571297 1.7691799e-38 303 285
-0.020114239 0.71700001 -0.056571297 1.8242099e-38 304 285
-0.018857099 0.71700001 -0.056571297 1.8795273e-38 305 285
-0.017649053 0.71899998 -0.056729097 1.8520484e-38 306 285
-0.016388407 0.71899998 -0.056729097 1.8797071e-38 307 285
-0.01512776 0.71899998 -0.056729097 1.879814e-38 308 285
-0.013867113 0.71899998 -0.056729097 1.8705944e-38 309 285
-0.012624 0.72000003 -0.056808002 1.8429715e-38 310 285
-0.01139316 0.722 -0.056965802 1.8429715e-38 311 285
-0.010127253 0.722 -0.056965802 1.8613033e-38 312 285
-0.0088613462 0.722 -0.056965802 1.8336086e-38 313 285
-0.0075954394 0.722 -0.056965802 1.7599967e-38 314 285
-0.0063295332 0.722 -0.056965802 1.7231543e-38 315 285
-0.0050706398 0.72299999 -0.057044696 1.6770932e-38 316 285
-0.0038029798 0.72299999 -0.057044696 1.6310313e-38 317 285
-0.0025353199 0.72299999 -0.057044696 1.5483066e-38 318 285
-0.0012676599 0.72299999 -0.057044696 1.5022089e-38 319 285
0 0.72299999 -0.057044696 1.4468192e-38 320 285
0.0012711667 0.72500002 -0.057202499 1.3915018e-38 321 285
0.0025493465 0.727 -0.057360299 1.3177097e-38 322 285
0.0038240198 0.727 -0.057360299 1.2163304e-38 323 285
0.0050986931 0.727 -0.057360299 1.0687818e-38 324 285
0.0063821329 0.72799999 -0.057439197 9.7658606e-39 325 285
0.0076795998 0.73000002 -0.057597004 9.3959837e-39 326 285
0.0089595336 0.73000002 -0.057597004 7.7364637e-39 327 285
0.010253493 0.73100001 -0.057675898 6.3538852e-39 328 285
0.01153518 0.73100001 -0.057675898 5.9847426e-39 329 285
0.012816866 0.73100001 -0.057675898 5.5223477e-39 330 285
0.014098554 0.73100001 -0.057675898 5.3375977e-39 331 285
0.0153592 0.73000002 -0.057597004 5.0649793e-39 332 285
0.016639132 0.73000002 -0.057597004 5.8025443e-39 333 285
0.017919067 0.73000002 -0.057597004 6.6337511e-39 334 285
0.019225299 0.73100001 -0.057675898 7.8322943e-39 335 285
0.020506985 0.73100001 -0.057675898 9.0315564e-39 336 285
-0.0502856 0.71700001 -0.057828441 1.3359341e-38 280 286
-0.04902846 0.71700001 -0.057828441 1.2990917e-38 281 286
-0.04777132 0.71700001 -0.057828441 1.2718643e-38 282 286
-0.046449307 0.71600002 -0.057747785 1.317962e-38 283 286
-0.045193922 0.71600002 -0.057747785 1.4006508e-38 284 286
-0.043815799 0.71399999 -0.057586476 1.4467486e-38 285 286
-0.042563915 0.71399999 -0.057586476 1.4837343e-38 286 286
-0.041312039 0.71399999 -0.057586476 1.557491e-38 287 286
-0.040060159 0.71399999 -0.057586476 1.6216668e-38 288 286
-0.038753927 0.713 -0.057505824 1.5663496e-38 289 286
-0.037503798 0.713 -0.057505824 1.6029756e-38 290 286
-0.036253672 0.713 -0.057505824 1.639854e-38 291 286
-0.035052639 0.71399999 -0.057586476 1.6863128e-38 292 286
-0.033800758 0.71399999 -0.057586476 1.7508497e-38 293 286
-0.02262852 0.71700001 -0.057828441 1.9531392e-38 302 286
-0.021371379 0.71700001 -0.057828441 1.9162611e-38 303 286
-0.020114239 0.71700001 -0.057828441 1.8152773e-38 304 286
-0.018909698 0.71899998 -0.057989739 1.7968382e-38 305 286
-0.017649053 0.71899998 -0.057989739 1.7597805e-38 306 286
-0.016342819 0.71700001 -0.057828441 1.7413055e-38 307 286
-0.015085679 0.71700001 -0.057828441 1.6494328e-38 308 286
-0.013867113 0.71899998 -0.057989739 1.5941155e-38 309 286
-0.012624 0.72000003 -0.058070403 1.5388331e-38 310 286
-0.01139316 0.722 -0.058231708 1.5111744e-38 311 286
-0.010127253 0.722 -0.058231708 1.4650413e-38 312 286
-0.0088613462 0.722 -0.058231708 1.4097598e-38 313 286
-0.0076059597 0.72299999 -0.058312356 1.3450794e-38 314 286
-0.0063382997 0.72299999 -0.058312356 1.225225e-38 315 286
-0.0050706398 0.72299999 -0.058312356 1.1146976e-38 316 286
-0.0038029798 0.72299999 -0.058312356 1.0317214e-38 317 286
-0.0025353199 0.72299999 -0.058312356 9.6707573e-39 318 286
-0.0012676599 0.72299999 -0.058312356 8.5640496e-39 319 286
0 0.72299999 -0.058312356 6.8119739e-39 320 286
0.0012711667 0.72500002 -0.058473669 6.1666101e-39 321 286
0.0025493465 0.727 -0.058634974 5.06531e-39 322 286
0.0038240198 0.727 -0.058634974 5.06531e-39 323 286
0.0050986931 0.727 -0.058634974 4.4232042e-39 324 286
-0.051542737 0.71700001 -0.059085581 1.6226415e-38 279 287
-0.0502856 0.71700001 -0.059085581 1.5021757e-38 280 287
-0.04902846 0.71700001 -0.059085581 1.3638464e-38 281 287
-0.047704693 0.71600002 -0.059003171 1.4558615e-38 282 287
-0.046319555 0.71399999 -0.058838356 1.5480211e-38 283 287
-0.045004558 0.713 -0.058755953 1.695101e-38 284 287
-0.043754432 0.713 -0.058755953 1.7043206e-38 285 287
-0.042504307 0.713 -0.058755953 1.7780398e-38 286 287
-0.041254178 0.713 -0.058755953 1.8702354e-38 287 287
-0.040060159 0.71399999 -0.058838356 1.9531739e-38 288 287
-0.038753927 0.713 -0.058755953 1.9992718e-38 289 287
-0.037503798 0.713 -0.058755953 2.0544077e-38 290 287
-0.036253672 0.713 -0.058755953 2.0544077e-38 291 287
-0.035003547 0.713 -0.058755953 2.0177815e-38 292 287
-0.033753417 0.713 -0.058755953 1.9993424e-38 293 287
-0.032548878 0.71399999 -0.058838356 1.9809756e-38 294 287
-0.031253166 0.713 -0.058755953 1.9809756e-38 295 287
-0.030003037 0.713 -0.058755953 1.9625364e-38 296 287
-0.028752912 0.713 -0.058755953 1.9533167e-38 297 287
-0.02754136 0.71399999 -0.058838356 1.9165108e-38 298 287
-0.025107734 0.71600002 -0.059003171 1.8520467e-38 300 287
-0.02378572 0.71399999 -0.058838356 1.8151326e-38 301 287
-0.022533838 0.71399999 -0.058838356 1.7690716e-38 302 287
-0.021341572 0.71600002 -0.059003171 1.741449e-38 303 287
-0.020114239 0.71700001 -0.059085581 1.6860963e-38 304 287
-0.018909698 0.71899998 -0.059250388 1.6584376e-38 305 287
-0.017599959 0.71700001 -0.059085581 1.5756779e-38 306 287
-0.016342819 0.71700001 -0.059085581 1.5295801e-38 307 287
-0.015085679 0.71700001 -0.059085581 1.4559669e-38 308 287
-0.013828539 0.71700001 -0.059085581 1.3822103e-38 309 287
-0.012624 0.72000003 -0.059332799 1.2716828e-38 310 287
-0.011361601 0.72000003 -0.059332799 1.2071459e-38 311 287
-0.010127253 0.722 -0.059497613 1.1333904e-38 312 287
-0.0088613462 0.722 -0.059497613 1.0227915e-38 313 287
-0.0076059597 0.72299999 -0.059580017 9.3056055e-39 314 287
-0.0063382997 0.72299999 -0.059580017 8.6602361e-39 315 287
-0.0050846669 0.72500002 -0.059744831 7.4645642e-39 316 287
-0.0038029798 0.72299999 -0.059580017 6.3582166e-39 317 287
-0.0025353199 0.72299999 -0.059580017 6.2627966e-39 318 287
-0.0012676599 0.72299999 -0.059580017 5.7096242e-39 319 287
0 0.72299999 -0.059580017 5.8933176e-39 320 287
0.0012711667 0.72500002 -0.059744831 6.1695444e-39 321 287
-0.051542737 0.71700001 -0.060342718 1.3832935e-38 279 288
-0.0502856 0.71700001 -0.060342718 1.6407578e-38 280 288
-0.048823316 0.71399999 -0.060090236 1.6868558e-38 281 288
-0.047571439 0.71399999 -0.060090236 1.8523743e-38 282 288
-0.046254687 0.713 -0.060006075 1.9353504e-38 283 288
-0.044878319 0.71100003 -0.059837762 2.0915049e-38 284 288
-0.043631699 0.71100003 -0.059837762 2.0730658e-38 285 288
-0.042385083 0.71100003 -0.059837762 2.1282738e-38 286 288
-0.041254178 0.713 -0.060006075 2.1651519e-38 287 288
-0.040004052 0.713 -0.060006075 2.1650794e-38 288 288
-0.038753927 0.713 -0.060006075 2.1466403e-38 289 288
-0.037503798 0.713 -0.060006075 2.1280567e-38 290 288
-0.036253672 0.713 -0.060006075 2.100398e-38 291 288
-0.035003547 0.713 -0.060006075 2.0267507e-38 292 288
-0.033753417 0.713 -0.060006075 1.9529942e-38 293 288
-0.032503292 0.713 -0.060006075 1.8428634e-38 294 288
-0.031253166 0.713 -0.060006075 1.7691069e-38 295 288
-0.030003037 0.713 -0.060006075 1.6954229e-38 296 288
-0.028752912 0.713 -0.060006075 1.6677641e-38 297 288
-0.027502786 0.713 -0.060006075 1.6216662e-38 298 288
-0.026289478 0.71399999 -0.060090236 1.566349e-38 299 288
-0.025107734 0.71600002 -0.06025856 1.5018477e-38 300 288
-0.02378572 0.71399999 -0.060090236 1.4373107e-38 301 288
-0.022533838 0.71399999 -0.060090236 1.3545513e-38 302 288
-0.021341572 0.71600002 -0.06025856 1.3268927e-38 303 288
-0.020114239 0.71700001 -0.060342718 1.2806876e-38 304 288
-0.018909698 0.71899998 -0.060511041 1.2253702e-38 305 288
-0.017599959 0.71700001 -0.060342718 1.1425736e-38 306 288
-0.016342819 0.71700001 -0.060342718 1.0688171e-38 307 288
-0.015085679 0.71700001 -0.060342718 9.9495078e-39 308 288
-0.013828539 0.71700001 -0.060342718 7.6446184e-39 309 288
-0.012624 0.72000003 -0.060595199 6.2602406e-39 310 288
-0.011361601 0.72000003 -0.060595199 5.6148796e-39 311 288
-0.010127253 0.722 -0.060763516 5.1560763e-39 312 288
-0.0088613462 0.722 -0.060763516 5.4326646e-39 313 288
-0.0076059597 0.72299999 -0.060847677 5.1593371e-39 314 288
-0.0063382997 0.72299999 -0.060847677 6.0816522e-39 315 288
-0.0050706398 0.72299999 -0.060847677 6.7295397e-39 316 288
-0.0038029798 0.72299999 -0.060847677 8.0202785e-39 317 288
-0.0025353199 0.72299999 -0.060847677 9.5865252e-39 318 288
-0.0012676599 0.72299999 -0.060847677 1.0416645e-38 319 288
-0.051255193 0.713 -0.061256204 1.0973794e-38 279 289
-0.050005067 0.713 -0.061256204 1.4474361e-38 280 289
-0.048754938 0.713 -0.061256204 1.6410469e-38 281 289
-0.047371563 0.71100003 -0.061084379 1.7697946e-38 282 289
-0.046124939 0.71100003 -0.061084379 1.7974891e-38 283 289
-0.044878319 0.71100003 -0.061084379 1.9903772e-38 284 289
-0.043631699 0.71100003 -0.061084379 1.9903772e-38 285 289
-0.042385083 0.71100003 -0.061084379 2.0178178e-38 286 289
-0.041138459 0.71100003 -0.061084379 1.9625364e-38 287 289
-0.039891839 0.71100003 -0.061084379 1.8981424e-38 288 289
-0.038645219 0.71100003 -0.061084379 1.8336055e-38 289 289
-0.037398599 0.71100003 -0.061084379 1.7966918e-38 290 289
-0.036151983 0.71100003 -0.061084379 1.7598137e-38 291 289
-0.034905359 0.71100003 -0.061084379 1.6770187e-38 292 289
-0.033753417 0.713 -0.061256204 1.6124817e-38 293 289
