# .PCD v.7 - Point Cloud Data file format
FIELDS x y z rgb imX imY
SIZE 4 4 4 4 4 4
TYPE F F F F F F
COUNT 1 1 1 1 1 1
WIDTH 860
HEIGHT 1
VIEWPOINT 0 0 0 1 0 0 0
POINTS 860
DATA ascii
0.091239959 0.53100002 0.1024122 1.453875e-38 418 130
0.092344552 0.53200001 0.10260507 1.4814979e-38 419 130
0.093452662 0.53299999 0.10279793 1.5275221e-38 420 130
0.094387189 0.53299999 0.10279793 1.5183025e-38 421 130
0.095321715 0.53299999 0.10279793 1.5642202e-38 422 130
0.096256241 0.53299999 0.10279793 1.5642202e-38 423 130
0.097373113 0.53399998 0.10299079 1.5642202e-38 424 130
0.098309398 0.53399998 0.10299079 1.5734397e-38 425 130
0.099245667 0.53399998 0.10299079 1.5550747e-38 426 130
0.10055717 0.53600001 0.10337654 1.573514e-38 427 130
0.10149696 0.53600001 0.10337654 1.4907941e-38 428 130
0.10262786 0.537 0.1035694 1.8134429e-38 429 130
0.10376226 0.53799999 0.10376226 1.6040951e-38 430 130
-0.060812607 0.667 0.12747259 1.7894972e-38 268 131
-0.059643134 0.667 0.12747259 1.5958864e-38 269 131
-0.058385998 0.66600001 0.12728147 1.3463767e-38 270 131
-0.057046451 0.66399997 0.12689924 9.6837459e-39 271 131
-0.055882234 0.66399997 0.12689924 9.4024493e-39 272 131
-0.054635618 0.66299999 0.12670814 8.6648842e-39 273 131
-0.053392503 0.662 0.12651701 8.6613095e-39 274 131
-0.052152898 0.66100001 0.12632592 8.1084945e-39 275 131
-0.050762504 0.65799999 0.12575257 9.3999535e-39 276 131
-0.049005665 0.64999998 0.12422366 1.2073627e-38 277 131
-0.047718719 0.648 0.12384144 1.3269999e-38 278 131
-0.046438787 0.64600003 0.12345921 1.2993052e-38 279 131
-0.045025598 0.64200002 0.12269476 1.1883095e-38 280 131
-0.043899957 0.64200002 0.12269476 1.1329923e-38 281 131
-0.042707693 0.64099997 0.12250364 1.1975281e-38 282 131
-0.041518934 0.63999999 0.12231253 1.391103e-38 283 131
-0.040207442 0.63700002 0.1217392 1.4007915e-38 284 131
-0.038967833 0.63499999 0.12135696 1.3639131e-38 285 131
-0.037675627 0.63200003 0.12078363 1.3266387e-38 286 131
-0.03639394 0.62900001 0.12021029 1.1422474e-38 287 131
-0.035178877 0.62699997 0.11982805 1.0688127e-38 288 131
-0.033970833 0.625 0.11944583 1.1702639e-38 289 131
-0.0328224 0.62400001 0.11925472 1.4279444e-38 290 131
-0.031575777 0.62099999 0.11868137 1.4832617e-38 291 131
-0.030388774 0.61900002 0.11829915 1.3361087e-38 292 131
-0.029161438 0.616 0.1177258 1.3084141e-38 293 131
-0.028035799 0.61500001 0.1175347 1.3546564e-38 294 131
-0.026869832 0.61299998 0.11715246 1.3454368e-38 295 131
-0.0256688 0.61000001 0.11657912 1.3636244e-38 296 131
-0.024558941 0.60900003 0.11638802 1.3544049e-38 297 131
-0.023414012 0.60699999 0.11600579 1.3360749e-38 298 131
-0.022312919 0.60600001 0.11581468 1.3821368e-38 299 131
-0.021145198 0.60299999 0.11524133 1.2353113e-38 300 131
-0.020054625 0.602 0.11505022 1.2537864e-38 301 131
-0.018935999 0.60000002 0.114668 1.4666683e-38 302 131
-0.017854191 0.59899998 0.11447688 1.7432552e-38 303 131
-0.01674784 0.597 0.11409465 1.6513134e-38 304 131
-0.015648499 0.59500003 0.11371244 1.6328741e-38 305 131
-0.014580719 0.59399998 0.11352131 1.6512416e-38 306 131
-0.013516447 0.59299999 0.11333021 1.6512416e-38 307 131
-0.01243464 0.59100002 0.11294797 1.6420221e-38 308 131
-0.011359846 0.58899999 0.11256574 1.6512416e-38 309 131
-0.010292066 0.58700001 0.11218353 1.6789348e-38 310 131
-0.0092312992 0.58499998 0.1118013 1.5683359e-38 311 131
-0.0081915725 0.58399999 0.11161018 1.6867465e-38 312 131
-0.0071676262 0.58399999 0.11161018 1.4193791e-38 313 131
-0.0061121196 0.58099997 0.11103684 1.6849049e-38 314 131
-0.0050671333 0.57800001 0.11046351 1.4543799e-38 315 131
-0.0040466934 0.57700002 0.11027239 1.7295243e-38 316 131
-0.0030297597 0.57599998 0.11008127 1.7295243e-38 317 131
-0.0020163332 0.57499999 0.10989016 1.7109425e-38 318 131
-0.0010064133 0.574 0.10969906 1.8031023e-38 319 131
0 0.57099998 0.1091257 1.7125302e-38 320 131
0.00099939993 0.56999999 0.1089346 1.906141e-38 321 131
0.0019952932 0.56900001 0.10874348 1.8700572e-38 322 131
0.0029824199 0.56699997 0.10836125 1.8055202e-38 323 131
0.0039625331 0.565 0.10797903 1.8050126e-38 324 131
0.0049531665 0.565 0.10797903 1.648316e-38 325 131
0.0059227603 0.56300002 0.10759681 1.7210596e-38 326 131
0.0068976129 0.56199998 0.10740568 1.6012055e-38 327 131
0.0078549329 0.56 0.10702346 1.748141e-38 328 131
0.0088210199 0.55900002 0.10683235 1.7573606e-38 329 131
0.0097836005 0.55800003 0.10664124 1.7480335e-38 330 131
0.010742673 0.55699998 0.10645012 1.7295944e-38 331 131
0.011677199 0.55500001 0.1060679 1.7295591e-38 332 131
0.012627507 0.55400002 0.10587679 1.7480341e-38 333 131
0.013574306 0.55299997 0.10568567 1.7114111e-38 334 131
0.0144913 0.551 0.10530344 1.7667284e-38 335 131
0.015429333 0.55000001 0.10511233 1.6663619e-38 336 131
0.016363859 0.54900002 0.10492122 1.8415338e-38 337 131
0.017263319 0.54699999 0.10453898 1.7688591e-38 338 131
0.01818908 0.546 0.10434788 1.833396e-38 339 131
0.019041199 0.54299998 0.10377453 1.7874043e-38 340 131
0.01995644 0.542 0.10358343 1.6491107e-38 341 131
0.020829599 0.54000002 0.1032012 1.7675917e-38 342 131
0.021776399 0.54000002 0.1032012 1.7030548e-38 343 131
0.022639038 0.53799999 0.10281897 1.7488244e-38 344 131
0.0235385 0.537 0.10262786 1.6842875e-38 345 131
0.024434455 0.53600001 0.10243674 1.7386706e-38 346 131
0.0253269 0.53500003 0.10224564 1.7755849e-38 347 131
0.026215838 0.53399998 0.10205451 1.7571455e-38 348 131
0.027101273 0.53299999 0.10186341 1.7479259e-38 349 131
0.027930599 0.53100002 0.10148118 1.7571435e-38 350 131
0.028807264 0.52999997 0.10129005 1.7571435e-38 351 131
0.029680425 0.52899998 0.10109895 1.7480313e-38 352 131
0.030607937 0.52899998 0.10109895 1.7480313e-38 353 131
0.031535454 0.52899998 0.10109895 1.7297359e-38 354 131
0.032401599 0.528 0.10090783 1.7297359e-38 355 131
0.033074878 0.52399999 0.10014338 1.7572507e-38 356 131
0.03386388 0.52200001 0.099761158 1.7480313e-38 357 131
0.034712493 0.52100003 0.099570043 1.7388477e-38 358 131
0.035489216 0.51899999 0.099187814 1.7388477e-38 359 131
0.036329068 0.51800001 0.098996706 1.7479954e-38 360 131
0.037165407 0.51700002 0.098805591 1.7479954e-38 361 131
0.038071878 0.51700002 0.098805591 1.7389199e-38 362 131
0.038902957 0.51599997 0.098614469 1.7389199e-38 363 131
0.03973053 0.51499999 0.098423362 1.7388858e-38 364 131
0.040554598 0.514 0.098232254 1.7665804e-38 365 131
0.041455809 0.514 0.098232254 1.7023306e-38 366 131
0.04227462 0.51300001 0.09804114 1.7115501e-38 367 131
0.043089919 0.51200002 0.097850025 1.8311871e-38 368 131
0.043901712 0.51099998 0.097658902 1.8588458e-38 369 131
0.044797663 0.51099998 0.097658902 1.9597201e-38 370 131
0.045604199 0.50999999 0.097467795 1.9689398e-38 371 131
0.046407226 0.509 0.09727668 1.987271e-38 372 131
0.047299672 0.509 0.09727668 1.9688678e-38 373 131
0.048097439 0.50800002 0.097085573 1.8675982e-38 374 131
0.048891701 0.50700003 0.096894465 1.8399754e-38 375 131
0.049780641 0.50700003 0.096894465 1.7479608e-38 376 131
0.050669581 0.50700003 0.096894465 1.8032782e-38 377 131
0.051558521 0.50700003 0.096894465 1.8769625e-38 378 131
0.052550904 0.50800002 0.097085573 1.8769625e-38 379 131
0.053546801 0.509 0.09727668 1.9045842e-38 380 131
0.054546196 0.50999999 0.097467795 1.8861451e-38 381 131
0.055549104 0.51099998 0.097658902 1.8860729e-38 382 131
0.056445051 0.51099998 0.097658902 1.8768533e-38 383 131
0.057341009 0.51099998 0.097658902 1.8492682e-38 384 131
0.058236964 0.51099998 0.097658902 1.8308651e-38 385 131
0.059132915 0.51099998 0.097658902 1.7664372e-38 386 131
0.060146347 0.51200002 0.097850025 1.7480341e-38 387 131
0.061163284 0.51300001 0.09804114 1.7205196e-38 388 131
0.062062737 0.51300001 0.09804114 1.7481423e-38 389 131
0.062962197 0.51300001 0.09804114 1.711301e-38 390 131
0.063861661 0.51300001 0.09804114 1.711301e-38 391 131
0.06488736 0.514 0.098232254 1.6744956e-38 392 131
0.065788567 0.514 0.098232254 1.6744956e-38 393 131
0.066819534 0.51499999 0.098423362 1.6652405e-38 394 131
0.067853995 0.51599997 0.098614469 1.6468372e-38 395 131
0.068891972 0.51700002 0.098805591 1.6283993e-38 396 131
0.069798447 0.51700002 0.098805591 1.7021558e-38 397 131
0.070704915 0.51700002 0.098805591 1.713358e-38 398 131
0.071611397 0.51700002 0.098805591 1.7317972e-38 399 131
0.072658136 0.51800001 0.098996706 1.400471e-38 400 131
0.07370837 0.51899999 0.099187814 1.3912513e-38 401 131
0.074762128 0.51999998 0.099378921 1.4838064e-38 402 131
0.075819395 0.52100003 0.099570043 1.3363294e-38 403 131
0.076732881 0.52100003 0.099570043 1.335827e-38 404 131
0.077646367 0.52100003 0.099570043 1.5939748e-38 405 131
0.078559861 0.52100003 0.099570043 1.5484174e-38 406 131
0.079625882 0.52200001 0.099761158 1.5484174e-38 407 131
0.080541119 0.52200001 0.099761158 1.5577446e-38 408 131
0.081768446 0.52399999 0.10014338 1.5116468e-38 409 131
0.082687199 0.52399999 0.10014338 1.4750209e-38 410 131
0.083605938 0.52399999 0.10014338 1.5118992e-38 411 131
0.084685996 0.52499998 0.1003345 1.2998135e-38 412 131
0.085606493 0.52499998 0.1003345 1.1707396e-38 413 131
0.086856626 0.52700001 0.10071672 1.3547353e-38 414 131
0.087947197 0.528 0.10090783 1.4192722e-38 415 131
0.08904127 0.52899998 0.10109895 1.3544441e-38 416 131
0.09013886 0.52999997 0.10129005 1.123919e-38 417 131
0.091239959 0.53100002 0.10148118 1.4446921e-38 418 131
0.092344552 0.53200001 0.10167229 1.490754e-38 419 131
0.093452662 0.53299999 0.10186341 1.5275221e-38 420 131
0.094387189 0.53299999 0.10186341 1.5090471e-38 421 131
0.095500551 0.53399998 0.10205451 1.5548928e-38 422 131
0.096436836 0.53399998 0.10205451 1.5548928e-38 423 131
0.097373113 0.53399998 0.10205451 1.5457814e-38 424 131
0.098309398 0.53399998 0.10205451 1.5641846e-38 425 131
0.099431537 0.53500003 0.10224564 1.5550747e-38 426 131
0.10055717 0.53600001 0.10243674 1.5919531e-38 427 131
0.10168631 0.537 0.10262786 1.5185249e-38 428 131
0.10301007 0.53899997 0.10301007 1.8319542e-38 429 131
0.10395513 0.53899997 0.10301007 1.6040595e-38 430 131
-0.060903784 0.66799998 0.12649247 1.8170117e-38 268 132
-0.059643134 0.667 0.12630312 1.6418402e-38 269 132
-0.058473662 0.667 0.12630312 1.4661235e-38 270 132
-0.057218276 0.66600001 0.12611376 1.1434388e-38 271 132
-0.055882234 0.66399997 0.12573503 1.0967254e-38 272 132
-0.054635618 0.66299999 0.12554567 9.9534608e-39 273 132
-0.053392503 0.662 0.12535632 8.9403949e-39 274 132
-0.052152898 0.66100001 0.12516695 8.5719725e-39 275 132
-0.050839648 0.65899998 0.12478823 1.0041353e-38 276 132
-0.049533416 0.65700001 0.12440952 1.1424288e-38 277 132
-0.047792356 0.64899999 0.12289463 1.2440237e-38 278 132
-0.046510674 0.64700001 0.12251592 1.2716826e-38 279 132
-0.045095734 0.64300001 0.12175848 1.1697985e-38 280 132
-0.043899957 0.64200002 0.12156911 1.096042e-38 281 132
-0.042707693 0.64099997 0.12137975 1.1418859e-38 282 132
-0.041518934 0.63999999 0.12119038 1.4184728e-38 283 132
-0.040207442 0.63700002 0.12062232 1.5299357e-38 284 132
-0.038967833 0.63499999 0.1202436 1.5299357e-38 285 132
-0.037675627 0.63200003 0.11967552 1.5297908e-38 286 132
-0.03639394 0.62900001 0.11910743 1.2255812e-38 287 132
-0.035178877 0.62699997 0.11872871 1.1146571e-38 288 132
-0.033970833 0.625 0.11835 1.3082679e-38 289 132
-0.0328224 0.62400001 0.11816064 1.4094699e-38 290 132
-0.031626627 0.62199998 0.11778191 1.4279091e-38 291 132
-0.030437866 0.62 0.11740319 1.3451847e-38 292 132
-0.029303461 0.61900002 0.11721385 1.3083423e-38 293 132
-0.028035799 0.61500001 0.11645639 1.3452926e-38 294 132
-0.026869832 0.61299998 0.11607767 1.3636957e-38 295 132
-0.025710879 0.611 0.11569896 1.3636964e-38 296 132
-0.024599267 0.61000001 0.11550961 1.3636964e-38 297 132
-0.023452586 0.60799998 0.11513088 1.3545492e-38 298 132
-0.022349739 0.60699999 0.11494152 1.4928426e-38 299 132
-0.021250399 0.60600001 0.11475215 1.3093189e-38 300 132
-0.020087939 0.60299999 0.11418407 1.2540015e-38 301 132
-0.01896756 0.60100001 0.11380536 1.4573046e-38 302 132
-0.017884001 0.60000002 0.113616 1.7522947e-38 303 132
-0.016775893 0.59799999 0.11323728 1.6512413e-38 304 132
-0.0157011 0.597 0.11304791 1.6328022e-38 305 132
-0.014580719 0.59399998 0.11247984 1.6328388e-38 306 132
-0.013516447 0.59299999 0.11229047 1.6328388e-38 307 132
-0.01243464 0.59100002 0.11191176 1.6420937e-38 308 132
-0.011359846 0.58899999 0.11153304 1.6513134e-38 309 132
-0.0103096 0.588 0.11134368 1.6788985e-38 310 132
-0.0092470804 0.58600003 0.11096496 1.5498246e-38 311 132
-0.0082055992 0.58499998 0.11077559 1.6774547e-38 312 132
-0.0071676262 0.58399999 0.11058623 1.419307e-38 313 132
-0.0061331601 0.583 0.11039688 1.6940163e-38 314 132
-0.0050671333 0.57800001 0.10945008 1.4819663e-38 315 132
-0.0040466934 0.57700002 0.10926072 1.7294887e-38 316 132
-0.0030297597 0.57599998 0.10907135 1.7294887e-38 317 132
-0.0020163332 0.57499999 0.108882 1.7391051e-38 318 132
-0.0010064133 0.574 0.10869264 1.8220452e-38 319 132
0 0.57200003 0.10831392 1.6755443e-38 320 132
0.0010011533 0.57099998 0.10812455 1.7769595e-38 321 132
0.0019952932 0.56900001 0.10774583 1.7500606e-38 322 132
0.0029876798 0.56800002 0.10755648 1.8145976e-38 323 132
0.0039765597 0.56699997 0.10736711 1.8606941e-38 324 132
0.0049531665 0.565 0.1069884 1.777682e-38 325 132
0.0059227603 0.56300002 0.10660968 1.7587334e-38 326 132
0.0068976129 0.56199998 0.10642032 1.555903e-38 327 132
0.0078689596 0.56099999 0.10623095 1.6933663e-38 328 132
0.0088210199 0.55900002 0.10585224 1.7025859e-38 329 132
0.0097836005 0.55800003 0.10566288 1.7205196e-38 330 132
0.010742673 0.55699998 0.10547351 1.6559826e-38 331 132
0.011677199 0.55500001 0.1050948 1.7203747e-38 332 132
0.012627507 0.55400002 0.10490544 1.738814e-38 333 132
0.013598854 0.55400002 0.10490544 1.7478903e-38 334 132
0.0144913 0.551 0.10433736 1.7018284e-38 335 132
0.015429333 0.55000001 0.104148 1.6377988e-38 336 132
0.016363859 0.54900002 0.10395864 1.886727e-38 337 132
0.017263319 0.54699999 0.10357992 1.8052684e-38 338 132
0.01818908 0.546 0.10339056 1.8975001e-38 339 132
0.019076267 0.54400003 0.10301184 1.7139363e-38 340 132
0.01995644 0.542 0.10263312 1.575607e-38 341 132
0.020868173 0.54100001 0.10244376 1.7679545e-38 342 132
0.021776399 0.54000002 0.10225441 1.7311123e-38 343 132
0.022639038 0.53799999 0.10187568 1.7585885e-38 344 132
0.0235385 0.537 0.10168631 1.684832e-38 345 132
0.024434455 0.53600001 0.10149696 1.6839653e-38 346 132
0.0253269 0.53500003 0.1013076 1.6839653e-38 347 132
0.026215838 0.53399998 0.10111823 1.7022574e-38 348 132
0.027152117 0.53399998 0.10111823 1.6561599e-38 349 132
0.0279832 0.53200001 0.10073952 1.7570713e-38 350 132
0.02886162 0.53100002 0.10055016 1.7662908e-38 351 132
0.02973653 0.52999997 0.1003608 1.7572148e-38 352 132
0.030665798 0.52999997 0.1003608 1.7572148e-38 353 132
0.031535454 0.52899998 0.10017144 1.7297359e-38 354 132
0.032462966 0.52899998 0.10017144 1.7297359e-38 355 132
0.033264238 0.52700001 0.099792719 1.7297718e-38 356 132
0.03386388 0.52200001 0.098845921 1.7205524e-38 357 132
0.034712493 0.52100003 0.098656558 1.7388477e-38 358 132
0.035489216 0.51899999 0.098277837 1.7204448e-38 359 132
0.036329068 0.51800001 0.098088481 1.7205165e-38 360 132
0.037165407 0.51700002 0.097899124 1.7205165e-38 361 132
0.038071878 0.51700002 0.097899124 1.7296643e-38 362 132
0.038902957 0.51599997 0.097709753 1.7389199e-38 363 132
0.03973053 0.51499999 0.097520396 1.7112995e-38 364 132
0.040633496 0.51499999 0.097520396 1.7205549e-38 365 132
0.041455809 0.514 0.09733104 1.6930051e-38 366 132
0.04227462 0.51300001 0.097141676 1.6837855e-38 367 132
0.043089919 0.51200002 0.096952319 1.7666524e-38 368 132
0.043901712 0.51099998 0.096762948 1.7943111e-38 369 132
0.044797663 0.51099998 0.096762948 1.8495552e-38 370 132
0.045514777 0.509 0.096384235 1.8864695e-38 371 132
0.046316054 0.50800002 0.096194878 1.8771793e-38 372 132
0.047206748 0.50800002 0.096194878 1.8956543e-38 373 132
0.048002761 0.50700003 0.096005522 1.7575417e-38 374 132
0.048891701 0.50700003 0.096005522 1.7022602e-38 375 132
0.049780641 0.50700003 0.096005522 1.7666873e-38 376 132
0.050669581 0.50700003 0.096005522 1.7943461e-38 377 132
0.051558521 0.50700003 0.096005522 1.8311521e-38 378 132
0.052447461 0.50700003 0.096005522 1.8311521e-38 379 132
0.053336401 0.50700003 0.096005522 1.8402993e-38 380 132
0.05422534 0.50700003 0.096005522 1.8034212e-38 381 132
0.055440396 0.50999999 0.096573591 1.7483911e-38 382 132
0.0563346 0.50999999 0.096573591 1.7206966e-38 383 132
0.057341009 0.51099998 0.096762948 1.6930404e-38 384 132
0.058236964 0.51099998 0.096762948 1.6745654e-38 385 132
0.059132915 0.51099998 0.096762948 1.6837505e-38 386 132
0.06002887 0.51099998 0.096762948 1.6929701e-38 387 132
0.061163284 0.51300001 0.097141676 1.6746388e-38 388 132
0.062062737 0.51300001 0.097141676 1.6746388e-38 389 132
0.062962197 0.51300001 0.097141676 1.6562363e-38 390 132
0.063986145 0.514 0.09733104 1.6285777e-38 391 132
0.06488736 0.514 0.09733104 1.6101385e-38 392 132
0.065788567 0.514 0.09733104 1.5916993e-38 393 132
0.066949278 0.51599997 0.097709753 1.5365971e-38 394 132
0.067853995 0.51599997 0.097709753 1.5734394e-38 395 132
0.068891972 0.51700002 0.097899124 1.5182322e-38 396 132
0.069798447 0.51700002 0.097899124 1.6012083e-38 397 132
0.070704915 0.51700002 0.097899124 1.6673325e-38 398 132
0.071749903 0.51800001 0.098088481 1.6857716e-38 399 132
0.072798401 0.51899999 0.098277837 1.3361138e-38 400 132
0.07370837 0.51899999 0.098277837 1.3268943e-38 401 132
0.07490591 0.52100003 0.098656558 1.4287044e-38 402 132
0.075819395 0.52100003 0.098656558 1.373387e-38 403 132
0.076732881 0.52100003 0.098656558 1.409763e-38 404 132
0.077795401 0.52200001 0.098845921 1.6402522e-38 405 132
0.078710638 0.52200001 0.098845921 1.5946234e-38 406 132
0.079625882 0.52200001 0.098845921 1.5577093e-38 407 132
0.080695413 0.523 0.099035278 1.5486695e-38 408 132
0.081768446 0.52399999 0.099224634 1.5118271e-38 409 132
0.082844988 0.52499998 0.099413991 1.5393781e-38 410 132
0.083765492 0.52499998 0.099413991 1.5578172e-38 411 132
0.084685996 0.52499998 0.099413991 1.2903067e-38 412 132
0.085769564 0.52600002 0.099603362 1.0598535e-38 413 132
0.086856626 0.52700001 0.099792719 1.3270043e-38 414 132
0.088113762 0.52899998 0.10017144 1.3822858e-38 415 132
0.089209594 0.52999997 0.1003608 1.3077698e-38 416 132
0.090308934 0.53100002 0.10055016 1.1879156e-38 417 132
0.091411784 0.53200001 0.10073952 1.4356174e-38 418 132
0.092518136 0.53299999 0.10092887 1.4263619e-38 419 132
0.093452662 0.53299999 0.10092887 1.4080656e-38 420 132
0.094564274 0.53399998 0.10111823 1.3896265e-38 421 132
0.095500551 0.53399998 0.10111823 1.4263959e-38 422 132
0.096436836 0.53399998 0.10111823 1.4632382e-38 423 132
0.097373113 0.53399998 0.10111823 1.5457461e-38 424 132
0.098493502 0.53500003 0.1013076 1.5641492e-38 425 132
0.099617384 0.53600001 0.10149696 1.5457842e-38 426 132
0.10074478 0.537 0.10168631 1.6011376e-38 427 132
0.10187568 0.53799999 0.10187568 1.4914069e-38 428 132
0.10301007 0.53899997 0.10206503 1.7680296e-38 429 132
-0.061086133 0.67000002 0.12569647 1.7894253e-38 268 133
-0.05973256 0.66799998 0.12532124 1.68801e-38 269 133
-0.058473662 0.667 0.12513365 1.5398816e-38 270 133
-0.057218276 0.66600001 0.12494604 1.2541111e-38 271 133
-0.055882234 0.66399997 0.12457082 1.2534601e-38 272 133
-0.054635618 0.66299999 0.12438322 1.1889231e-38 273 133
-0.053392503 0.662 0.12419561 1.0968348e-38 274 133
-0.052152898 0.66100001 0.12400801 1.0322979e-38 275 133
-0.050839648 0.65899998 0.12363279 1.0871468e-38 276 133
-0.049533416 0.65700001 0.12325758 1.0871468e-38 277 133
-0.048234195 0.65499997 0.12288236 1.1794852e-38 278 133
-0.046582561 0.648 0.12156911 1.1887048e-38 279 133
-0.045165867 0.64399999 0.12081868 1.1327755e-38 280 133
-0.043968339 0.64300001 0.12063108 1.1235559e-38 281 133
-0.04277432 0.64200002 0.12044348 1.1140843e-38 282 133
-0.041583803 0.64099997 0.12025587 1.436769e-38 283 133
-0.040270559 0.63800001 0.11969305 1.5576668e-38 284 133
-0.039029196 0.63599998 0.11931783 1.5299723e-38 285 133
-0.037854467 0.63499999 0.11913023 1.5299357e-38 286 133
-0.036451798 0.63 0.11819219 1.3824226e-38 287 133
-0.035178877 0.62699997 0.11762937 1.3452185e-38 288 133
-0.033970833 0.625 0.11725416 1.3175238e-38 289 133
-0.0328224 0.62400001 0.11706655 1.3357834e-38 290 133
-0.031626627 0.62199998 0.11669134 1.280466e-38 291 133
-0.030437866 0.62 0.11631614 1.2528096e-38 292 133
-0.029256117 0.61799997 0.11594091 1.2896878e-38 293 133
-0.028081387 0.616 0.11556571 1.2990522e-38 294 133
-0.026913667 0.61400002 0.1151905 1.3543695e-38 295 133
-0.025752958 0.61199999 0.11481528 1.3821358e-38 296 133
-0.024599267 0.61000001 0.11444007 1.3821358e-38 297 133
-0.023491161 0.60900003 0.11425246 1.3270002e-38 298 133
-0.022386558 0.60799998 0.11406485 1.5390502e-38 299 133
-0.021285465 0.60699999 0.11387724 1.3831494e-38 300 133
-0.020121252 0.60399997 0.11331442 1.3647101e-38 301 133
-0.019030679 0.60299999 0.11312681 1.4482294e-38 302 133
-0.017884001 0.60000002 0.112564 1.7063771e-38 303 133
-0.016775893 0.59799999 0.11218879 1.6512769e-38 304 133
-0.0157011 0.597 0.11200118 1.6420574e-38 305 133
-0.014580719 0.59399998 0.11143836 1.6328741e-38 306 133
-0.013516447 0.59299999 0.11125075 1.6420937e-38 307 133
-0.01243464 0.59100002 0.11087554 1.6329821e-38 308 133
-0.011359846 0.58899999 0.11050032 1.6329821e-38 309 133
-0.0103096 0.588 0.11031272 1.6697152e-38 310 133
-0.0092470804 0.58600003 0.10993751 1.5406413e-38 311 133
-0.0082196267 0.58600003 0.10993751 1.695786e-38 312 133
-0.0071798996 0.58499998 0.10974989 1.4284186e-38 313 133
-0.0061436798 0.58399999 0.10956229 1.7215308e-38 314 133
-0.0050671333 0.57800001 0.10843665 1.5094808e-38 315 133
-0.0040466934 0.57700002 0.10824905 1.7385634e-38 316 133
-0.0030297597 0.57599998 0.10806143 1.7201243e-38 317 133
-0.0020198398 0.57599998 0.10806143 1.8040755e-38 318 133
-0.0010064133 0.574 0.10768622 1.9792472e-38 319 133
0 0.57300001 0.10749862 1.7682807e-38 320 133
0.0010011533 0.57099998 0.1071234 1.6392069e-38 321 133
0.0019952932 0.56900001 0.10674819 1.6021142e-38 322 133
0.0029929399 0.56900001 0.10674819 1.7404076e-38 323 133
0.0039835735 0.56800002 0.10656059 1.740948e-38 324 133
0.0049531665 0.565 0.10599776 1.7686427e-38 325 133
0.0059227603 0.56300002 0.10562255 1.7684965e-38 326 133
0.0068976129 0.56199998 0.10543494 1.611728e-38 327 133
0.0078689596 0.56099999 0.10524733 1.7223256e-38 328 133
0.0088367993 0.56 0.10505974 1.7408006e-38 329 133
0.0098011335 0.55900002 0.10487213 1.7396086e-38 330 133
0.010742673 0.55699998 0.10449691 1.5552175e-38 331 133
0.011698239 0.55599999 0.10430931 1.7204094e-38 332 133
0.012627507 0.55400002 0.10393409 1.7481041e-38 333 133
0.013598854 0.55400002 0.10393409 1.7480335e-38 334 133
0.0144913 0.551 0.10337127 1.738814e-38 335 133
0.015429333 0.55000001 0.10318366 1.7296338e-38 336 133
0.016363859 0.54900002 0.10299607 1.8771108e-38 337 133
0.017294878 0.54799998 0.10280845 1.7308254e-38 338 133
0.018222392 0.54699999 0.10262084 1.7768874e-38 339 133
0.0191464 0.546 0.10243323 1.7309339e-38 340 133
0.019993259 0.54299998 0.10187041 1.7125308e-38 341 133
0.020868173 0.54100001 0.10149521 1.7221094e-38 342 133
0.021776399 0.54000002 0.1013076 1.7958659e-38 343 133
0.022639038 0.53799999 0.10093238 1.7684586e-38 344 133
0.023582332 0.53799999 0.10093238 1.7039216e-38 345 133
0.024480039 0.537 0.10074478 1.7307526e-38 346 133
0.025374239 0.53600001 0.10055717 1.7860339e-38 347 133
0.026215838 0.53399998 0.10018195 1.749981e-38 348 133
0.027152117 0.53399998 0.10018195 1.602432e-38 349 133
0.028035799 0.53299999 0.099994346 1.7668335e-38 350 133
0.02886162 0.53100002 0.099619143 1.7115161e-38 351 133
0.02973653 0.52999997 0.099431522 1.7571805e-38 352 133
0.030665798 0.52999997 0.099431522 1.7571805e-38 353 133
0.031535454 0.52899998 0.099243917 1.7296293e-38 354 133
0.032462966 0.52899998 0.099243917 1.7204097e-38 355 133
0.033264238 0.52700001 0.098868713 1.7388118e-38 356 133
0.033928752 0.523 0.098118283 1.7388118e-38 357 133
0.034712493 0.52100003 0.097743072 1.720373e-38 358 133
0.035557598 0.51999998 0.097555466 1.738776e-38 359 133
0.036399201 0.51899999 0.09736786 1.720445e-38 360 133
0.037165407 0.51700002 0.096992642 1.7296646e-38 361 133
0.038071878 0.51700002 0.096992642 1.7296646e-38 362 133
0.038978353 0.51700002 0.096992642 1.7388843e-38 363 133
0.03973053 0.51499999 0.09661743 1.7113698e-38 364 133
0.040633496 0.51499999 0.09661743 1.7206252e-38 365 133
0.041455809 0.514 0.096429825 1.7021148e-38 366 133
0.042357024 0.514 0.096429825 1.7021148e-38 367 133
0.043174081 0.51300001 0.096242219 1.7021135e-38 368 133
0.043901712 0.51099998 0.095867001 1.6836747e-38 369 133
0.044797663 0.51099998 0.095867001 1.6655241e-38 370 133
0.045514777 0.509 0.095491789 1.7393165e-38 371 133
0.046316054 0.50800002 0.095304191 1.7120932e-38 372 133
0.047206748 0.50800002 0.095304191 1.7120932e-38 373 133
0.048002761 0.50700003 0.095116585 1.6751084e-38 374 133
0.048891701 0.50700003 0.095116585 1.6474856e-38 375 133
0.049780641 0.50700003 0.095116585 1.8218284e-38 376 133
0.050669581 0.50700003 0.095116585 1.8126089e-38 377 133
0.051558521 0.50700003 0.095116585 1.7850562e-38 378 133
0.052447461 0.50700003 0.095116585 1.748142e-38 379 133
0.053336401 0.50700003 0.095116585 1.7114067e-38 380 133
0.05422534 0.50700003 0.095116585 1.6468697e-38 381 133
0.055222984 0.50800002 0.095304191 1.5831628e-38 382 133
0.056224141 0.509 0.095491789 1.5831628e-38 383 133
0.057228796 0.50999999 0.095679395 1.5091921e-38 384 133
0.058122993 0.50999999 0.095679395 1.4815335e-38 385 133
0.059132915 0.51099998 0.095867001 1.582659e-38 386 133
0.06002887 0.51099998 0.095867001 1.582659e-38 387 133
0.061163284 0.51300001 0.096242219 1.6652405e-38 388 133
0.062062737 0.51300001 0.096242219 1.6468372e-38 389 133
0.062962197 0.51300001 0.096242219 1.5823738e-38 390 133
0.063986145 0.514 0.096429825 1.536276e-38 391 133
0.06488736 0.514 0.096429825 1.5274177e-38 392 133
0.065916561 0.51499999 0.09661743 1.7487232e-38 393 133
0.066949278 0.51599997 0.096805036 1.5195302e-38 394 133
0.067985497 0.51700002 0.096992642 1.4549933e-38 395 133
0.068891972 0.51700002 0.096992642 1.3898082e-38 396 133
0.069798447 0.51700002 0.096992642 1.4082474e-38 397 133
0.070841677 0.51800001 0.097180255 1.6398896e-38 398 133
0.071888417 0.51899999 0.09736786 1.7044265e-38 399 133
0.072798401 0.51899999 0.09736786 1.3546619e-38 400 133
0.073850393 0.51999998 0.097555466 1.3546619e-38 401 133
0.07490591 0.52100003 0.097743072 1.4379256e-38 402 133
0.075819395 0.52100003 0.097743072 1.4471452e-38 403 133
0.076732881 0.52100003 0.097743072 1.4656211e-38 404 133
0.077646367 0.52100003 0.097743072 1.5854755e-38 405 133
0.078710638 0.52200001 0.097930677 1.5486698e-38 406 133
0.079625882 0.52200001 0.097930677 1.5486698e-38 407 133
0.080695413 0.523 0.098118283 1.603843e-38 408 133
0.081768446 0.52399999 0.098305888 1.5946234e-38 409 133
0.082844988 0.52499998 0.098493494 1.5021033e-38 410 133
0.083765492 0.52499998 0.098493494 1.4006879e-38 411 133
0.084847309 0.52600002 0.098681107 1.3082033e-38 412 133
0.08593262 0.52700001 0.098868713 1.1238121e-38 413 133
0.08702144 0.528 0.099056311 1.1696212e-38 414 133
0.088113762 0.52899998 0.099243917 1.0958647e-38 415 133
0.089209594 0.52999997 0.099431522 1.2148533e-38 416 133
0.090479009 0.53200001 0.099806741 1.2978294e-38 417 133
0.09158361 0.53299999 0.099994346 1.3713321e-38 418 133
0.092518136 0.53299999 0.099994346 1.3067952e-38 419 133
0.093627989 0.53399998 0.10018195 1.2057391e-38 420 133
0.094564274 0.53399998 0.10018195 1.2334337e-38 421 133
0.095500551 0.53399998 0.10018195 1.307082e-38 422 133
0.096436836 0.53399998 0.10018195 1.3900581e-38 423 133
0.097555466 0.53500003 0.10036957 1.545818e-38 424 133
0.098677598 0.53600001 0.10055717 1.545818e-38 425 133
0.099803239 0.537 0.10074478 1.5365278e-38 426 133
0.10093238 0.53799999 0.10093238 1.6010648e-38 427 133
0.10206503 0.53899997 0.10111998 1.4733629e-38 428 133
0.10301007 0.53899997 0.10111998 1.7407302e-38 429 133
-0.061086133 0.67000002 0.12452174 1.7894253e-38 268 134
-0.05973256 0.66799998 0.12415002 1.6972297e-38 269 134
-0.058473662 0.667 0.12396416 1.5125468e-38 270 134
-0.057218276 0.66600001 0.12377831 1.1806426e-38 271 134
-0.055882234 0.66399997 0.1234066 1.2810842e-38 272 134
-0.054635618 0.66299999 0.12322076 1.3087068e-38 273 134
-0.053392503 0.662 0.12303489 1.2165822e-38 274 134
-0.052152898 0.66100001 0.12284905 1.1243506e-38 275 134
-0.050993945 0.66100001 0.12284905 1.0961143e-38 276 134
-0.049684204 0.65899998 0.12247734 9.5782085e-39 277 134
-0.048234195 0.65499997 0.12173393 1.1883801e-38 278 134
-0.047085766 0.65499997 0.12173393 1.2621368e-38 279 134
-0.045306131 0.64600003 0.12006126 1.1606487e-38 280 134
-0.044036716 0.64399999 0.11968954 1.0868922e-38 281 134
-0.042840946 0.64300001 0.11950368 1.0956451e-38 282 134
-0.041583803 0.64099997 0.11913198 1.4275494e-38 283 134
-0.040270559 0.63800001 0.11857442 1.5024581e-38 284 134
-0.039090566 0.63700002 0.11838858 1.4748354e-38 285 134
-0.037854467 0.63499999 0.11801686 1.5023499e-38 286 134
-0.036451798 0.63 0.1170876 1.4378129e-38 287 134
-0.035178877 0.62699997 0.11653003 1.4283386e-38 288 134
-0.033970833 0.625 0.11615833 1.3638017e-38 289 134
-0.032874998 0.625 0.11615833 1.3077645e-38 290 134
-0.031626627 0.62199998 0.11560076 1.1509959e-38 291 134
-0.030437866 0.62 0.11522906 1.1973124e-38 292 134
-0.029256117 0.61799997 0.11485735 1.2065679e-38 293 134
-0.028081387 0.616 0.11448564 1.2068212e-38 294 134
-0.026913667 0.61400002 0.11411394 1.3358951e-38 295 134
-0.025752958 0.61199999 0.11374224 1.4006115e-38 296 134
-0.024639593 0.611 0.11355638 1.3821724e-38 297 134
-0.023529733 0.61000001 0.11337054 1.3545513e-38 298 134
-0.022386558 0.60799998 0.11299882 1.5389067e-38 299 134
-0.021320533 0.60799998 0.11299882 1.4658026e-38 300 134
-0.020187879 0.60600001 0.11262712 1.4012657e-38 301 134
-0.01906224 0.60399997 0.1122554 1.4300069e-38 302 134
-0.017943613 0.602 0.1118837 1.6789351e-38 303 134
-0.016775893 0.59799999 0.11114029 1.6512769e-38 304 134
-0.0157011 0.597 0.11095444 1.6420574e-38 305 134
-0.014605266 0.59500003 0.11058274 1.6420939e-38 306 134
-0.013539239 0.59399998 0.11039687 1.6420939e-38 307 134
-0.01243464 0.59100002 0.10983932 1.6420939e-38 308 134
-0.011359846 0.58899999 0.1094676 1.6513137e-38 309 134
-0.0103096 0.588 0.10928176 1.651312e-38 310 134
-0.0092628598 0.58700001 0.1090959 1.5130185e-38 311 134
-0.0082196267 0.58600003 0.10891005 1.6774903e-38 312 134
-0.0071798996 0.58499998 0.10872419 1.4100871e-38 313 134
-0.0061436798 0.58399999 0.10853834 1.7122743e-38 314 134
-0.0051109665 0.583 0.10835249 1.4817851e-38 315 134
-0.0040537068 0.57800001 0.10742322 1.7015765e-38 316 134
-0.0030350201 0.57700002 0.10723738 1.7015765e-38 317 134
-0.0020198398 0.57599998 0.10705151 1.7950727e-38 318 134
-0.0010064133 0.574 0.10667981 2.0532205e-38 319 134
0 0.57300001 0.10649396 1.8055187e-38 320 134
0.0010011533 0.57099998 0.10612225 1.648786e-38 321 134
0.0019987999 0.56999999 0.10593639 1.6388093e-38 322 134
0.0029929399 0.56900001 0.10575054 1.6848712e-38 323 134
0.0039835735 0.56800002 0.10556469 1.6944889e-38 324 134
0.0049531665 0.565 0.10500713 1.8328182e-38 325 134
0.0059332801 0.56400001 0.10482128 1.8511872e-38 326 134
0.0069098868 0.56300002 0.10463542 1.6391372e-38 327 134
0.0078829862 0.56199998 0.10444957 1.7866125e-38 328 134
0.0088367993 0.56 0.10407786 1.8880279e-38 329 134
0.0098186666 0.56 0.10407786 1.768277e-38 330 134
0.01076196 0.55800003 0.10370616 1.5285683e-38 331 134
0.011698239 0.55599999 0.10333445 1.6749976e-38 332 134
0.012627507 0.55400002 0.10296275 1.6565583e-38 333 134
0.013598854 0.55400002 0.10296275 1.7386706e-38 334 134
0.014517599 0.55199999 0.10259103 1.7571457e-38 335 134
0.015429333 0.55000001 0.10221934 1.729524e-38 336 134
0.016363859 0.54900002 0.10203348 1.7848413e-38 337 134
0.017294878 0.54799998 0.10184762 1.7486121e-38 338 134
0.018222392 0.54699999 0.10166176 1.7393925e-38 339 134
0.0191464 0.546 0.10147592 1.748649e-38 340 134
0.020030081 0.54400003 0.10110421 1.7209544e-38 341 134
0.020945318 0.54299998 0.10091835 1.7031309e-38 342 134
0.021776399 0.54000002 0.1003608 1.8783024e-38 343 134
0.022681117 0.53899997 0.10017494 1.7684963e-38 344 134
0.023582332 0.53799999 0.099989086 1.7777158e-38 345 134
0.024480039 0.537 0.099803239 1.7495885e-38 346 134
0.025374239 0.53600001 0.099617384 1.7772114e-38 347 134
0.026215838 0.53399998 0.099245667 1.8421796e-38 348 134
0.027152117 0.53399998 0.099245667 1.7408003e-38 349 134
0.028035799 0.53299999 0.099059828 1.7768466e-38 350 134
0.02886162 0.53100002 0.098688126 1.6293336e-38 351 134
0.02973653 0.52999997 0.098502256 1.7203744e-38 352 134
0.030665798 0.52999997 0.098502256 1.7295941e-38 353 134
0.031535454 0.52899998 0.098316409 1.7296296e-38 354 134
0.032462966 0.52899998 0.098316409 1.7296296e-38 355 134
0.033264238 0.52700001 0.097944699 1.7387765e-38 356 134
0.033928752 0.523 0.097201288 1.7387765e-38 357 134
0.03477912 0.52200001 0.09701544 1.7387763e-38 358 134
0.035625979 0.52100003 0.096829586 1.7387763e-38 359 134
0.036469329 0.51999998 0.096643731 1.7205166e-38 360 134
0.037237294 0.51800001 0.096272022 1.7205166e-38 361 134
0.038071878 0.51700002 0.096086174 1.7205169e-38 362 134
0.038978353 0.51700002 0.096086174 1.7297366e-38 363 134
0.039807677 0.51599997 0.095900312 1.7297013e-38 364 134
0.040633496 0.51499999 0.095714465 1.7204816e-38 365 134
0.041455809 0.514 0.09552861 1.7204464e-38 366 134
0.042357024 0.514 0.09552861 1.7020432e-38 367 134
0.043174081 0.51300001 0.095342763 1.7021155e-38 368 134
0.043987628 0.51200002 0.095156908 1.711335e-38 369 134
0.044797663 0.51099998 0.094971046 1.6837502e-38 370 134
0.045604199 0.50999999 0.094785191 1.7114448e-38 371 134
0.046316054 0.50800002 0.094413497 1.693296e-38 372 134
0.047206748 0.50800002 0.094413497 1.693296e-38 373 134
0.048002761 0.50700003 0.094227642 1.684113e-38 374 134
0.048891701 0.50700003 0.094227642 1.6657099e-38 375 134
0.049780641 0.50700003 0.094227642 1.7298853e-38 376 134
0.050669581 0.50700003 0.094227642 1.7114462e-38 377 134
0.051558521 0.50700003 0.094227642 1.7204855e-38 378 134
0.052447461 0.50700003 0.094227642 1.7020464e-38 379 134
0.053336401 0.50700003 0.094227642 1.692936e-38 380 134
0.05422534 0.50700003 0.094227642 1.7206307e-38 381 134
0.055222984 0.50800002 0.094413497 1.5287138e-38 382 134
0.056113683 0.50800002 0.094413497 1.6393125e-38 383 134
0.057116587 0.509 0.094599344 1.5562643e-38 384 134
0.058009028 0.509 0.094599344 1.3626535e-38 385 134
0.058901481 0.509 0.094599344 1.4722779e-38 386 134
0.06002887 0.51099998 0.094971046 1.5460704e-38 387 134
0.061163284 0.51300001 0.095342763 1.4726751e-38 388 134
0.062062737 0.51300001 0.095342763 1.5095534e-38 389 134
0.06308493 0.514 0.09552861 1.4637094e-38 390 134
0.063986145 0.514 0.09552861 1.426831e-38 391 134
0.06488736 0.514 0.09552861 1.3812746e-38 392 134
0.065916561 0.51499999 0.095714465 1.667045e-38 393 134
0.066949278 0.51599997 0.095900312 1.5941173e-38 394 134
0.067985497 0.51700002 0.096086174 1.4834827e-38 395 134
0.068891972 0.51700002 0.096086174 1.353471e-38 396 134
0.069798447 0.51700002 0.096086174 1.2428363e-38 397 134
0.070841677 0.51800001 0.096272022 1.5939725e-38 398 134
0.071888417 0.51899999 0.096457876 1.7046074e-38 399 134
0.072798401 0.51899999 0.096457876 1.2717952e-38 400 134
0.073850393 0.51999998 0.096643731 1.3179291e-38 401 134
0.07490591 0.52100003 0.096829586 1.4655861e-38 402 134
0.075819395 0.52100003 0.096829586 1.5209035e-38 403 134
0.076732881 0.52100003 0.096829586 1.5393428e-38 404 134
0.077646367 0.52100003 0.096829586 1.5578178e-38 405 134
0.078710638 0.52200001 0.09701544 1.548453e-38 406 134
0.079778418 0.523 0.097201288 1.4654411e-38 407 134
0.0808497 0.52399999 0.097387142 1.5112858e-38 408 134
0.081924498 0.52499998 0.09757299 1.4374934e-38 409 134
0.082844988 0.52499998 0.09757299 1.4093292e-38 410 134
0.084084608 0.52700001 0.097944699 1.3355727e-38 411 134
0.085008614 0.52700001 0.097944699 1.2891136e-38 412 134
0.086095676 0.528 0.098130554 1.1692594e-38 413 134
0.087186247 0.52899998 0.098316409 1.1781543e-38 414 134
0.088280328 0.52999997 0.098502256 1.1413119e-38 415 134
0.089209594 0.52999997 0.098502256 1.2148874e-38 416 134
0.090479009 0.53200001 0.098873973 1.2701689e-38 417 134
0.09158361 0.53299999 0.099059828 1.2610212e-38 418 134
0.092691712 0.53399998 0.099245667 1.2241788e-38 419 134
0.093627989 0.53399998 0.099245667 1.1783694e-38 420 134
0.094564274 0.53399998 0.099245667 1.1783694e-38 421 134
0.095500551 0.53399998 0.099245667 1.2610215e-38 422 134
0.096436836 0.53399998 0.099245667 1.3439975e-38 423 134
0.097555466 0.53500003 0.099431537 1.5275236e-38 424 134
0.098677598 0.53600001 0.099617384 1.5183041e-38 425 134
0.099803239 0.537 0.099803239 1.5181613e-38 426 134
0.10111998 0.53899997 0.10017494 1.5550394e-38 427 134
0.10206503 0.53899997 0.10017494 1.4919103e-38 428 134
0.10301007 0.53899997 0.10017494 1.731655e-38 429 134
-0.05973256 0.66799998 0.12297879 1.6788629e-38 269 135
-0.058473662 0.667 0.12279469 1.5033273e-38 270 135
-0.057218276 0.66600001 0.1226106 1.1068861e-38 271 135
-0.055882234 0.66399997 0.12224238 1.2350582e-38 272 135
-0.054635618 0.66299999 0.12205829 1.4102299e-38 273 135
-0.053473156 0.66299999 0.12205829 1.3549479e-38 274 135
-0.052152898 0.66100001 0.12169009 1.1797763e-38 275 135
-0.050993945 0.66100001 0.12169009 1.0592344e-38 276 135
-0.049684204 0.65899998 0.12132189 8.9324636e-39 277 135
-0.048234195 0.65499997 0.12058549 1.2713932e-38 278 135
-0.047085766 0.65499997 0.12058549 1.4742236e-38 279 135
-0.045376267 0.64700001 0.11911271 1.2624996e-38 280 135
-0.044036716 0.64399999 0.1185604 1.0504856e-38 281 135
-0.042840946 0.64300001 0.11837629 1.0774231e-38 282 135
-0.041583803 0.64099997 0.1180081 1.3816687e-38 283 135
-0.040270559 0.63800001 0.1174558 1.4011152e-38 284 135
-0.039090566 0.63700002 0.1172717 1.4195902e-38 285 135
-0.037914075 0.63599998 0.1170876 1.4472137e-38 286 135
-0.03656752 0.63200003 0.11635119 1.4748722e-38 287 135
-0.035291094 0.62900001 0.11579889 1.5298654e-38 288 135
-0.034133893 0.62800002 0.1156148 1.5022065e-38 289 135
-0.032980196 0.62699997 0.1154307 1.3355316e-38 290 135
-0.031779166 0.625 0.1150625 1.031322e-38 291 135
-0.03048696 0.62099999 0.1143261 1.169472e-38 292 135
-0.029303461 0.61900002 0.1139579 1.1418492e-38 293 135
-0.028081387 0.616 0.1134056 1.0684539e-38 294 135
-0.026913667 0.61400002 0.1130374 1.2528452e-38 295 135
-0.025795039 0.61299998 0.1128533 1.3822781e-38 296 135
-0.024639593 0.611 0.1124851 1.3638391e-38 297 135
-0.023568306 0.611 0.1124851 1.3545497e-38 298 135
-0.022423381 0.60900003 0.1121169 1.4651485e-38 299 135
-0.021320533 0.60799998 0.11193279 1.3919e-38 300 135
-0.020221192 0.60699999 0.1117487 1.3458023e-38 301 135
-0.019125359 0.60600001 0.1115646 1.3930197e-38 302 135
-0.017973419 0.60299999 0.11101229 1.706449e-38 303 135
-0.016832 0.60000002 0.11046001 1.6788279e-38 304 135
-0.015727401 0.59799999 0.11009179 1.6603886e-38 305 135
-0.014654359 0.597 0.1099077 1.6328741e-38 306 135
-0.013539239 0.59399998 0.1093554 1.6328741e-38 307 135
-0.012455679 0.59200001 0.1089872 1.6512413e-38 308 135
-0.011379133 0.58999997 0.10861899 1.6696446e-38 309 135
-0.010327132 0.58899999 0.10843489 1.6330528e-38 310 135
-0.0092786392 0.588 0.1082508 1.4947592e-38 311 135
-0.0082196267 0.58600003 0.1078826 1.6774903e-38 312 135
-0.0071798996 0.58499998 0.10769849 1.4100871e-38 313 135
-0.0061436798 0.58399999 0.1075144 1.7306058e-38 314 135
-0.0051109665 0.583 0.1073303 1.5001526e-38 315 135
-0.004067733 0.57999998 0.106778 1.7015775e-38 316 135
-0.0030402797 0.57800001 0.1064098 1.7015775e-38 317 135
-0.0020233467 0.57700002 0.1062257 1.7397203e-38 318 135
-0.0010081666 0.57499999 0.1058575 1.9793931e-38 319 135
0 0.57300001 0.1054893 1.8055558e-38 320 135
0.0010029067 0.57200003 0.1053052 1.7133603e-38 321 135
0.0019987999 0.56999999 0.10493699 1.7590246e-38 322 135
0.0029929399 0.56900001 0.1047529 1.7221103e-38 323 135
0.0039835735 0.56800002 0.1045688 1.6758686e-38 324 135
0.0049531665 0.565 0.1040165 1.6943079e-38 325 135
0.0059332801 0.56400001 0.1038324 1.7216419e-38 326 135
0.0069098868 0.56300002 0.1036483 1.6663604e-38 327 135
0.0078829862 0.56199998 0.10346419 1.7405499e-38 328 135
0.0088525796 0.56099999 0.1032801 1.8973183e-38 329 135
0.0098186666 0.56 0.10309599 1.7964807e-38 330 135
0.01076196 0.55800003 0.1027278 1.7411635e-38 331 135
0.01171928 0.55699998 0.10254369 1.7499107e-38 332 135
0.0126503 0.55500001 0.1021755 1.5931421e-38 333 135
0.013598854 0.55400002 0.1019914 1.6744583e-38 334 135
0.014517599 0.55199999 0.10162319 1.6652388e-38 335 135
0.015457386 0.551 0.1014391 1.7111551e-38 336 135
0.016393667 0.55000001 0.101255 1.7203747e-38 337 135
0.017294878 0.54799998 0.10088679 1.7388508e-38 338 135
0.018222392 0.54699999 0.1007027 1.7019726e-38 339 135
0.0191464 0.546 0.1005186 1.7295238e-38 340 135
0.020030081 0.54400003 0.1001504 1.7203041e-38 341 135
0.020945318 0.54299998 0.099966295 1.6840764e-38 342 135
0.021816725 0.54100001 0.099598095 1.8039307e-38 343 135
0.022723202 0.54000002 0.099413998 1.7401882e-38 344 135
0.023582332 0.53799999 0.099045791 1.7955056e-38 345 135
0.024480039 0.537 0.098861694 1.7403337e-38 346 135
0.025374239 0.53600001 0.098677598 1.8048706e-38 347 135
0.026215838 0.53399998 0.098309398 1.8054837e-38 348 135
0.027152117 0.53399998 0.098309398 1.7870445e-38 349 135
0.028035799 0.53299999 0.098125294 1.7869329e-38 350 135
0.028915973 0.53200001 0.097941197 1.5841025e-38 351 135
0.02979264 0.53100002 0.097757101 1.7023316e-38 352 135
0.030665798 0.52999997 0.09757299 1.6285751e-38 353 135
0.031535454 0.52899998 0.097388893 1.7296643e-38 354 135
0.032462966 0.52899998 0.097388893 1.7204448e-38 355 135
0.03332736 0.528 0.097204797 1.7387765e-38 356 135
0.033993628 0.52399999 0.096468396 1.7479961e-38 357 135
0.03477912 0.52200001 0.096100196 1.7388846e-38 358 135
0.035625979 0.52100003 0.0959161 1.7296649e-38 359 135
0.036469329 0.51999998 0.095731996 1.6928586e-38 360 135
0.037237294 0.51800001 0.095363796 1.6652e-38 361 135
0.038071878 0.51700002 0.095179707 1.6835671e-38 362 135
0.038978353 0.51700002 0.095179707 1.7112255e-38 363 135
0.039884828 0.51700002 0.095179707 1.7020785e-38 364 135
0.040712398 0.51599997 0.094995588 1.7020785e-38 365 135
0.041455809 0.514 0.094627403 1.7020785e-38 366 135
0.042357024 0.514 0.094627403 1.7020785e-38 367 135
0.043174081 0.51300001 0.094443299 1.6929303e-38 368 135
0.043987628 0.51200002 0.094259202 1.6929303e-38 369 135
0.044797663 0.51099998 0.094075091 1.6836759e-38 370 135
0.045604199 0.50999999 0.093890995 1.7021152e-38 371 135
0.046407226 0.509 0.093706898 1.6746035e-38 372 135
0.047206748 0.50800002 0.093522795 1.7114458e-38 373 135
0.048002761 0.50700003 0.093338706 1.6838246e-38 374 135
0.048891701 0.50700003 0.093338706 1.6838246e-38 375 135
0.049780641 0.50700003 0.093338706 1.6928994e-38 376 135
0.050669581 0.50700003 0.093338706 1.6652407e-38 377 135
0.051558521 0.50700003 0.093338706 1.6744233e-38 378 135
0.052447461 0.50700003 0.093338706 1.6375092e-38 379 135
0.053336401 0.50700003 0.093338706 1.6563471e-38 380 135
0.05422534 0.50700003 0.093338706 1.8591775e-38 381 135
0.055222984 0.50800002 0.093522795 1.6126284e-38 382 135
0.056113683 0.50800002 0.093522795 1.7601414e-38 383 135
0.057116587 0.509 0.093706898 1.6400708e-38 384 135
0.058009028 0.509 0.093706898 1.4280207e-38 385 135
0.058901481 0.509 0.093706898 1.399496e-38 386 135
0.059793927 0.509 0.093706898 1.4732885e-38 387 135
0.061282504 0.514 0.094627403 1.4185842e-38 388 135
0.062183715 0.514 0.094627403 1.5384384e-38 389 135
0.06308493 0.514 0.094627403 1.5848624e-38 390 135
0.064110629 0.51499999 0.094811492 1.575607e-38 391 135
0.06513983 0.51599997 0.094995588 1.483736e-38 392 135
0.066044554 0.51599997 0.094995588 1.5944068e-38 393 135
0.06707903 0.51700002 0.095179707 1.5760391e-38 394 135
0.067985497 0.51700002 0.095179707 1.5115022e-38 395 135
0.068891972 0.51700002 0.095179707 1.3352857e-38 396 135
0.069933452 0.51800001 0.095363796 1.1601499e-38 397 135
0.070978433 0.51899999 0.095547892 1.5663155e-38 398 135
0.072026931 0.51999998 0.095731996 1.7138644e-38 399 135
0.072938658 0.51999998 0.095731996 1.1334302e-38 400 135
0.073992424 0.52100003 0.0959161 1.1887476e-38 401 135
0.07490591 0.52100003 0.0959161 1.4838805e-38 402 135
0.075819395 0.52100003 0.0959161 1.5299783e-38 403 135
0.076732881 0.52100003 0.0959161 1.5115025e-38 404 135
0.077646367 0.52100003 0.0959161 1.4746243e-38 405 135
0.078861423 0.523 0.0962843 1.3913946e-38 406 135
0.079930954 0.52399999 0.096468396 1.1055881e-38 407 135
0.081003994 0.52499998 0.096652493 1.1507483e-38 408 135
0.081924498 0.52499998 0.096652493 1.0677722e-38 409 135
0.083002806 0.52600002 0.096836604 1.1225485e-38 410 135
0.084244154 0.528 0.097204797 1.1870855e-38 411 135
0.085169919 0.528 0.097204797 1.2516593e-38 412 135
0.086095676 0.528 0.097204797 1.279354e-38 413 135
0.087186247 0.52899998 0.097388893 1.2333643e-38 414 135
0.088280328 0.52999997 0.09757299 1.2241448e-38 415 135
0.089209594 0.52999997 0.09757299 1.2242154e-38 416 135
0.090479009 0.53200001 0.097941197 1.233435e-38 417 135
0.09158361 0.53299999 0.098125294 1.1691135e-38 418 135
0.092691712 0.53399998 0.098309398 1.1414188e-38 419 135
0.093627989 0.53399998 0.098309398 1.1782252e-38 420 135
0.094564274 0.53399998 0.098309398 1.1782252e-38 421 135
0.095500551 0.53399998 0.098309398 1.2242151e-38 422 135
0.096798025 0.53600001 0.098677598 1.2887521e-38 423 135
0.097737819 0.53600001 0.098677598 1.4722431e-38 424 135
0.098861694 0.537 0.098861694 1.4906824e-38 425 135
0.099989086 0.53799999 0.099045791 1.5179819e-38 426 135
0.10111998 0.53899997 0.099229895 1.5917384e-38 427 135
0.10206503 0.53899997 0.099229895 1.5106016e-38 428 135
0.1032012 0.54000002 0.099413998 1.7134678e-38 429 135
-0.061268479 0.67199999 0.12253696 1.7801705e-38 268 136
-0.0599114 0.67000002 0.12217227 1.7156335e-38 269 136
-0.058561329 0.66799998 0.12180757 1.5586081e-38 270 136
-0.057304189 0.667 0.12162521 1.0976299e-38 271 136
-0.056050558 0.66600001 0.12144288 1.1981428e-38 272 136
-0.054718021 0.66399997 0.12107819 1.3733144e-38 273 136
-0.053473156 0.66299999 0.12089583 1.3644908e-38 274 136
-0.0522318 0.662 0.12071349 1.253892e-38 275 136
-0.050993945 0.66100001 0.12053115 1.2158237e-38 276 136
-0.049684204 0.65899998 0.12016644 1.0775303e-38 277 136
-0.048455119 0.65799999 0.1199841 1.4007567e-38 278 136
-0.047301427 0.65799999 0.1199841 1.585148e-38 279 136
-0.045376267 0.64700001 0.11797829 1.2630779e-38 280 136
-0.044173479 0.64600003 0.11779595 9.5883231e-39 281 136
-0.042907573 0.64399999 0.11743125 9.4889024e-39 282 136
-0.041648682 0.64200002 0.11706656 1.2346967e-38 283 136
-0.040270559 0.63800001 0.11633718 1.3917517e-38 284 136
-0.039029196 0.63599998 0.11597247 1.42863e-38 285 136
-0.037854467 0.63499999 0.11579013 1.4195546e-38 286 136
-0.03656752 0.63200003 0.1152431 1.4380296e-38 287 136
-0.035403304 0.63099998 0.11506075 1.5022793e-38 288 136
-0.034188248 0.62900001 0.11469605 1.5022793e-38 289 136
-0.033032801 0.62800002 0.11451371 1.4649669e-38 290 136
-0.031880856 0.62699997 0.11433136 1.1607572e-38 291 136
-0.030536054 0.62199998 0.11341961 1.1694353e-38 292 136
-0.02939814 0.62099999 0.11323728 1.1233376e-38 293 136
-0.028172556 0.61799997 0.11269023 1.2344405e-38 294 136
-0.026957499 0.61500001 0.1121432 1.3542949e-38 295 136
-0.025795039 0.61299998 0.1117785 1.4560346e-38 296 136
-0.02467992 0.61199999 0.11159615 1.446815e-38 297 136
-0.023568306 0.611 0.11141381 1.4006466e-38 298 136
-0.0224602 0.61000001 0.11123147 1.4283413e-38 299 136
-0.021355599 0.60900003 0.11104912 1.3364366e-38 300 136
-0.020254506 0.60799998 0.11086677 1.1888875e-38 301 136
-0.019156918 0.60699999 0.11068442 1.3282657e-38 302 136
-0.018003225 0.60399997 0.11013738 1.7247069e-38 303 136
-0.016860053 0.60100001 0.10959034 1.6789e-38 304 136
