# .PCD v.7 - Point Cloud Data file format
FIELDS x y z rgb imX imY
SIZE 4 4 4 4 4 4
TYPE F F F F F F
COUNT 1 1 1 1 1 1
WIDTH 859
HEIGHT 1
VIEWPOINT 0 0 0 1 0 0 0
POINTS 859
DATA ascii
0.05169528 0.546 0.044994041 1.4201021e-38 374 193
0.052652601 0.546 0.044994041 1.4108825e-38 375 193
0.053708106 0.54699999 0.045076445 1.4754557e-38 376 193
0.054767113 0.54799998 0.045158848 1.4939307e-38 377 193
0.05582964 0.54900002 0.045241263 1.4480847e-38 378 193
0.056895666 0.55000001 0.045323666 1.4941826e-38 379 193
0.057859998 0.55000001 0.045323666 1.5402081e-38 380 193
0.058824331 0.55000001 0.045323666 1.5586473e-38 381 193
0.05978867 0.55000001 0.045323666 1.5311684e-38 382 193
0.060863461 0.551 0.04540607 1.5219487e-38 383 193
0.061829545 0.551 0.04540607 1.42961e-38 384 193
0.062795632 0.551 0.04540607 1.3650731e-38 385 193
0.063877434 0.55199999 0.04548848 1.4570892e-38 386 193
0.064845271 0.55199999 0.04548848 1.5031869e-38 387 193
0.065932341 0.55299997 0.045570884 1.5583968e-38 388 193
0.066901937 0.55299997 0.045570884 1.1896503e-38 389 193
0.067994267 0.55400002 0.045653291 1.1407098e-38 390 193
0.068965614 0.55400002 0.045653291 1.0024163e-38 391 193
0.069936961 0.55400002 0.045653291 1.3064083e-38 392 193
0.071036294 0.55500001 0.045735702 2.0440092e-38 393 193
0.072139144 0.55599999 0.045818105 1.6506983e-38 394 193
0.073114 0.55599999 0.045818105 1.6691016e-38 395 193
0.0082617057 0.58899999 0.047504812 1.1778092e-38 328 194
0.0092786392 0.588 0.04742416 1.1962483e-38 329 194
0.0103096 0.588 0.04742416 1.2148301e-38 330 194
0.011321274 0.58700001 0.047343507 1.2701474e-38 331 194
0.01235048 0.58700001 0.047343507 1.3532995e-38 332 194
0.013288513 0.583 0.047020894 1.3717386e-38 333 194
0.01428616 0.58200002 0.046940241 1.4165379e-38 334 194
0.0153066 0.58200002 0.046940241 1.3243062e-38 335 194
0.01632704 0.58200002 0.046940241 1.4339689e-38 336 194
0.017347479 0.58200002 0.046940241 1.369432e-38 337 194
0.020906746 0.542 0.043714102 1.4439435e-38 342 194
0.021857051 0.542 0.043714102 1.5084804e-38 343 194
0.022807358 0.542 0.043714102 1.4535235e-38 344 194
0.023757666 0.542 0.043714102 1.4073896e-38 345 194
0.024662387 0.54100001 0.04363345 1.4063841e-38 346 194
0.025563601 0.54000002 0.043552797 1.4432983e-38 347 194
0.026510401 0.54000002 0.043552797 1.408903e-38 348 194
0.0274572 0.54000002 0.043552797 1.8698812e-38 349 194
0.028404001 0.54000002 0.043552797 1.8627127e-38 350 194
0.029350799 0.54000002 0.043552797 1.8073953e-38 351 194
0.0302976 0.54000002 0.043552797 1.7428587e-38 352 194
0.031244401 0.54000002 0.043552797 1.6230043e-38 353 194
0.032191198 0.54000002 0.043552797 1.5860535e-38 354 194
0.033138003 0.54000002 0.043552797 1.5307361e-38 355 194
0.034147918 0.54100001 0.04363345 1.5124405e-38 356 194
0.035096474 0.54100001 0.04363345 1.5124405e-38 357 194
0.036111653 0.542 0.043714102 1.4757064e-38 358 194
0.03706196 0.542 0.043714102 1.4388283e-38 359 194
0.038082398 0.54299998 0.043794755 1.4661995e-38 360 194
0.039034456 0.54299998 0.043794755 1.4293214e-38 361 194
0.039986517 0.54299998 0.043794755 1.411062e-38 362 194
0.040938579 0.54299998 0.043794755 1.4018424e-38 363 194
0.041967787 0.54400003 0.043875415 1.3925513e-38 364 194
0.043000501 0.54500002 0.043956067 1.3832957e-38 365 194
0.04403672 0.546 0.04403672 1.3740764e-38 366 194
0.044994041 0.546 0.04403672 1.3740764e-38 367 194
0.045951359 0.546 0.04403672 1.3742563e-38 368 194
0.046908677 0.546 0.04403672 1.401879e-38 369 194
0.047865998 0.546 0.04403672 1.4203537e-38 370 194
0.048823319 0.546 0.04403672 1.438793e-38 371 194
0.049780637 0.546 0.04403672 1.4939302e-38 372 194
0.050737958 0.546 0.04403672 1.5124052e-38 373 194
0.051789958 0.54699999 0.044117369 1.5675069e-38 374 194
0.052845463 0.54799998 0.044198021 1.4661276e-38 375 194
0.053904481 0.54900002 0.044278681 1.3832234e-38 376 194
0.054966997 0.55000001 0.044359334 1.3463453e-38 377 194
0.055931333 0.55000001 0.044359334 1.2916036e-38 378 194
0.05699911 0.551 0.044439986 1.4206774e-38 379 194
0.0579652 0.551 0.044439986 1.5494999e-38 380 194
0.058931284 0.551 0.044439986 1.5955977e-38 381 194
0.059897371 0.551 0.044439986 1.5313845e-38 382 194
0.06097392 0.55199999 0.044520639 1.5221649e-38 383 194
0.061941758 0.55199999 0.044520639 1.4388655e-38 384 194
0.063023567 0.55299997 0.044601291 1.3743285e-38 385 194
0.063993156 0.55299997 0.044601291 1.4753841e-38 386 194
0.065080225 0.55400002 0.044681948 1.4938233e-38 387 194
0.066051573 0.55400002 0.044681948 1.4938954e-38 388 194
0.06702292 0.55400002 0.044681948 1.1066738e-38 389 194
0.067994267 0.55400002 0.044681948 1.0947196e-38 390 194
0.068965614 0.55400002 0.044681948 1.0670968e-38 391 194
0.069936961 0.55400002 0.044681948 1.3249546e-38 392 194
0.071036294 0.55500001 0.0447626 2.0440805e-38 393 194
0.072139144 0.55599999 0.044843253 1.668993e-38 394 194
0.073114 0.55599999 0.044843253 1.6505539e-38 395 194
0.0082617057 0.58899999 0.046472099 1.1595139e-38 328 195
0.0092786392 0.588 0.046393197 1.1687335e-38 329 195
0.0103096 0.588 0.046393197 1.1871721e-38 330 195
0.011321274 0.58700001 0.046314299 1.2240143e-38 331 195
0.012329441 0.58600003 0.046235401 1.2612853e-38 332 195
0.01326572 0.58200002 0.045919798 1.3627005e-38 333 195
0.01428616 0.58200002 0.045919798 1.4081462e-38 334 195
0.015280298 0.58099997 0.045840897 1.2329385e-38 335 195
0.016298985 0.58099997 0.045840897 1.4338967e-38 336 195
0.017347479 0.58200002 0.045919798 1.4154576e-38 337 195
0.020906746 0.542 0.042763796 1.4349044e-38 342 195
0.021857051 0.542 0.042763796 1.4994413e-38 343 195
0.022807358 0.542 0.042763796 1.4628871e-38 344 195
0.023757666 0.542 0.042763796 1.4352285e-38 345 195
0.024662387 0.54100001 0.042684902 1.4530212e-38 346 195
0.025610941 0.54100001 0.042684902 1.4622408e-38 347 195
0.026559494 0.54100001 0.042684902 1.4643283e-38 348 195
0.0274572 0.54000002 0.042606 1.8607695e-38 349 195
0.028404001 0.54000002 0.042606 1.7983205e-38 350 195
0.029350799 0.54000002 0.042606 1.6969413e-38 351 195
0.0302976 0.54000002 0.042606 1.5407492e-38 352 195
0.031244401 0.54000002 0.042606 1.3655415e-38 353 195
0.032191198 0.54000002 0.042606 1.5123696e-38 354 195
0.033138003 0.54000002 0.042606 1.4939305e-38 355 195
0.034147918 0.54100001 0.042684902 1.4664147e-38 356 195
0.035096474 0.54100001 0.042684902 1.4571951e-38 357 195
0.036111653 0.542 0.042763796 1.4479403e-38 358 195
0.03706196 0.542 0.042763796 1.4479403e-38 359 195
0.038082398 0.54299998 0.042842697 1.4293932e-38 360 195
0.039034456 0.54299998 0.042842697 1.4109541e-38 361 195
0.040060163 0.54400003 0.042921603 1.4109544e-38 362 195
0.041013975 0.54400003 0.042921603 1.3925513e-38 363 195
0.042044934 0.54500002 0.043000501 1.4016628e-38 364 195
0.043000501 0.54500002 0.043000501 1.4016628e-38 365 195
0.04403672 0.546 0.043079399 1.374148e-38 366 195
0.044994041 0.546 0.043079399 1.374148e-38 367 195
0.045951359 0.546 0.043079399 1.3467772e-38 368 195
0.046994589 0.54699999 0.043158296 1.4113141e-38 369 195
0.047953665 0.54699999 0.043158296 1.4572314e-38 370 195
0.048912738 0.54699999 0.043158296 1.4757064e-38 371 195
0.049871814 0.54699999 0.043158296 1.5400636e-38 372 195
0.050830882 0.54699999 0.043158296 1.5492831e-38 373 195
0.051884636 0.54799998 0.043237198 1.5768339e-38 374 195
0.0529419 0.54900002 0.043316104 1.512297e-38 375 195
0.054002669 0.55000001 0.043394998 1.3741115e-38 376 195
0.055066936 0.551 0.043473899 1.3741115e-38 377 195
0.056033026 0.551 0.043473899 1.3558888e-38 378 195
0.057102561 0.55199999 0.043552797 1.4849627e-38 379 195
0.058070395 0.55199999 0.043552797 1.5312403e-38 380 195
0.05903824 0.55199999 0.043552797 1.558899e-38 381 195
0.060006075 0.55199999 0.043552797 1.5313482e-38 382 195
0.061084371 0.55299997 0.043631695 1.5129091e-38 383 195
0.062053967 0.55299997 0.043631695 1.4848554e-38 384 195
0.063023567 0.55299997 0.043631695 1.4203184e-38 385 195
0.063993156 0.55299997 0.043631695 1.4663444e-38 386 195
0.065080225 0.55400002 0.043710601 1.5031866e-38 387 195
0.066051573 0.55400002 0.043710601 1.5305216e-38 388 195
0.06702292 0.55400002 0.043710601 1.1156414e-38 389 195
0.067994267 0.55400002 0.043710601 1.1220542e-38 390 195
0.068965614 0.55400002 0.043710601 1.149713e-38 391 195
0.069936961 0.55400002 0.043710601 1.3802717e-38 392 195
0.071036294 0.55500001 0.043789499 2.0717749e-38 393 195
0.072268888 0.55699998 0.043947294 1.6874314e-38 394 195
0.0072412658 0.58999997 0.045516532 1.1595139e-38 327 196
0.0082617057 0.58899999 0.045439385 1.1779891e-38 328 196
0.0092786392 0.588 0.045362238 1.1779891e-38 329 196
0.010292066 0.58700001 0.045285095 1.2055396e-38 330 196
0.011321274 0.58700001 0.045285095 1.2055396e-38 331 196
0.012329441 0.58600003 0.045207947 1.2057897e-38 332 196
0.01326572 0.58200002 0.044899363 1.2795821e-38 333 196
0.01428616 0.58200002 0.044899363 1.4454929e-38 334 196
0.015280298 0.58099997 0.044822209 1.3071636e-38 335 196
0.016298985 0.58099997 0.044822209 1.4250006e-38 336 196
0.017317673 0.58099997 0.044822209 1.3604636e-38 337 196
0.021897377 0.54299998 0.041890636 1.5179524e-38 343 196
0.022849439 0.54299998 0.041890636 1.4631386e-38 344 196
0.023757666 0.542 0.041813493 1.4355158e-38 345 196
0.024707973 0.542 0.041813493 1.4439815e-38 346 196
0.02565828 0.542 0.041813493 1.4439815e-38 347 196
0.026559494 0.54100001 0.041736346 1.4829119e-38 348 196
0.027508046 0.54100001 0.041736346 1.8332553e-38 349 196
0.028456599 0.54100001 0.041736346 1.7891009e-38 350 196
0.029405152 0.54100001 0.041736346 1.6508075e-38 351 196
0.0302976 0.54000002 0.041659199 1.4393689e-38 352 196
0.031244401 0.54000002 0.041659199 1.2549777e-38 353 196
0.032250814 0.54100001 0.041736346 1.3741836e-38 354 196
0.033199366 0.54100001 0.041736346 1.3834033e-38 355 196
0.034147918 0.54100001 0.041736346 1.392551e-38 356 196
0.035161342 0.542 0.041813493 1.4109541e-38 357 196
0.036178276 0.54299998 0.041890636 1.3926226e-38 358 196
0.037130337 0.54299998 0.041890636 1.4387203e-38 359 196
0.038152535 0.54400003 0.041967787 1.4110973e-38 360 196
0.039106347 0.54400003 0.041967787 1.3834386e-38 361 196
0.040060163 0.54400003 0.041967787 1.3834386e-38 362 196
0.041089367 0.54500002 0.042044934 1.3834386e-38 363 196
0.042122077 0.546 0.042122077 1.3834386e-38 364 196
0.043079399 0.546 0.042122077 1.3834386e-38 365 196
0.04403672 0.546 0.042122077 1.3834386e-38 366 196
0.045076445 0.54699999 0.042199224 1.3741831e-38 367 196
0.046035521 0.54699999 0.042199224 1.3559239e-38 368 196
0.047080506 0.54799998 0.042276371 1.4296804e-38 369 196
0.048041333 0.54799998 0.042276371 1.4756343e-38 370 196
0.049002156 0.54799998 0.042276371 1.5125124e-38 371 196
0.049962983 0.54799998 0.042276371 1.5309514e-38 372 196
0.050923809 0.54799998 0.042276371 1.5309514e-38 373 196
0.051979322 0.54900002 0.042353522 1.5125124e-38 374 196
0.053038333 0.55000001 0.042430665 1.4664147e-38 375 196
0.054100849 0.551 0.042507812 1.3926226e-38 376 196
0.055166878 0.55199999 0.042584959 1.4387203e-38 377 196
0.056236409 0.55299997 0.042662103 1.4481203e-38 378 196
0.057206001 0.55299997 0.042662103 1.5218768e-38 379 196
0.058175597 0.55299997 0.042662103 1.5313485e-38 380 196
0.059145186 0.55299997 0.042662103 1.5497516e-38 381 196
0.060114782 0.55299997 0.042662103 1.4944342e-38 382 196
0.061194837 0.55400002 0.042739253 1.4206777e-38 383 196
0.062166188 0.55400002 0.042739253 1.4388652e-38 384 196
0.063137531 0.55400002 0.042739253 1.4296456e-38 385 196
0.064108886 0.55400002 0.042739253 1.457232e-38 386 196
0.065080225 0.55400002 0.042739253 1.4848907e-38 387 196
0.066051573 0.55400002 0.042739253 1.5304497e-38 388 196
0.067143902 0.55500001 0.042816401 1.0879107e-38 389 196
0.068117 0.55500001 0.042816401 1.1032557e-38 390 196
0.069090098 0.55500001 0.042816401 1.2138905e-38 391 196
0.070063196 0.55500001 0.042816401 1.4083983e-38 392 196
0.071292281 0.55699998 0.042970691 2.0537677e-38 393 196
0.072268888 0.55699998 0.042970691 1.770263e-38 394 196
0.0072412658 0.58999997 0.044482064 1.1595139e-38 327 197
0.0082617057 0.58899999 0.044406671 1.1504023e-38 328 197
0.0092786392 0.588 0.044331279 1.1504023e-38 329 197
0.010292066 0.58700001 0.044255886 1.205468e-38 330 197
0.011321274 0.58700001 0.044255886 1.2146875e-38 331 197
0.012329441 0.58600003 0.044180494 1.224014e-38 332 197
0.01326572 0.58200002 0.04387892 1.2517087e-38 333 197
0.01428616 0.58200002 0.04387892 1.3809579e-38 334 197
0.015280298 0.58099997 0.043803521 1.3809579e-38 335 197
0.016298985 0.58099997 0.043803521 1.4534507e-38 336 197
0.017317673 0.58099997 0.043803521 1.2506203e-38 337 197
0.020983893 0.54400003 0.041013975 1.4811464e-38 342 197
0.021897377 0.54299998 0.040938579 1.5825976e-38 343 197
0.022849439 0.54299998 0.040938579 1.4817582e-38 344 197
0.023801498 0.54299998 0.040938579 1.4540635e-38 345 197
0.024753559 0.54299998 0.040938579 1.4252549e-38 346 197
0.02565828 0.542 0.040863186 1.4345104e-38 347 197
0.026608584 0.542 0.040863186 1.4830201e-38 348 197
0.027558891 0.542 0.040863186 1.8517667e-38 349 197
0.028456599 0.54100001 0.040787794 1.7891009e-38 350 197
0.029405152 0.54100001 0.040787794 1.6508075e-38 351 197
0.0302976 0.54000002 0.040712401 1.4666315e-38 352 197
0.031244401 0.54000002 0.040712401 1.3743998e-38 353 197
0.032250814 0.54100001 0.040787794 1.4109178e-38 354 197
0.033199366 0.54100001 0.040787794 1.4109178e-38 355 197
0.034147918 0.54100001 0.040787794 1.4016622e-38 356 197
0.035161342 0.542 0.040863186 1.3832231e-38 357 197
0.036178276 0.54299998 0.040938579 1.3554921e-38 358 197
0.037130337 0.54299998 0.040938579 1.3554921e-38 359 197
0.038152535 0.54400003 0.041013975 1.3095742e-38 360 197
0.039178234 0.54500002 0.041089367 1.3188297e-38 361 197
0.0401338 0.54500002 0.041089367 1.3096467e-38 362 197
0.041089367 0.54500002 0.041089367 1.3649282e-38 363 197
0.042122077 0.546 0.04116476 1.401878e-38 364 197
0.043079399 0.546 0.04116476 1.401878e-38 365 197
0.044117369 0.54699999 0.041240152 1.4110976e-38 366 197
0.045158848 0.54799998 0.041315544 1.4110976e-38 367 197
0.046119675 0.54799998 0.041315544 1.4203891e-38 368 197
0.047166422 0.54900002 0.041390941 1.4757064e-38 369 197
0.048129 0.54900002 0.041390941 1.5216965e-38 370 197
0.049091578 0.54900002 0.041390941 1.5585746e-38 371 197
0.050054159 0.54900002 0.041390941 1.586269e-38 372 197
0.051109668 0.55000001 0.041466333 1.5585743e-38 373 197
0.052168678 0.551 0.041541725 1.4294651e-38 374 197
0.053231195 0.55199999 0.041617118 1.4018424e-38 375 197
0.054297224 0.55299997 0.04169251 1.3926595e-38 376 197
0.055366758 0.55400002 0.041767906 1.420354e-38 377 197
0.056338105 0.55400002 0.041767906 1.4481563e-38 378 197
0.057309452 0.55400002 0.041767906 1.5496075e-38 379 197
0.0582808 0.55400002 0.041767906 1.6232562e-38 380 197
0.05925215 0.55400002 0.041767906 1.5956333e-38 381 197
0.06022349 0.55400002 0.041767906 1.4850706e-38 382 197
0.061194837 0.55400002 0.041767906 1.3743998e-38 383 197
0.062166188 0.55400002 0.041767906 1.392803e-38 384 197
0.063137531 0.55400002 0.041767906 1.4296453e-38 385 197
0.064108886 0.55400002 0.041767906 1.457232e-38 386 197
0.065197699 0.55500001 0.041843299 1.4756711e-38 387 197
0.066170804 0.55500001 0.041843299 1.5026831e-38 388 197
0.067264877 0.55599999 0.041918691 1.041705e-38 389 197
0.068239726 0.55599999 0.041918691 1.0935337e-38 390 197
0.069214582 0.55599999 0.041918691 1.314839e-38 391 197
0.070189431 0.55599999 0.041918691 1.4639689e-38 392 197
0.071292281 0.55699998 0.041994084 2.1462167e-38 393 197
0.072268888 0.55699998 0.041994084 1.9267445e-38 394 197
0.073245496 0.55699998 0.041994084 1.8990499e-38 395 197
0.0082617057 0.58899999 0.043373957 1.1779891e-38 328 198
0.0092944186 0.58899999 0.043373957 1.1687335e-38 329 198
0.010292066 0.58700001 0.043226682 1.1871368e-38 330 198
0.011321274 0.58700001 0.043226682 1.2055399e-38 331 198
0.012329441 0.58600003 0.04315304 1.2056831e-38 332 198
0.01326572 0.58200002 0.042858478 1.2425255e-38 333 198
0.01428616 0.58200002 0.042858478 1.2981636e-38 334 198
0.015280298 0.58099997 0.042784836 1.3627005e-38 335 198
0.016298985 0.58099997 0.042784836 1.4726105e-38 336 198
0.017317673 0.58099997 0.042784836 1.2329019e-38 337 198
0.020030081 0.54400003 0.040060163 1.508229e-38 341 198
0.020983893 0.54400003 0.040060163 1.4904028e-38 342 198
0.021937707 0.54400003 0.040060163 1.6010736e-38 343 198
0.02289152 0.54400003 0.040060163 1.5093105e-38 344 198
0.023801498 0.54299998 0.039986517 1.4724683e-38 345 198
0.024753559 0.54299998 0.039986517 1.4345467e-38 346 198
0.025705619 0.54299998 0.039986517 1.4161075e-38 347 198
0.026657678 0.54299998 0.039986517 1.5108949e-38 348 198
0.027558891 0.542 0.039912879 1.7874819e-38 349 198
0.0285092 0.542 0.039912879 1.696798e-38 350 198
0.029405152 0.54100001 0.039839238 1.5769438e-38 351 198
0.030353706 0.54100001 0.039839238 1.4296088e-38 352 198
0.031302258 0.54100001 0.039839238 1.3926945e-38 353 198
0.032250814 0.54100001 0.039839238 1.4016622e-38 354 198
0.033260733 0.542 0.039912879 1.3556004e-38 355 198
0.034211036 0.542 0.039912879 1.3463453e-38 356 198
0.035161342 0.542 0.039912879 1.327906e-38 357 198
0.036244906 0.54400003 0.040060163 1.2725884e-38 358 198
0.037198722 0.54400003 0.040060163 1.2633688e-38 359 198
0.038222667 0.54500002 0.0401338 1.2358543e-38 360 198
0.039250117 0.546 0.040207438 1.263549e-38 361 198
0.040207438 0.546 0.040207438 1.2544739e-38 362 198
0.04116476 0.546 0.040207438 1.3190109e-38 363 198
0.042199224 0.54699999 0.040281076 1.4111342e-38 364 198
0.043158296 0.54699999 0.040281076 1.4203537e-38 365 198
0.044198021 0.54799998 0.040354718 1.4295734e-38 366 198
0.045241263 0.54900002 0.040428359 1.4664516e-38 367 198
0.046203841 0.54900002 0.040428359 1.4574115e-38 368 198
0.047252335 0.55000001 0.040502001 1.4851062e-38 369 198
0.048216663 0.55000001 0.040502001 1.5310961e-38 370 198
0.049180999 0.55000001 0.040502001 1.5587548e-38 371 198
0.050145332 0.55000001 0.040502001 1.6047803e-38 372 198
0.051202592 0.551 0.040575638 1.5863053e-38 373 198
0.052358039 0.55299997 0.040722914 1.4663791e-38 374 198
0.053327631 0.55299997 0.040722914 1.4387203e-38 375 198
0.054395415 0.55400002 0.040796563 1.4480847e-38 376 198
0.055366758 0.55400002 0.040796563 1.4573043e-38 377 198
0.056338105 0.55400002 0.040796563 1.4757074e-38 378 198
0.057309452 0.55400002 0.040796563 1.5771586e-38 379 198
0.0582808 0.55400002 0.040796563 1.5957052e-38 380 198
0.05925215 0.55400002 0.040796563 1.5864857e-38 381 198
0.06022349 0.55400002 0.040796563 1.5218763e-38 382 198
0.061305299 0.55500001 0.040870197 1.4389002e-38 383 198
0.062278397 0.55500001 0.040870197 1.4296806e-38 384 198
0.063251503 0.55500001 0.040870197 1.4389002e-38 385 198
0.064340316 0.55599999 0.040943839 1.5124772e-38 386 198
0.065315172 0.55599999 0.040943839 1.5309163e-38 387 198
0.066290021 0.55599999 0.040943839 1.4842437e-38 388 198
0.067385852 0.55699998 0.041017476 9.8642317e-39 389 198
0.06836246 0.55699998 0.041017476 1.130233e-38 390 198
0.069214582 0.55599999 0.040943839 1.3883807e-38 391 198
0.070189431 0.55599999 0.040943839 1.4641878e-38 392 198
0.071292281 0.55699998 0.041017476 2.0173614e-38 393 198
0.072268888 0.55699998 0.041017476 1.935929e-38 394 198
0.073245496 0.55699998 0.041017476 1.917454e-38 395 198
0.0082757324 0.58999997 0.04241313 1.1779888e-38 328 199
0.0092944186 0.58899999 0.042341247 1.1779888e-38 329 199
0.0103096 0.588 0.042269357 1.1872803e-38 330 199
0.011321274 0.58700001 0.042197473 1.1964998e-38 331 199
0.012329441 0.58600003 0.042125586 1.2056834e-38 332 199
0.013311306 0.58399999 0.041981813 1.2149029e-38 333 199
0.014310705 0.583 0.041909926 1.2703623e-38 334 199
0.0153066 0.58200002 0.041838042 1.362558e-38 335 199
0.016298985 0.58099997 0.041766152 1.4364528e-38 336 199
0.017317673 0.58099997 0.041766152 1.2520616e-38 337 199
0.020030081 0.54400003 0.039106347 1.4899331e-38 341 199
0.020983893 0.54400003 0.039106347 1.4905106e-38 342 199
0.021937707 0.54400003 0.039106347 1.5827061e-38 343 199
0.02289152 0.54400003 0.039106347 1.5184938e-38 344 199
0.023845334 0.54400003 0.039106347 1.5184938e-38 345 199
0.024799148 0.54400003 0.039106347 1.4903675e-38 346 199
0.02575296 0.54400003 0.039106347 1.4719644e-38 347 199
0.026706774 0.54400003 0.039106347 1.5019631e-38 348 199
0.027609739 0.54299998 0.039034456 1.6218174e-38 349 199
0.0285092 0.542 0.038962573 1.3465619e-38 350 199
0.029459506 0.542 0.038962573 1.2267076e-38 351 199
0.030409813 0.542 0.038962573 1.2265266e-38 352 199
0.03136012 0.542 0.038962573 1.2633688e-38 353 199
0.032310426 0.542 0.038962573 1.2636209e-38 354 199
0.033322096 0.54299998 0.039034456 1.28206e-38 355 199
0.034337282 0.54400003 0.039106347 1.36482e-38 356 199
0.035291094 0.54400003 0.039106347 1.3924427e-38 357 199
0.03637816 0.546 0.039250117 1.3926582e-38 358 199
0.037335481 0.546 0.039250117 1.3926582e-38 359 199
0.038292799 0.546 0.039250117 1.3926582e-38 360 199
0.039250117 0.546 0.039250117 1.3465604e-38 361 199
0.040281076 0.54699999 0.039322004 1.3190459e-38 362 199
0.041315544 0.54799998 0.039393891 1.3467044e-38 363 199
0.042353522 0.54900002 0.039465781 1.3651084e-38 364 199
0.043394998 0.55000001 0.039537668 1.3835834e-38 365 199
0.044359334 0.55000001 0.039537668 1.4663441e-38 366 199
0.045323666 0.55000001 0.039537668 1.6230765e-38 367 199
0.046372157 0.551 0.039609551 1.5680109e-38 368 199
0.047338247 0.551 0.039609551 1.5496078e-38 369 199
0.048304331 0.551 0.039609551 1.5772305e-38 370 199
0.049270418 0.551 0.039609551 1.5772305e-38 371 199
0.050236505 0.551 0.039609551 1.5773385e-38 372 199
0.051295515 0.55199999 0.039681438 1.5773385e-38 373 199
0.052358039 0.55299997 0.039753322 1.6046728e-38 374 199
0.053424068 0.55400002 0.039825212 1.558539e-38 375 199
0.054395415 0.55400002 0.039825212 1.5677588e-38 376 199
0.055366758 0.55400002 0.039825212 1.5769786e-38 377 199
0.056338105 0.55400002 0.039825212 1.558504e-38 378 199
0.057309452 0.55400002 0.039825212 1.6230409e-38 379 199
0.0582808 0.55400002 0.039825212 1.5589712e-38 380 199
0.05925215 0.55400002 0.039825212 1.5589712e-38 381 199
0.060332198 0.55500001 0.039897099 1.6046728e-38 382 199
0.061305299 0.55500001 0.039897099 1.5401359e-38 383 199
0.062390611 0.55599999 0.039968986 1.4296083e-38 384 199
0.063365467 0.55599999 0.039968986 1.457267e-38 385 199
0.064340316 0.55599999 0.039968986 1.4849979e-38 386 199
0.065432645 0.55699998 0.040040873 1.5126567e-38 387 199
0.066409253 0.55699998 0.040040873 1.4565127e-38 388 199
0.067385852 0.55699998 0.040040873 9.7713144e-39 389 199
0.06836246 0.55699998 0.040040873 1.1672542e-38 390 199
0.069339067 0.55699998 0.040040873 1.3423898e-38 391 199
0.070315681 0.55699998 0.040040873 1.2057885e-38 392 199
0.071292281 0.55699998 0.040040873 1.3717046e-38 393 199
0.072398648 0.55800003 0.04011276 8.8540399e-39 394 199
0.0093417596 0.59200001 0.041518934 1.2055399e-38 329 200
0.010327132 0.58899999 0.04130853 1.1872805e-38 330 200
0.011340559 0.588 0.041238401 1.1965001e-38 331 200
0.012329441 0.58600003 0.041098133 1.2056478e-38 332 200
0.013334099 0.58499998 0.041027997 1.2148673e-38 333 200
0.014310705 0.583 0.040887732 1.2243017e-38 334 200
0.015280298 0.58099997 0.04074746 1.2888387e-38 335 200
0.016270932 0.57999998 0.040677331 1.362986e-38 336 200
0.017287865 0.57999998 0.040677331 1.3076686e-38 337 200
0.022933599 0.54500002 0.038222667 1.5179553e-38 344 200
0.023889165 0.54500002 0.038222667 1.5179553e-38 345 200
0.024844732 0.54500002 0.038222667 1.4995522e-38 346 200
0.025800299 0.54500002 0.038222667 1.5640891e-38 347 200
0.026706774 0.54400003 0.038152535 1.4928149e-38 348 200
0.027660588 0.54400003 0.038152535 1.5758268e-38 349 200
0.028561797 0.54299998 0.038082398 1.3463809e-38 350 200
0.02951386 0.54299998 0.038082398 1.2818439e-38 351 200
0.030465918 0.54299998 0.038082398 1.2818439e-38 352 200
0.031417977 0.54299998 0.038082398 1.3186862e-38 353 200
0.032370038 0.54299998 0.038082398 1.3003918e-38 354 200
0.033444833 0.54500002 0.038222667 1.3096114e-38 355 200
0.0344004 0.54500002 0.038222667 1.3282657e-38 356 200
0.035420839 0.546 0.038292799 1.3743635e-38 357 200
0.03637816 0.546 0.038292799 1.4111695e-38 358 200
0.037403859 0.54699999 0.038362931 1.4296088e-38 359 200
0.038362931 0.54699999 0.038362931 1.4019131e-38 360 200
0.039393891 0.54799998 0.038433064 1.4019131e-38 361 200
0.040428359 0.54900002 0.0385032 1.429392e-38 362 200
0.041466333 0.55000001 0.038573332 1.4109527e-38 363 200
0.042430665 0.55000001 0.038573332 1.346597e-38 364 200
0.043473899 0.551 0.038643468 1.429609e-38 365 200
0.044439986 0.551 0.038643468 1.5031503e-38 366 200
0.04540607 0.551 0.038643468 1.6322242e-38 367 200
0.046372157 0.551 0.038643468 1.5681191e-38 368 200
0.047424156 0.55199999 0.038713597 1.5496441e-38 369 200
0.048391994 0.55199999 0.038713597 1.6047097e-38 370 200
0.049359836 0.55199999 0.038713597 1.6047097e-38 371 200
0.05041885 0.55299997 0.038783729 1.6140013e-38 372 200
0.051388443 0.55299997 0.038783729 1.6140013e-38 373 200
0.052452721 0.55400002 0.038853865 1.6322961e-38 374 200
0.053424068 0.55400002 0.038853865 1.5769788e-38 375 200
0.054395415 0.55400002 0.038853865 1.5401009e-38 376 200
0.0554667 0.55500001 0.038924001 1.5401009e-38 377 200
0.056439795 0.55500001 0.038924001 1.4760677e-38 378 200
0.057412896 0.55500001 0.038924001 1.5590439e-38 379 200
0.058385998 0.55500001 0.038924001 1.6325123e-38 380 200
0.059359096 0.55500001 0.038924001 1.6141092e-38 381 200
0.060440905 0.55599999 0.038994133 1.6231841e-38 382 200
0.061415758 0.55599999 0.038994133 1.5402081e-38 383 200
0.062390611 0.55599999 0.038994133 1.4664866e-38 384 200
0.063479431 0.55699998 0.039064262 1.4388639e-38 385 200
0.064456031 0.55699998 0.039064262 1.5034009e-38 386 200
0.065432645 0.55699998 0.039064262 1.521804e-38 387 200
0.066409253 0.55699998 0.039064262 1.3919392e-38 388 200
0.067385852 0.55699998 0.039064262 9.9549798e-39 389 200
0.06836246 0.55699998 0.039064262 1.2409725e-38 390 200
0.069339067 0.55699998 0.039064262 1.3055095e-38 391 200
0.070315681 0.55699998 0.039064262 1.0577687e-38 392 200
0.071292281 0.55699998 0.039064262 7.627786e-39 393 200
0.072398648 0.55800003 0.039134402 3.2706306e-42 394 200
0.0093101999 0.58999997 0.040344197 1.2147226e-38 329 201
0.010327132 0.58899999 0.040275816 1.1964282e-38 330 201
0.011340559 0.588 0.040207438 1.1964282e-38 331 201
0.012329441 0.58600003 0.040070679 1.2239793e-38 332 201
0.013311306 0.58399999 0.039933916 1.2331988e-38 333 201
0.014310705 0.583 0.039865538 1.2425257e-38 334 201
0.015280298 0.58099997 0.039728776 1.2702203e-38 335 201
0.016242879 0.579 0.039592016 1.2614649e-38 336 201
0.017168639 0.57599998 0.039386876 1.3536605e-38 337 201
0.01817856 0.57599998 0.039386876 1.4911566e-38 338 201
0.019188479 0.57599998 0.039386876 1.2330088e-38 339 201
0.020198399 0.57599998 0.039386876 1.4622737e-38 340 201
0.020251 0.55000001 0.037609 1.5636891e-38 341 201
0.021215333 0.55000001 0.037609 1.4903663e-38 342 201
0.022179667 0.55000001 0.037609 1.4811467e-38 343 201
0.022975679 0.546 0.037335481 1.5083032e-38 344 201
0.023932999 0.546 0.037335481 1.4529859e-38 345 201
0.024844732 0.54500002 0.0372671 1.3788696e-38 346 201
0.025800299 0.54500002 0.0372671 1.5448577e-38 347 201
0.026755866 0.54500002 0.0372671 1.4192013e-38 348 201
0.027711432 0.54500002 0.0372671 1.5206165e-38 349 201
0.028614402 0.54400003 0.037198722 1.3831512e-38 350 201
0.029568212 0.54400003 0.037198722 1.3647121e-38 351 201
0.030578133 0.54500002 0.0372671 1.3463803e-38 352 201
0.031533699 0.54500002 0.0372671 1.3371606e-38 353 201
0.032489266 0.54500002 0.0372671 1.3186859e-38 354 201
0.0335062 0.546 0.037335481 1.2910632e-38 355 201
0.034463517 0.546 0.037335481 1.2726254e-38 356 201
0.035420839 0.546 0.037335481 1.3003199e-38 357 201
0.03651141 0.54799998 0.037472237 1.3190827e-38 358 201
0.037540622 0.54900002 0.037540622 1.3836197e-38 359 201
0.0385032 0.54900002 0.037540622 1.4018424e-38 360 201
0.039537668 0.55000001 0.037609 1.4479403e-38 361 201
0.040502001 0.55000001 0.037609 1.4572317e-38 362 201
0.041541725 0.551 0.037677377 1.4572317e-38 363 201
0.042584959 0.55199999 0.037745759 1.4663797e-38 364 201
0.043473899 0.551 0.037677377 1.4940023e-38 365 201
0.044439986 0.551 0.037677377 1.5124419e-38 366 201
0.04548848 0.55199999 0.037745759 1.5769788e-38 367 201
0.046456315 0.55199999 0.037745759 1.5679391e-38 368 201
0.047510069 0.55299997 0.037814137 1.6140369e-38 369 201
0.048479661 0.55299997 0.037814137 1.5957417e-38 370 201
0.049449258 0.55299997 0.037814137 1.5957417e-38 371 201
0.050510027 0.55400002 0.037882522 1.6049252e-38 372 201
0.051481374 0.55400002 0.037882522 1.6049252e-38 373 201
0.052452721 0.55400002 0.037882522 1.6139646e-38 374 201
0.053424068 0.55400002 0.037882522 1.5402081e-38 375 201
0.054493599 0.55500001 0.037950899 1.457232e-38 376 201
0.055566639 0.55599999 0.038019277 1.4664516e-38 377 201
0.056541495 0.55599999 0.038019277 1.4207858e-38 378 201
0.057516348 0.55599999 0.038019277 1.5498596e-38 379 201
0.0584912 0.55599999 0.038019277 1.6325479e-38 380 201
0.059466053 0.55599999 0.038019277 1.6141448e-38 381 201
0.060440905 0.55599999 0.038019277 1.6231841e-38 382 201
0.061526217 0.55699998 0.038087659 1.58627e-38 383 201
0.062502824 0.55699998 0.038087659 1.5309879e-38 384 201
0.063479431 0.55699998 0.038087659 1.5033653e-38 385 201
0.064456031 0.55699998 0.038087659 1.5677944e-38 386 201
0.065550119 0.55800003 0.03815604 1.5677944e-38 387 201
0.066528477 0.55800003 0.03815604 1.3548812e-38 388 201
0.067506842 0.55800003 0.03815604 9.9531806e-39 389 201
0.0684852 0.55800003 0.03815604 1.2687743e-38 390 201
0.069339067 0.55699998 0.038087659 1.3056527e-38 391 201
0.070315681 0.55699998 0.038087659 1.0854983e-38 392 201
0.071420282 0.55800003 0.03815604 7.3515495e-39 393 201
0.072528385 0.55900002 0.038224421 9.2664785e-40 394 201
0.0093101999 0.58999997 0.039309729 1.1319616e-38 329 202
0.010327132 0.58899999 0.039243106 1.1779535e-38 330 202
0.011340559 0.588 0.039176479 1.1964285e-38 331 202
0.012329441 0.58600003 0.039043229 1.2147597e-38 332 202
0.013311306 0.58399999 0.038909972 1.2331988e-38 333 202
0.014310705 0.583 0.038843345 1.242454e-38 334 202
0.015280298 0.58099997 0.038710091 1.2700768e-38 335 202
0.016242879 0.579 0.038576838 1.270362e-38 336 202
0.017168639 0.57599998 0.038376957 1.3625936e-38 337 202
0.01817856 0.57599998 0.038376957 1.4640389e-38 338 202
0.019188479 0.57599998 0.038376957 1.3349651e-38 339 202
0.020198399 0.57599998 0.038376957 1.4444461e-38 340 202
0.020251 0.55000001 0.036644664 1.5182026e-38 341 202
0.021215333 0.55000001 0.036644664 1.4905815e-38 342 202
0.022179667 0.55000001 0.036644664 1.4813259e-38 343 202
0.022975679 0.546 0.03637816 1.4530581e-38 344 202
0.023932999 0.546 0.03637816 1.3793016e-38 345 202
0.024890319 0.546 0.03637816 1.3602867e-38 346 202
0.02584764 0.546 0.03637816 1.5446779e-38 347 202
0.026804959 0.546 0.03637816 1.4652623e-38 348 202
0.027762279 0.546 0.03637816 1.5021404e-38 349 202
0.0287196 0.546 0.03637816 1.35542e-38 350 202
0.029622566 0.54500002 0.036311533 1.3646754e-38 351 202
0.030578133 0.54500002 0.036311533 1.3464158e-38 352 202
0.031591557 0.546 0.03637816 1.3371962e-38 353 202
0.032548878 0.546 0.03637816 1.3554918e-38 354 202
0.033567566 0.54699999 0.036444783 1.3554918e-38 355 202
0.034526639 0.54699999 0.036444783 1.3186509e-38 356 202
0.035550583 0.54799998 0.03651141 1.3186509e-38 357 202
0.036644664 0.55000001 0.036644664 1.3096111e-38 358 202
0.037609 0.55000001 0.036644664 1.3649285e-38 359 202
0.038573332 0.55000001 0.036644664 1.3098629e-38 360 202
0.039609551 0.551 0.03671129 1.3928748e-38 361 202
0.040575638 0.551 0.03671129 1.4573043e-38 362 202
0.041617118 0.55199999 0.036777917 1.4480847e-38 363 202
0.042662103 0.55299997 0.036844544 1.4387933e-38 364 202
0.043631695 0.55299997 0.036844544 1.466416e-38 365 202
0.044601291 0.55299997 0.036844544 1.4848554e-38 366 202
0.045570884 0.55299997 0.036844544 1.4940751e-38 367 202
0.046540476 0.55299997 0.036844544 1.5219134e-38 368 202
0.047595989 0.55400002 0.036911171 1.6141092e-38 369 202
0.048567332 0.55400002 0.036911171 1.6141811e-38 370 202
0.049538679 0.55400002 0.036911171 1.6049615e-38 371 202
0.050510027 0.55400002 0.036911171 1.632476e-38 372 202
0.051481374 0.55400002 0.036911171 1.632476e-38 373 202
0.052547399 0.55500001 0.036977798 1.6322958e-38 374 202
0.05361693 0.55599999 0.037044425 1.6046731e-38 375 202
0.05468997 0.55699998 0.037111048 1.5218766e-38 376 202
0.055666577 0.55699998 0.037111048 1.512657e-38 377 202
0.056643184 0.55699998 0.037111048 1.4943621e-38 378 202
0.057619788 0.55699998 0.037111048 1.5681186e-38 379 202
0.058596395 0.55699998 0.037111048 1.6141445e-38 380 202
0.059572998 0.55699998 0.037111048 1.6049249e-38 381 202
0.060549613 0.55699998 0.037111048 1.6324394e-38 382 202
0.061526217 0.55699998 0.037111048 1.6139643e-38 383 202
0.062502824 0.55699998 0.037111048 1.604745e-38 384 202
0.063593395 0.55800003 0.037177678 1.58627e-38 385 202
0.064571761 0.55800003 0.037177678 1.6507353e-38 386 202
0.065550119 0.55800003 0.037177678 1.5861984e-38 387 202
0.066528477 0.55800003 0.037177678 1.3454817e-38 388 202
0.067627817 0.55900002 0.037244305 9.6747972e-39 389 202
0.068607934 0.55900002 0.037244305 1.2687019e-38 390 202
0.069463566 0.55800003 0.037177678 1.3701169e-38 391 202
0.070441924 0.55800003 0.037177678 1.1407789e-38 392 202
0.071548268 0.55900002 0.037244305 7.8117989e-39 393 202
0.0093417596 0.59200001 0.038405012 1.0495243e-38 329 203
0.010327132 0.58899999 0.038210392 1.1594055e-38 330 203
0.011321274 0.58700001 0.038080644 1.2147229e-38 331 203
0.012308398 0.58499998 0.037950896 1.2147597e-38 332 203
0.013311306 0.58399999 0.037886024 1.2239793e-38 333 203
0.014310705 0.583 0.037821155 1.2331988e-38 334 203
0.015280298 0.58099997 0.037691403 1.2516381e-38 335 203
0.016242879 0.579 0.037561659 1.2610718e-38 336 203
0.017168639 0.57599998 0.037367035 1.3348642e-38 337 203
0.01817856 0.57599998 0.037367035 1.3905368e-38 338 203
0.018388959 0.55199999 0.035810079 1.3720976e-38 339 203
0.019321734 0.551 0.035745203 1.445239e-38 340 203
0.020251 0.55000001 0.035680331 1.4267999e-38 341 203
0.021215333 0.55000001 0.035680331 1.4817935e-38 342 203
0.022179667 0.55000001 0.035680331 1.4540988e-38 343 203
0.02310192 0.54900002 0.035615463 1.4440889e-38 344 203
0.023976833 0.54699999 0.035485711 1.3334542e-38 345 203
0.024935907 0.54699999 0.035485711 1.3605736e-38 346 203
0.02584764 0.546 0.035420839 1.609466e-38 347 203
0.026804959 0.546 0.035420839 1.5113965e-38 348 203
0.027762279 0.546 0.035420839 1.502177e-38 349 203
0.0287196 0.546 0.035420839 1.3279057e-38 350 203
0.02967692 0.546 0.035420839 1.3371253e-38 351 203
0.030634239 0.546 0.035420839 1.3097544e-38 352 203
0.031649418 0.54699999 0.035485711 1.3097544e-38 353 203
0.032668106 0.54799998 0.035550583 1.3465601e-38 354 203
0.033628929 0.54799998 0.035550583 1.3649991e-38 355 203
0.034589756 0.54799998 0.035550583 1.3372326e-38 356 203
0.035615463 0.54900002 0.035615463 1.2911707e-38 357 203
0.036644664 0.55000001 0.035680331 1.2083038e-38 358 203
0.037677377 0.551 0.035745203 1.1714257e-38 359 203
0.038643468 0.551 0.035745203 1.1441278e-38 360 203
0.039681438 0.55199999 0.035810079 1.3008964e-38 361 203
0.040722914 0.55299997 0.035874948 1.4390096e-38 362 203
0.04169251 0.55299997 0.035874948 1.4390096e-38 363 203
0.042739253 0.55400002 0.035939828 1.4204984e-38 364 203
0.043710601 0.55400002 0.035939828 1.4481569e-38 365 203
0.044681948 0.55400002 0.035939828 1.4481566e-38 366 203
0.045653291 0.55400002 0.035939828 1.4113144e-38 367 203
0.046624642 0.55400002 0.035939828 1.4575561e-38 368 203
0.047595989 0.55400002 0.035939828 1.5681909e-38 369 203
0.048567332 0.55400002 0.035939828 1.6141092e-38 370 203
0.049538679 0.55400002 0.035939828 1.6048896e-38 371 203
0.050510027 0.55400002 0.035939828 1.6324041e-38 372 203
0.051574301 0.55500001 0.0360047 1.6324041e-38 373 203
0.052642077 0.55599999 0.036069572 1.623149e-38 374 203
0.05361693 0.55599999 0.036069572 1.623149e-38 375 203
0.05468997 0.55699998 0.036134444 1.6140369e-38 376 203
0.055666577 0.55699998 0.036134444 1.6140369e-38 377 203
0.056643184 0.55699998 0.036134444 1.5957052e-38 378 203
0.057619788 0.55699998 0.036134444 1.6049249e-38 379 203
0.058701605 0.55800003 0.036199324 1.6325476e-38 380 203
0.059679963 0.55800003 0.036199324 1.6325476e-38 381 203
0.060658321 0.55800003 0.036199324 1.6325479e-38 382 203
0.061636683 0.55800003 0.036199324 1.6417674e-38 383 203
0.06272725 0.55900002 0.036264192 1.6785018e-38 384 203
0.063707367 0.55900002 0.036264192 1.6785018e-38 385 203
0.064687483 0.55900002 0.036264192 1.724564e-38 386 203
0.065667599 0.55900002 0.036264192 1.5954901e-38 387 203
0.066647708 0.55900002 0.036264192 1.3268988e-38 388 203
0.067627817 0.55900002 0.036264192 9.3045756e-39 389 203
0.068607934 0.55900002 0.036264192 1.2777416e-38 390 203
0.06958805 0.55900002 0.036264192 1.4252905e-38 391 203
0.070568159 0.55900002 0.036264192 1.1962757e-38 392 203
0.071548268 0.55900002 0.036264192 7.7217585e-39 393 203
0.0093575399 0.59299999 0.03743016 1.0871935e-38 329 204
0.010327132 0.58899999 0.037177674 1.1872071e-38 330 204
0.011301987 0.58600003 0.036988322 1.1779874e-38 331 204
0.012308398 0.58499998 0.036925197 1.2147597e-38 332 204
0.013311306 0.58399999 0.036862079 1.2331988e-38 333 204
0.014310705 0.583 0.036798961 1.2424184e-38 334 204
0.015280298 0.58099997 0.036672715 1.2700771e-38 335 204
0.016242879 0.579 0.03654648 1.27022e-38 336 204
0.017198445 0.57700002 0.036420241 1.3163178e-38 337 204
0.017452678 0.55299997 0.034905355 1.3351142e-38 338 204
0.018388959 0.55199999 0.034842238 1.3535533e-38 339 204
0.019321734 0.551 0.03477912 1.4637166e-38 340 204
0.020251 0.55000001 0.034716003 1.3531178e-38 341 204
0.021215333 0.55000001 0.034716003 1.4814708e-38 342 204
0.022179667 0.55000001 0.034716003 1.4538121e-38 343 204
0.02310192 0.54900002 0.034652878 1.4532729e-38 344 204
0.0240645 0.54900002 0.034652878 1.3795164e-38 345 204
0.024981491 0.54799998 0.034589756 1.3518224e-38 346 204
0.025942318 0.54799998 0.034589756 1.6284093e-38 347 204
0.026854053 0.54699999 0.034526639 1.4563312e-38 348 204
0.027813125 0.54699999 0.034526639 1.419489e-38 349 204
0.0287722 0.54699999 0.034526639 1.2543294e-38 350 204
0.02973127 0.54699999 0.034526639 1.2727686e-38 351 204
0.030690346 0.54699999 0.034526639 1.2820603e-38 352 204
0.031707279 0.54799998 0.034589756 1.2912799e-38 353 204
0.032727718 0.54900002 0.034652878 1.2819881e-38 354 204
0.033751667 0.55000001 0.034716003 1.3096467e-38 355 204
0.034716003 0.55000001 0.034716003 1.3280859e-38 356 204
0.035745203 0.551 0.03477912 1.3649282e-38 357 204
0.036777917 0.55199999 0.034842238 1.3099711e-38 358 204
0.037745759 0.55199999 0.034842238 1.3375939e-38 359 204
0.038783729 0.55299997 0.034905355 1.4021314e-38 360 204
0.039753322 0.55299997 0.034905355 1.4851075e-38 361 204
0.040796563 0.55400002 0.03496848 1.5220933e-38 362 204
0.041767906 0.55400002 0.03496848 1.5220933e-38 363 204
0.042739253 0.55400002 0.03496848 1.5404246e-38 364 204
0.043710601 0.55400002 0.03496848 1.5588637e-38 365 204
0.044681948 0.55400002 0.03496848 1.5772308e-38 366 204
0.045653291 0.55400002 0.03496848 1.5495722e-38 367 204
0.046624642 0.55400002 0.03496848 1.5864501e-38 368 204
0.047595989 0.55400002 0.03496848 1.6325479e-38 369 204
0.048567332 0.55400002 0.03496848 1.6325479e-38 370 204
0.049628098 0.55500001 0.035031598 1.6325479e-38 371 204
0.050692368 0.55599999 0.035094716 1.6416956e-38 372 204
0.051667225 0.55599999 0.035094716 1.632476e-38 373 204
0.052736755 0.55699998 0.035157841 1.6416956e-38 374 204
0.053713363 0.55699998 0.035157841 1.6509151e-38 375 204
0.05468997 0.55699998 0.035157841 1.650987e-38 376 204
0.055666577 0.55699998 0.035157841 1.6694621e-38 377 204
0.056643184 0.55699998 0.035157841 1.6785737e-38 378 204
0.057723239 0.55800003 0.035220962 1.6785737e-38 379 204
0.058701605 0.55800003 0.035220962 1.6510226e-38 380 204
0.059679963 0.55800003 0.035220962 1.6602422e-38 381 204
0.060658321 0.55800003 0.035220962 1.6601703e-38 382 204
0.061747141 0.55900002 0.03528408 1.6416953e-38 383 204
0.06272725 0.55900002 0.03528408 1.632476e-38 384 204
0.063707367 0.55900002 0.03528408 1.6416956e-38 385 204
0.064687483 0.55900002 0.03528408 1.6970129e-38 386 204
0.065785065 0.56 0.035347197 1.5587195e-38 387 204
0.066766933 0.56 0.035347197 1.2714718e-38 388 204
0.0677488 0.56 0.035347197 8.2893278e-39 389 204
0.068730667 0.56 0.035347197 1.2315701e-38 390 204
0.06958805 0.55900002 0.03528408 1.5726941e-38 391 204
0.070568159 0.55900002 0.03528408 1.3164891e-38 392 204
0.071676269 0.56 0.035347197 7.6335117e-39 393 204
0.011301987 0.58600003 0.035960864 1.1045543e-38 331 205
0.012308398 0.58499998 0.035899498 1.1872449e-38 332 205
0.013311306 0.58399999 0.035838135 1.2057199e-38 333 205
0.01428616 0.58200002 0.035715401 1.2333788e-38 334 205
0.015253999 0.57999998 0.035592664 1.2517819e-38 335 205
0.016214827 0.57800001 0.035469931 1.2610368e-38 336 205
0.017168639 0.57599998 0.035347197 1.2887315e-38 337 205
0.017452678 0.55299997 0.033935763 1.2798334e-38 338 205
0.018422272 0.55299997 0.033935763 1.3904681e-38 339 205
0.019321734 0.551 0.033813033 1.4548936e-38 340 205
0.020251 0.55000001 0.033751667 1.2612828e-38 341 205
0.021215333 0.55000001 0.033751667 1.4534531e-38 342 205
0.022179667 0.55000001 0.033751667 1.4073193e-38 343 205
0.023144001 0.55000001 0.033751667 1.4344748e-38 344 205
0.0240645 0.54900002 0.0336903 1.4344748e-38 345 205
0.02502708 0.54900002 0.0336903 1.3614741e-38 346 205
0.025989661 0.54900002 0.0336903 1.6749034e-38 347 205
0.026903145 0.54799998 0.033628929 1.5117213e-38 348 205
0.027863972 0.54799998 0.033628929 1.456404e-38 349 205
0.028824797 0.54799998 0.033628929 1.3095392e-38 350 205
0.029785624 0.54799998 0.033628929 1.3187588e-38 351 205
0.030802561 0.54900002 0.0336903 1.3188311e-38 352 205
0.031822998 0.55000001 0.033751667 1.3188311e-38 353 205
0.032846943 0.551 0.033813033 1.3280506e-38 354 205
0.033813033 0.551 0.033813033 1.3649287e-38 355 205
0.03477912 0.551 0.033813033 1.3836197e-38 356 205
0.035810079 0.55199999 0.0338744 1.4481566e-38 357 205
0.036844544 0.55299997 0.033935763 1.4943267e-38 358 205
0.037814137 0.55299997 0.033935763 1.5404246e-38 359 205
0.038783729 0.55299997 0.033935763 1.5773388e-38 360 205
0.039753322 0.55299997 0.033935763 1.6326561e-38 361 205
0.040796563 0.55400002 0.033997133 1.6417674e-38 362 205
0.041767906 0.55400002 0.033997133 1.6417674e-38 363 205
0.042739253 0.55400002 0.033997133 1.6325123e-38 364 205
0.043710601 0.55400002 0.033997133 1.660207e-38 365 205
0.044681948 0.55400002 0.033997133 1.6969776e-38 366 205
0.045653291 0.55400002 0.033997133 1.6785385e-38 367 205
0.046624642 0.55400002 0.033997133 1.6602066e-38 368 205
0.047681898 0.55500001 0.0340585 1.650987e-38 369 205
0.048655 0.55500001 0.0340585 1.6510223e-38 370 205
0.049717516 0.55599999 0.034119863 1.6418028e-38 371 205
0.050783541 0.55699998 0.03418123 1.6510223e-38 372 205
0.051760152 0.55699998 0.03418123 1.6418028e-38 373 205
0.052736755 0.55699998 0.03418123 1.6601703e-38 374 205
0.053713363 0.55699998 0.03418123 1.6877931e-38 375 205
0.054788161 0.55800003 0.0342426 1.6969411e-38 376 205
0.055766523 0.55800003 0.0342426 1.6969411e-38 377 205
0.056744881 0.55800003 0.0342426 1.6602066e-38 378 205
0.057723239 0.55800003 0.0342426 1.6786817e-38 379 205
0.058701605 0.55800003 0.0342426 1.6785734e-38 380 205
0.059679963 0.55800003 0.0342426 1.6601703e-38 381 205
0.060767025 0.55900002 0.034303967 1.6049246e-38 382 205
0.061747141 0.55900002 0.034303967 1.5403877e-38 383 205
0.06272725 0.55900002 0.034303967 1.5494273e-38 384 205
0.063821331 0.56 0.034365334 1.5586828e-38 385 205
0.064803198 0.56 0.034365334 1.5957049e-38 386 205
0.065785065 0.56 0.034365334 1.5035093e-38 387 205
0.066886157 0.56099999 0.0344267 1.1797413e-38 388 205
0.067869775 0.56099999 0.0344267 7.9251962e-39 389 205
0.068853401 0.56099999 0.0344267 1.1589992e-38 390 205
0.069712527 0.56 0.034365334 1.4448058e-38 391 205
0.070694394 0.56 0.034365334 1.4182285e-38 392 205
0.071676269 0.56 0.034365334 8.1895694e-39 393 205
0.011301987 0.58600003 0.034933414 1.0128982e-38 331 206
0.012308398 0.58499998 0.034873798 1.1781686e-38 332 206
0.013311306 0.58399999 0.034814183 1.1966077e-38 333 206
0.01428616 0.58200002 0.034694958 1.2241589e-38 334 206
0.015253999 0.57999998 0.034575731 1.261037e-38 335 206
0.016214827 0.57800001 0.034456506 1.2519251e-38 336 206
0.017138831 0.57499999 0.034277663 1.2795838e-38 337 206
0.018146999 0.57499999 0.034277663 1.2981649e-38 338 206
0.01908854 0.57300001 0.034158438 1.3996161e-38 339 206
0.019321734 0.551 0.032846943 1.3998286e-38 340 206
0.020251 0.55000001 0.032787334 1.1969983e-38 341 206
0.021215333 0.55000001 0.032787334 1.4347622e-38 342 206
0.022179667 0.55000001 0.032787334 1.333311e-38 343 206
0.023144001 0.55000001 0.032787334 1.4156035e-38 344 206
0.024108332 0.55000001 0.032787334 1.3787611e-38 345 206
0.02502708 0.54900002 0.032727718 1.324883e-38 346 206
0.025989661 0.54900002 0.032727718 1.6936296e-38 347 206
0.026903145 0.54799998 0.032668106 1.6040245e-38 348 206
0.027863972 0.54799998 0.032668106 1.5855853e-38 349 206
0.028824797 0.54799998 0.032668106 1.4754194e-38 350 206
0.029839981 0.54900002 0.032727718 1.4661997e-38 351 206
0.030858666 0.55000001 0.032787334 1.4016628e-38 352 206
0.031880859 0.551 0.032846943 1.4293216e-38 353 206
0.032846943 0.551 0.032846943 1.4754557e-38 354 206
0.0338744 0.55199999 0.032906558 1.6782861e-38 355 206
0.034905355 0.55299997 0.03296617 1.6602789e-38 356 206
0.035874948 0.55299997 0.03296617 1.678718e-38 357 206
0.036844544 0.55299997 0.03296617 1.715524e-38 358 206
0.037882522 0.55400002 0.033025786 1.715524e-38 359 206
0.038853865 0.55400002 0.033025786 1.7064479e-38 360 206
0.039825212 0.55400002 0.033025786 1.7064479e-38 361 206
0.040796563 0.55400002 0.033025786 1.7247791e-38 362 206
0.041767906 0.55400002 0.033025786 1.7155595e-38 363 206
0.042739253 0.55400002 0.033025786 1.7063397e-38 364 206
0.043710601 0.55400002 0.033025786 1.6971201e-38 365 206
0.044681948 0.55400002 0.033025786 1.66017e-38 366 206
0.045735702 0.55500001 0.033085402 1.6509504e-38 367 206
0.046792958 0.55599999 0.03314501 1.6601703e-38 368 206
0.047767811 0.55599999 0.03314501 1.6601703e-38 369 206
0.04883033 0.55699998 0.033204626 1.6601347e-38 370 206
0.049806938 0.55699998 0.033204626 1.6785737e-38 371 206
0.050783541 0.55699998 0.033204626 1.6694621e-38 372 206
0.051760152 0.55699998 0.033204626 1.6602066e-38 373 206
0.052831441 0.55800003 0.033264238 1.5863785e-38 374 206
0.053809803 0.55800003 0.033264238 1.494147e-38 375 206
0.054788161 0.55800003 0.033264238 1.4939673e-38 376 206
0.055766523 0.55800003 0.033264238 1.5124066e-38 377 206
0.056744881 0.55800003 0.033264238 1.5129457e-38 378 206
0.057723239 0.55800003 0.033264238 1.614361e-38 379 206
0.058806799 0.55900002 0.033323854 1.6602422e-38 380 206
0.059786908 0.55900002 0.033323854 1.5311684e-38 381 206
0.060875732 0.56 0.033383466 1.4661629e-38 382 206
0.061857596 0.56 0.033383466 1.4016259e-38 383 206
0.062839463 0.56 0.033383466 1.4199569e-38 384 206
0.063935295 0.56099999 0.033443078 1.4937493e-38 385 206
0.06491892 0.56099999 0.033443078 1.4666664e-38 386 206
0.065902531 0.56099999 0.033443078 1.4482272e-38 387 206
0.066886157 0.56099999 0.033443078 1.2815539e-38 388 206
0.067990758 0.56199998 0.03350269 1.2631508e-38 389 206
0.068853401 0.56099999 0.033443078 1.456005e-38 390 206
0.069837011 0.56099999 0.033443078 1.520542e-38 391 206
0.070820637 0.56099999 0.033443078 1.5387647e-38 392 206
0.071932249 0.56199998 0.03350269 8.1963881e-39 393 206
0.011301987 0.58600003 0.033905961 1.0135097e-38 331 207
0.012308398 0.58499998 0.033848096 1.1779521e-38 332 207
0.01326572 0.58200002 0.03367452 1.2332695e-38 333 207
0.01428616 0.58200002 0.03367452 1.19668e-38 334 207
0.015253999 0.57999998 0.033558797 1.2151191e-38 335 207
0.016214827 0.57800001 0.033443078 1.2427058e-38 336 207
