# .PCD v.7 - Point Cloud Data file format
FIELDS x y z rgb imX imY
SIZE 4 4 4 4 4 4
TYPE F F F F F F
COUNT 1 1 1 1 1 1
WIDTH 855
HEIGHT 1
VIEWPOINT 0 0 0 1 0 0 0
POINTS 855
DATA ascii
0.039637607 0.611 0.017140586 1.1522633e-38 357 224
0.040775519 0.61199999 0.017168639 1.1521915e-38 358 224
0.041848559 0.61199999 0.017168639 1.1521915e-38 359 224
0.043061867 0.61400002 0.017224746 1.1429718e-38 360 224
0.044138417 0.61400002 0.017224746 1.1429718e-38 361 224
0.045362238 0.616 0.017280852 1.1521917e-38 362 224
0.046593077 0.61799997 0.017336959 1.1521917e-38 363 224
0.047676638 0.61799997 0.017336959 1.1521917e-38 364 224
0.0488391 0.61900002 0.017365014 1.1521917e-38 365 224
0.049924415 0.61900002 0.017365014 1.1521915e-38 366 224
0.051092129 0.62 0.017393066 1.1521915e-38 367 224
0.052263357 0.62099999 0.017421119 1.1429718e-38 368 224
0.053352177 0.62099999 0.017421119 1.1429718e-38 369 224
0.054616336 0.62300003 0.017477227 1.1429718e-38 370 224
0.055887498 0.625 0.017533332 1.1429718e-38 371 224
0.057165679 0.62699997 0.017589439 1.1337525e-38 372 224
0.058357947 0.62800002 0.017617494 1.142972e-38 373 224
0.059648398 0.63 0.017673599 1.142972e-38 374 224
0.060849428 0.63099998 0.017701652 1.142972e-38 375 224
0.061955784 0.63099998 0.017701652 1.1429718e-38 376 224
0.063162081 0.63200003 0.017729707 1.1429718e-38 377 224
0.064270191 0.63200003 0.017729707 1.1429715e-38 378 224
0.065585189 0.634 0.017785814 1.1429715e-38 379 224
0.066801995 0.63499999 0.017813865 1.161303e-38 380 224
0.068129279 0.63700002 0.017869974 1.161303e-38 381 224
0.069354847 0.63800001 0.017898027 1.1614479e-38 382 224
0.070804857 0.64099997 0.017982185 1.2075457e-38 383 224
0.07204096 0.64200002 0.01801024 1.2262013e-38 384 224
-0.10007149 0.76099998 0.020014299 1.4201371e-38 245 225
-0.098477714 0.759 0.0199617 1.4109175e-38 246 225
-0.097146936 0.759 0.0199617 1.4109175e-38 247 225
-0.095816158 0.759 0.0199617 1.3834735e-38 248 225
-0.093987428 0.755 0.0198565 1.3465954e-38 249 225
-0.092540927 0.75400001 0.019830201 1.2172615e-38 250 225
-0.090976954 0.75199997 0.0197776 1.0605287e-38 251 225
-0.089300767 0.74900001 0.0196987 1.134348e-38 252 225
-0.087752573 0.74699998 0.019646099 1.1159089e-38 253 225
-0.086095676 0.74400002 0.019567199 1.1618266e-38 254 225
-0.084563263 0.74199998 0.0195146 1.1802655e-38 255 225
-0.083150074 0.741 0.019488299 1.1801937e-38 256 225
-0.08129856 0.736 0.019356798 1.1801937e-38 257 225
-0.079790697 0.73400003 0.019304199 1.1710819e-38 258 225
-0.07839679 0.73299998 0.019277899 1.1618266e-38 259 225
-0.076796003 0.73000002 0.019199001 1.1618266e-38 260 225
-0.075309172 0.72799999 0.0191464 1.1710461e-38 261 225
-0.074032739 0.72799999 0.0191464 1.198525e-38 262 225
-0.072456501 0.72500002 0.0190675 1.2077447e-38 263 225
-0.070988953 0.72299999 0.019014901 1.2078191e-38 264 225
-0.069624864 0.722 0.0189886 1.2078191e-38 265 225
-0.068169601 0.72000003 0.018935999 1.152684e-38 266 225
-0.066628419 0.71700001 0.018857099 1.152684e-38 267 225
-0.06528011 0.71600002 0.0188308 1.1527951e-38 268 225
-0.063845873 0.71399999 0.018778199 1.1804538e-38 269 225
-0.062593997 0.71399999 0.018778199 1.2172267e-38 270 225
-0.061256204 0.713 0.018751899 1.2632886e-38 271 225
-0.059753593 0.70999998 0.018672999 1.2816564e-38 272 225
-0.05826151 0.70700002 0.018594101 1.2631814e-38 273 225
-0.056941248 0.70599997 0.018567799 1.2542884e-38 274 225
-0.055545598 0.704 0.018515198 1.3188253e-38 275 225
-0.054234106 0.70300001 0.018488899 1.3464155e-38 276 225
-0.052850723 0.70099998 0.018436298 1.3556352e-38 277 225
-0.051547997 0.69999999 0.018409999 1.4109877e-38 278 225
-0.050105009 0.69700003 0.018331099 1.4202074e-38 279 225
-0.048812799 0.69599998 0.018304799 1.2080476e-38 280 225
-0.047455717 0.69400001 0.0182522 1.1527303e-38 281 225
-0.046039023 0.69099998 0.0181733 1.2082277e-38 282 225
-0.044632856 0.68800002 0.0180944 1.3465211e-38 283 225
-0.043363437 0.68699998 0.018068098 1.3649272e-38 284 225
-0.042097531 0.68599999 0.018041799 1.3556718e-38 285 225
-0.040775519 0.68400002 0.0179892 1.3739319e-38 286 225
-0.039518382 0.68300003 0.017962901 1.3739319e-38 287 225
-0.038264744 0.68199998 0.017936599 1.3556004e-38 288 225
-0.036960267 0.68000001 0.017883999 1.36482e-38 289 225
-0.035715401 0.67900002 0.017857701 1.3096467e-38 290 225
-0.034321502 0.67500001 0.0177525 1.2543294e-38 291 225
-0.033137999 0.67500001 0.0177525 1.0335291e-38 292 225
-0.03190716 0.67400002 0.0177262 9.8739526e-39 293 225
-0.030634239 0.67199999 0.017673599 9.4162212e-39 294 225
-0.029412165 0.671 0.0176473 9.3240256e-39 295 225
-0.028193599 0.67000002 0.017620999 9.5073406e-39 296 225
-0.026938211 0.66799998 0.017568398 9.415145e-39 297 225
-0.02568984 0.66600001 0.017515799 9.4144261e-39 298 225
-0.024448479 0.66399997 0.0174632 9.4144261e-39 299 225
-0.023284266 0.66399997 0.0174632 9.3222305e-39 300 225
-0.02208674 0.66299999 0.017436899 9.4144261e-39 301 225
-0.020892721 0.662 0.017410601 9.3222305e-39 302 225
-0.019702207 0.66100001 0.0173843 9.3222305e-39 303 225
-0.018487146 0.65899998 0.017331699 9.7824856e-39 304 225
-0.017305398 0.65799999 0.017305398 9.5977356e-39 305 225
-0.01612716 0.65700001 0.0172791 8.7510487e-39 306 225
-0.014929632 0.65499997 0.017226499 6.0773754e-39 307 225
-0.013760159 0.65399998 0.017200198 1.0654399e-38 308 225
-0.012594193 0.653 0.017173899 1.1852941e-38 309 225
-0.011396666 0.64999998 0.017095 1.0669128e-38 310 225
-0.01024122 0.64899999 0.017068699 1.1222302e-38 311 225
-0.0090892799 0.648 0.0170424 1.0305735e-38 312 225
-0.0079408465 0.64700001 0.0170161 1.0121343e-38 313 225
-0.0067748795 0.64399999 0.0169372 1.0302863e-38 314 225
-0.0056369668 0.64300001 0.016910899 9.657494e-39 315 225
-0.00450256 0.64200002 0.016884599 1.075521e-38 316 225
-0.0033716597 0.64099997 0.016858298 1.0294231e-38 317 225
-0.0022442664 0.63999999 0.016831998 1.0934932e-38 318 225
-0.0011186267 0.63800001 0.016779399 1.0842736e-38 319 225
0 0.63700002 0.0167531 1.1116459e-38 320 225
0.0011151199 0.63599998 0.016726799 1.1023904e-38 321 225
0.0022267331 0.63499999 0.016700499 1.1116456e-38 322 225
0.0033243201 0.63200003 0.016621601 1.1577433e-38 323 225
0.0044324268 0.63200003 0.016621601 1.1211521e-38 324 225
0.0055317665 0.63099998 0.0165953 1.1211521e-38 325 225
0.0066381195 0.63099998 0.0165953 1.1216189e-38 326 225
0.0077444729 0.63099998 0.0165953 1.1769361e-38 327 225
0.0088367993 0.63 0.016569 1.1129017e-38 328 225
0.0099256197 0.62900001 0.016542701 1.0944267e-38 329 225
0.010993399 0.62699997 0.016490098 1.1310176e-38 330 225
0.01203488 0.62400001 0.0164112 1.0941753e-38 331 225
0.01310792 0.62300003 0.0163849 1.1122547e-38 332 225
0.014177452 0.62199998 0.016358599 1.0569374e-38 333 225
0.01524348 0.62099999 0.016332299 1.0660493e-38 334 225
0.016332299 0.62099999 0.016332299 1.0015124e-38 335 225
0.017365014 0.61900002 0.016279699 1.0563986e-38 336 225
0.018450327 0.61900002 0.016279699 9.2753991e-39 337 225
0.01944096 0.616 0.016200799 9.5555972e-39 338 225
0.0204877 0.61500001 0.016174501 1.6654302e-38 339 225
0.021530934 0.61400002 0.0161482 1.2816269e-38 340 225
0.022570658 0.61299998 0.0161219 1.3092496e-38 341 225
0.02360688 0.61199999 0.016095599 1.2357814e-38 342 225
0.024639593 0.611 0.016069299 1.2541845e-38 343 225
0.0256688 0.61000001 0.016043 1.2633319e-38 344 225
0.026694499 0.60900003 0.016016699 1.2633319e-38 345 225
0.027762281 0.60900003 0.016016699 1.2633319e-38 346 225
0.02878272 0.60799998 0.015990399 1.2541124e-38 347 225
0.029799653 0.60699999 0.015964098 1.2724436e-38 348 225
0.030863928 0.60699999 0.015964098 1.2171621e-38 349 225
0.031875599 0.60600001 0.0159378 1.1523012e-38 350 225
0.032938119 0.60600001 0.0159378 1.1430816e-38 351 225
0.034056745 0.60699999 0.015964098 1.1430087e-38 352 225
0.035178877 0.60799998 0.015990399 1.1430087e-38 353 225
0.036304522 0.60900003 0.016016699 1.1430441e-38 354 225
0.037433665 0.61000001 0.016043 1.1522636e-38 355 225
0.038566317 0.611 0.016069299 1.1521915e-38 356 225
0.039702479 0.61199999 0.016095599 1.161411e-38 357 225
0.040775519 0.61199999 0.016095599 1.1522271e-38 358 225
0.041916937 0.61299998 0.0161219 1.1522271e-38 359 225
0.043061867 0.61400002 0.0161482 1.1522271e-38 360 225
0.0442103 0.61500001 0.016174501 1.1429715e-38 361 225
0.045362238 0.616 0.016200799 1.1429718e-38 362 225
0.046593077 0.61799997 0.016253399 1.1521915e-38 363 225
0.047753785 0.61900002 0.016279699 1.142972e-38 364 225
0.0488391 0.61900002 0.016279699 1.142972e-38 365 225
0.049924415 0.61900002 0.016279699 1.1521917e-38 366 225
0.051092129 0.62 0.016306 1.142972e-38 367 225
0.052263357 0.62099999 0.016332299 1.1521915e-38 368 225
0.05343809 0.62199998 0.016358599 1.1429718e-38 369 225
0.054703999 0.62400001 0.0164112 1.142972e-38 370 225
0.056066338 0.62699997 0.016490098 1.1337525e-38 371 225
0.057256855 0.62800002 0.016516401 1.1337525e-38 372 225
0.058450874 0.62900001 0.016542701 1.142972e-38 373 225
0.059743073 0.63099998 0.0165953 1.1429718e-38 374 225
0.060849428 0.63099998 0.0165953 1.1429718e-38 375 225
0.061955784 0.63099998 0.0165953 1.1429715e-38 376 225
0.063162081 0.63200003 0.016621601 1.1429715e-38 377 225
0.064473569 0.634 0.0166742 1.1429715e-38 378 225
0.065585189 0.634 0.0166742 1.1429715e-38 379 225
0.066907197 0.63599998 0.016726799 1.161303e-38 380 225
0.068129279 0.63700002 0.0167531 1.161303e-38 381 225
0.069572262 0.63999999 0.016831998 1.1614835e-38 382 225
0.070804857 0.64099997 0.016858298 1.216765e-38 383 225
0.07204096 0.64200002 0.016884599 1.2261653e-38 384 225
-0.10180555 0.764 0.018753653 1.4569433e-38 244 226
-0.10007149 0.76099998 0.018680012 1.4384683e-38 245 226
-0.09873721 0.76099998 0.018680012 1.4201371e-38 246 226
-0.097402923 0.76099998 0.018680012 1.4016978e-38 247 226
-0.095816158 0.759 0.01863092 1.4017329e-38 248 226
-0.093987428 0.755 0.018532733 1.3925133e-38 249 226
-0.092540927 0.75400001 0.018508185 1.1988949e-38 250 226
-0.090976954 0.75199997 0.018459093 1.0421623e-38 251 226
-0.089300767 0.74900001 0.018385453 1.1434244e-38 252 226
-0.087752573 0.74699998 0.018336359 1.1342048e-38 253 226
-0.086095676 0.74400002 0.01826272 1.1618266e-38 254 226
-0.084563263 0.74199998 0.018213626 1.1618266e-38 255 226
-0.082813434 0.73799998 0.018115439 1.1618266e-38 256 226
-0.08129856 0.736 0.018066347 1.1710461e-38 257 226
-0.079790697 0.73400003 0.018017253 1.1710461e-38 258 226
-0.07839679 0.73299998 0.017992707 1.1710461e-38 259 226
-0.076901197 0.73100001 0.017943613 1.152679e-38 260 226
-0.07551606 0.73000002 0.017919067 1.1618984e-38 261 226
-0.074032739 0.72799999 0.017869972 1.1618992e-38 262 226
-0.072456501 0.72500002 0.017796334 1.1618992e-38 263 226
-0.070988953 0.72299999 0.017747238 1.1711188e-38 264 226
-0.069624864 0.722 0.017722692 1.14346e-38 265 226
-0.068169601 0.72000003 0.017673599 1.1617908e-38 266 226
-0.066628419 0.71700001 0.017599959 1.1341684e-38 267 226
-0.06528011 0.71600002 0.017575413 1.134276e-38 268 226
-0.063845873 0.71399999 0.017526319 1.134276e-38 269 226
-0.062593997 0.71399999 0.017526319 1.1342043e-38 270 226
-0.061256204 0.713 0.017501773 1.1342043e-38 271 226
-0.059837762 0.71100003 0.01745268 1.1433543e-38 272 226
-0.058508728 0.70999998 0.017428132 1.1802686e-38 273 226
-0.057102561 0.708 0.017379038 1.1804908e-38 274 226
-0.055703394 0.70599997 0.017329946 1.2450278e-38 275 226
-0.054311249 0.704 0.017280852 1.2909144e-38 276 226
-0.052850723 0.70099998 0.017207211 1.3277928e-38 277 226
-0.051547997 0.69999999 0.017182667 1.3647802e-38 278 226
-0.050176892 0.69800001 0.017133573 1.3832553e-38 279 226
-0.048812799 0.69599998 0.017084479 1.1342173e-38 280 226
-0.047455717 0.69400001 0.017035386 1.1065586e-38 281 226
-0.04617228 0.69300002 0.01701084 1.2817673e-38 282 226
-0.0447626 0.69 0.0169372 1.3924019e-38 283 226
-0.043426562 0.68800002 0.016888106 1.3648553e-38 284 226
-0.042158898 0.68699998 0.01686356 1.3648553e-38 285 226
-0.040894743 0.68599999 0.016839013 1.36482e-38 286 226
-0.03957624 0.68400002 0.016789921 1.3556004e-38 287 226
-0.038264744 0.68199998 0.016740825 1.3555648e-38 288 226
-0.036960267 0.68000001 0.016691733 1.3555648e-38 289 226
-0.035715401 0.67900002 0.016667187 1.2360348e-38 290 226
-0.034372345 0.676 0.016593546 1.1622783e-38 291 226
-0.033137999 0.67500001 0.016569 1.0151265e-38 292 226
-0.03190716 0.67400002 0.016544454 9.8746784e-39 293 226
-0.030634239 0.67199999 0.01649536 9.3240284e-39 294 226
-0.029455997 0.67199999 0.01649536 9.3240284e-39 295 226
-0.028235679 0.671 0.016470812 9.415145e-39 296 226
-0.027018867 0.67000002 0.016446266 9.3229494e-39 297 226
-0.025766984 0.66799998 0.016397171 9.4144261e-39 298 226
-0.02452212 0.66600001 0.016348081 9.4144261e-39 299 226
-0.023284266 0.66399997 0.016298985 9.3229494e-39 300 226
-0.02208674 0.66299999 0.016274439 9.3229494e-39 301 226
-0.020892721 0.662 0.016249891 9.4144233e-39 302 226
-0.019702207 0.66100001 0.016225345 9.3222277e-39 303 226
-0.018487146 0.65899998 0.016176252 9.7824856e-39 304 226
-0.017305398 0.65799999 0.016151706 9.5977356e-39 305 226
-0.01612716 0.65700001 0.01612716 8.8439631e-39 306 226
-0.014929632 0.65499997 0.016078066 5.9858986e-39 307 226
-0.013760159 0.65399998 0.01605352 1.0562203e-38 308 226
-0.012594193 0.653 0.016028972 1.2222083e-38 309 226
-0.011431733 0.65200001 0.016004426 1.0670574e-38 310 226
-0.010256999 0.64999998 0.015955333 1.1408139e-38 311 226
-0.0091033066 0.64899999 0.015930785 1.0125659e-38 312 226
-0.0079531204 0.648 0.015906241 1.0586636e-38 313 226
-0.0067748795 0.64399999 0.015808053 1.0862131e-38 314 226
-0.0056369668 0.64300001 0.015783506 9.6635896e-39 315 226
-0.00450256 0.64200002 0.01575896 1.0393965e-38 316 226
-0.0033716597 0.64099997 0.015734414 1.0209573e-38 317 226
-0.0022477731 0.64099997 0.015734414 1.0205983e-38 318 226
-0.0011186267 0.63800001 0.015660774 9.8368406e-39 319 226
0 0.63700002 0.015636226 1.0659421e-38 320 226
0.0011168733 0.63700002 0.015636226 1.0475028e-38 321 226
0.0022267331 0.63499999 0.015587131 1.0745525e-38 322 226
0.0033348398 0.634 0.015562586 1.0745525e-38 323 226
0.0044324268 0.63200003 0.015513494 1.0930641e-38 324 226
0.0055317665 0.63099998 0.015488946 1.1299065e-38 325 226
0.0066381195 0.63099998 0.015488946 1.0936746e-38 326 226
0.0077444729 0.63099998 0.015488946 1.1582116e-38 327 226
0.0088367993 0.63 0.015464399 1.1033967e-38 328 226
0.0099256197 0.62900001 0.015439852 1.1494586e-38 329 226
0.010993399 0.62699997 0.015390759 1.1221577e-38 330 226
0.01203488 0.62400001 0.01531712 1.1221577e-38 331 226
0.01310792 0.62300003 0.015292573 1.1222634e-38 332 226
0.014177452 0.62199998 0.015268027 1.0577264e-38 333 226
0.015268027 0.62199998 0.015268027 1.0938136e-38 334 226
0.016332299 0.62099999 0.01524348 1.0384963e-38 335 226
0.017393066 0.62 0.015218933 1.0746579e-38 336 226
0.018450327 0.61900002 0.015194387 9.8264149e-39 337 226
0.01953564 0.61900002 0.015194387 9.6463607e-39 338 226
0.0204877 0.61500001 0.015096201 1.6653589e-38 339 226
0.021530934 0.61400002 0.015071654 1.2724073e-38 340 226
0.022570658 0.61299998 0.015047106 1.2908464e-38 341 226
0.023645451 0.61299998 0.015047106 1.2357814e-38 342 226
0.02467992 0.61199999 0.015022559 1.2541845e-38 343 226
0.025710879 0.611 0.014998012 1.2633322e-38 344 226
0.026738333 0.61000001 0.014973466 1.2633322e-38 345 226
0.027762281 0.60900003 0.014948919 1.2633319e-38 346 226
0.02878272 0.60799998 0.014924373 1.2541124e-38 347 226
0.029799653 0.60699999 0.014899827 1.281699e-38 348 226
0.030863928 0.60699999 0.014899827 1.2171621e-38 349 226
0.031928197 0.60699999 0.014899827 1.1156024e-38 350 226
0.032992471 0.60699999 0.014899827 1.0971633e-38 351 226
0.034056745 0.60699999 0.014899827 1.152228e-38 352 226
0.035236739 0.60900003 0.014948919 1.152228e-38 353 226
0.036304522 0.60900003 0.014948919 1.1522633e-38 354 226
0.037433665 0.61000001 0.014973466 1.1430438e-38 355 226
0.038566317 0.611 0.014998012 1.1521915e-38 356 226
0.039702479 0.61199999 0.015022559 1.1521915e-38 357 226
0.040775519 0.61199999 0.015022559 1.1522989e-38 358 226
0.041916937 0.61299998 0.015047106 1.1430435e-38 359 226
0.043061867 0.61400002 0.015071654 1.1429715e-38 360 226
0.0442103 0.61500001 0.015096201 1.1429715e-38 361 226
0.045509517 0.61799997 0.015169838 1.1429718e-38 362 226
0.046593077 0.61799997 0.015169838 1.1429718e-38 363 226
0.047753785 0.61900002 0.015194387 1.142972e-38 364 226
0.0488391 0.61900002 0.015194387 1.142972e-38 365 226
0.050005067 0.62 0.015218933 1.142972e-38 366 226
0.051092129 0.62 0.015218933 1.142972e-38 367 226
0.052263357 0.62099999 0.01524348 1.1613033e-38 368 226
0.053524006 0.62300003 0.015292573 1.170523e-38 369 226
0.054791667 0.625 0.015341667 1.1429718e-38 370 226
0.056155756 0.62800002 0.015415306 1.1429718e-38 371 226
0.057348024 0.62900001 0.015439852 1.1337522e-38 372 226
0.058543798 0.63 0.015464399 1.1429718e-38 373 226
0.059743073 0.63099998 0.015488946 1.1429718e-38 374 226
0.060849428 0.63099998 0.015488946 1.1429718e-38 375 226
0.062053975 0.63200003 0.015513494 1.1430435e-38 376 226
0.063162081 0.63200003 0.015513494 1.1246402e-38 377 226
0.064473569 0.634 0.015562586 1.1429718e-38 378 226
0.065688632 0.63499999 0.015587131 1.1337522e-38 379 226
0.066907197 0.63599998 0.015611678 1.1337525e-38 380 226
0.068129279 0.63700002 0.015636226 1.142972e-38 381 226
0.069572262 0.63999999 0.015709866 1.1431169e-38 382 226
0.070915326 0.64200002 0.01575896 1.1891789e-38 383 226
0.07204096 0.64200002 0.01575896 1.216982e-38 384 226
-0.10180555 0.764 0.017414106 1.4477598e-38 244 227
-0.10007149 0.76099998 0.017345725 1.4293567e-38 245 227
-0.09873721 0.76099998 0.017345725 1.4109178e-38 246 227
-0.097402923 0.76099998 0.017345725 1.4016622e-38 247 227
-0.095816158 0.759 0.017300138 1.3833663e-38 248 227
-0.094236404 0.75700003 0.017254554 1.3741468e-38 249 227
-0.092540927 0.75400001 0.017186172 1.1990037e-38 250 227
-0.090976954 0.75199997 0.017140586 1.0238321e-38 251 227
-0.089300767 0.74900001 0.017072206 1.115802e-38 252 227
-0.087752573 0.74699998 0.017026618 1.115802e-38 253 227
-0.086095676 0.74400002 0.016958239 1.1526072e-38 254 227
-0.084563263 0.74199998 0.016912652 1.1526072e-38 255 227
-0.082813434 0.73799998 0.016821479 1.1617549e-38 256 227
-0.08129856 0.736 0.016775893 1.1709743e-38 257 227
-0.079790697 0.73400003 0.016730307 1.1618266e-38 258 227
-0.07850375 0.73400003 0.016730307 1.1618266e-38 259 227
-0.076901197 0.73100001 0.016661927 1.1710461e-38 260 227
-0.07551606 0.73000002 0.016639132 1.1710461e-38 261 227
-0.074032739 0.72799999 0.016593546 1.1710819e-38 262 227
-0.072656378 0.727 0.016570752 1.1618266e-38 263 227
-0.070988953 0.72299999 0.01647958 1.1618266e-38 264 227
-0.069624864 0.722 0.016456785 1.1710819e-38 265 227
-0.068169601 0.72000003 0.0164112 1.1710461e-38 266 227
-0.066814266 0.71899998 0.016388407 1.1710461e-38 267 227
-0.065371275 0.71700001 0.016342819 1.1527148e-38 268 227
-0.064024724 0.71600002 0.016320027 1.1619343e-38 269 227
-0.062593997 0.71399999 0.016274439 1.1802655e-38 270 227
-0.061256204 0.713 0.016251646 1.1802655e-38 271 227
-0.059837762 0.71100003 0.01620606 1.207745e-38 272 227
-0.058508728 0.70999998 0.016183265 1.1985253e-38 273 227
-0.057102561 0.708 0.01613768 1.1250231e-38 274 227
-0.055703394 0.70599997 0.016092092 1.1250231e-38 275 227
-0.054311249 0.704 0.016046507 1.1156625e-38 276 227
-0.053001512 0.70300001 0.016023712 1.106443e-38 277 227
-0.051547997 0.69999999 0.015955333 1.0697818e-38 278 227
-0.050176892 0.69800001 0.015909746 1.0697818e-38 279 227
-0.048882935 0.69700003 0.015886955 9.8670035e-39 280 227
-0.047455717 0.69400001 0.015818574 1.1710557e-38 281 227
-0.04617228 0.69300002 0.015795778 1.3463764e-38 282 227
-0.0447626 0.69 0.015727401 1.4016938e-38 283 227
-0.043426562 0.68800002 0.015681813 1.3832584e-38 284 227
-0.042158898 0.68699998 0.015659019 1.3648553e-38 285 227
-0.040894743 0.68599999 0.015636226 1.3556002e-38 286 227
-0.03957624 0.68400002 0.01559064 1.3556002e-38 287 227
-0.038320854 0.68300003 0.015567848 1.3003912e-38 288 227
-0.036960267 0.68000001 0.015499466 1.2358543e-38 289 227
-0.035715401 0.67900002 0.015476674 1.0335291e-38 290 227
-0.034372345 0.676 0.015408293 9.5977258e-39 291 227
-0.033137999 0.67500001 0.0153855 9.2318328e-39 292 227
-0.03190716 0.67400002 0.015362706 9.3240284e-39 293 227
-0.030634239 0.67199999 0.01531712 9.5073406e-39 294 227
-0.029455997 0.67199999 0.01531712 9.5073406e-39 295 227
-0.028235679 0.671 0.015294326 9.5073434e-39 296 227
-0.027018867 0.67000002 0.015271533 9.3225935e-39 297 227
-0.025766984 0.66799998 0.015225946 9.3225935e-39 298 227
-0.02452212 0.66600001 0.01518036 9.3225935e-39 299 227
-0.023284266 0.66399997 0.015134773 9.3229494e-39 300 227
-0.02208674 0.66299999 0.015111978 9.1389183e-39 301 227
-0.020892721 0.662 0.015089186 9.3222305e-39 302 227
-0.019702207 0.66100001 0.015066394 9.3222305e-39 303 227
-0.018487146 0.65899998 0.015020805 9.6910088e-39 304 227
-0.017305398 0.65799999 0.014998012 9.506619e-39 305 227
-0.016151706 0.65799999 0.014998012 9.0287131e-39 306 227
-0.01497522 0.65700001 0.01497522 6.2624855e-39 307 227
-0.013760159 0.65399998 0.014906839 1.0561853e-38 308 227
-0.012613479 0.65399998 0.014906839 1.1852592e-38 309 227
-0.011431733 0.65200001 0.014861252 1.0577308e-38 310 227
-0.010256999 0.64999998 0.014815666 1.1222677e-38 311 227
-0.0091033066 0.64899999 0.014792874 1.0218226e-38 312 227
-0.0079531204 0.648 0.014770079 1.0310422e-38 313 227
-0.0068064397 0.64700001 0.014747286 1.0124593e-38 314 227
-0.0056457333 0.64399999 0.014678906 9.9398416e-39 315 227
-0.0045095733 0.64300001 0.014656113 1.0214984e-38 316 227
-0.00337692 0.64200002 0.01463332 1.0491571e-38 317 227
-0.0022477731 0.64099997 0.014610525 1.021606e-38 318 227
-0.0011221332 0.63999999 0.014587732 9.6628862e-39 319 227
0 0.63800001 0.014542148 1.0298547e-38 320 227
0.0011168733 0.63700002 0.014519353 9.5609824e-39 321 227
0.0022267331 0.63499999 0.014473766 1.0659055e-38 322 227
0.0033348398 0.634 0.014450972 1.0197717e-38 323 227
0.0044324268 0.63200003 0.014405387 1.0929891e-38 324 227
0.0055317665 0.63099998 0.014382593 1.1022446e-38 325 227
0.0066381195 0.63099998 0.014382593 1.0839862e-38 326 227
0.0077444729 0.63099998 0.014382593 1.0932058e-38 327 227
0.0088367993 0.63 0.014359799 1.0840948e-38 328 227
0.0099414 0.63 0.014359799 1.1117175e-38 329 227
0.011010934 0.62800002 0.014314214 1.1122207e-38 330 227
0.01203488 0.62400001 0.01422304 1.1491349e-38 331 227
0.01310792 0.62300003 0.014200246 1.1310907e-38 332 227
0.014200246 0.62300003 0.014200246 1.1310907e-38 333 227
0.015268027 0.62199998 0.014177452 1.0939245e-38 334 227
0.016358599 0.62199998 0.014177452 9.833256e-39 335 227
0.017421119 0.62099999 0.01415466 1.0931692e-38 336 227
0.018480133 0.62 0.014131867 9.8264191e-39 337 227
0.01953564 0.61900002 0.014109073 9.9215028e-39 338 227
0.0204877 0.61500001 0.0140179 1.6928369e-38 339 227
0.021530934 0.61400002 0.013995107 1.2724792e-38 340 227
0.022607479 0.61400002 0.013995107 1.2816988e-38 341 227
0.023645451 0.61299998 0.013972312 1.2266338e-38 342 227
0.02467992 0.61199999 0.013949519 1.2358533e-38 343 227
0.025710879 0.611 0.013926726 1.2633322e-38 344 227
0.026738333 0.61000001 0.013903934 1.2541127e-38 345 227
0.027762281 0.60900003 0.01388114 1.2724439e-38 346 227
0.02878272 0.60799998 0.013858346 1.2724439e-38 347 227
0.029799653 0.60699999 0.013835552 1.2633319e-38 348 227
0.030863928 0.60699999 0.013835552 1.198795e-38 349 227
0.031928197 0.60699999 0.013835552 1.1430816e-38 350 227
0.032992471 0.60699999 0.013835552 1.1338621e-38 351 227
0.034056745 0.60699999 0.013835552 1.152228e-38 352 227
0.035236739 0.60900003 0.01388114 1.152228e-38 353 227
0.036364131 0.61000001 0.013903934 1.1522633e-38 354 227
0.037495032 0.611 0.013926726 1.1430438e-38 355 227
0.038629439 0.61199999 0.013949519 1.1521915e-38 356 227
0.039702479 0.61199999 0.013949519 1.1521915e-38 357 227
0.040842142 0.61299998 0.013972312 1.1430438e-38 358 227
0.041916937 0.61299998 0.013972312 1.1430438e-38 359 227
0.043061867 0.61400002 0.013995107 1.1521917e-38 360 227
0.0442103 0.61500001 0.0140179 1.142972e-38 361 227
0.045509517 0.61799997 0.014086278 1.142972e-38 362 227
0.046668474 0.61900002 0.014109073 1.1521917e-38 363 227
0.047753785 0.61900002 0.014109073 1.1521917e-38 364 227
0.0488391 0.61900002 0.014109073 1.1521917e-38 365 227
0.050005067 0.62 0.014131867 1.142972e-38 366 227
0.051092129 0.62 0.014131867 1.142972e-38 367 227
0.052263357 0.62099999 0.01415466 1.1521917e-38 368 227
0.053524006 0.62300003 0.014200246 1.1521917e-38 369 227
0.054791667 0.625 0.014245833 1.1521917e-38 370 227
0.056155756 0.62800002 0.014314214 1.142972e-38 371 227
0.057439197 0.63 0.014359799 1.1429718e-38 372 227
0.058543798 0.63 0.014359799 1.1429718e-38 373 227
0.059743073 0.63099998 0.014382593 1.1337519e-38 374 227
0.060849428 0.63099998 0.014382593 1.1522271e-38 375 227
0.062053975 0.63200003 0.014405387 1.1430435e-38 376 227
0.063361958 0.634 0.014450972 1.1246402e-38 377 227
0.064473569 0.634 0.014450972 1.1429718e-38 378 227
0.065688632 0.63499999 0.014473766 1.1337522e-38 379 227
0.066907197 0.63599998 0.014496559 1.1337525e-38 380 227
0.068129279 0.63700002 0.014519353 1.142972e-38 381 227
0.069572262 0.63999999 0.014587732 1.1706311e-38 382 227
0.070804857 0.64099997 0.014610525 1.2166931e-38 383 227
0.07204096 0.64200002 0.01463332 1.2444961e-38 384 227
-0.10207205 0.76599997 0.016116638 1.456943e-38 244 228
-0.10007149 0.76099998 0.016011439 1.4477235e-38 245 228
-0.09873721 0.76099998 0.016011439 1.4201371e-38 246 228
-0.097402923 0.76099998 0.016011439 1.4016978e-38 247 228
-0.095816158 0.759 0.015969358 1.4109527e-38 248 228
-0.094236404 0.75700003 0.015927281 1.4017331e-38 249 228
-0.092540927 0.75400001 0.01586416 1.2266628e-38 250 228
-0.090976954 0.75199997 0.015822079 1.0514911e-38 251 228
-0.089419998 0.75 0.01578 1.1157667e-38 252 228
-0.087752573 0.74699998 0.015716879 1.1157667e-38 253 228
-0.086327121 0.74599999 0.015695838 1.1525714e-38 254 228
-0.084563263 0.74199998 0.015611678 1.1525714e-38 255 228
-0.082813434 0.73799998 0.015527519 1.1525714e-38 256 228
-0.081519477 0.73799998 0.015527519 1.1525714e-38 257 228
-0.080008104 0.736 0.015485439 1.1618266e-38 258 228
-0.07850375 0.73400003 0.01544336 1.1618266e-38 259 228
-0.076901197 0.73100001 0.01538024 1.1434954e-38 260 228
-0.07551606 0.73000002 0.0153592 1.1527148e-38 261 228
-0.074032739 0.72799999 0.01531712 1.1618266e-38 262 228
-0.072656378 0.727 0.015296079 1.1618266e-38 263 228
-0.070988953 0.72299999 0.015211919 1.1434595e-38 264 228
-0.069624864 0.722 0.015190879 1.1434595e-38 265 228
-0.068169601 0.72000003 0.0151488 1.1434595e-38 266 228
-0.066814266 0.71899998 0.01512776 1.1527148e-38 267 228
-0.065371275 0.71700001 0.015085679 1.1527148e-38 268 228
-0.064024724 0.71600002 0.01506464 1.1527148e-38 269 228
-0.062593997 0.71399999 0.015022559 1.1618625e-38 270 228
-0.061342116 0.71399999 0.015022559 1.1526431e-38 271 228
-0.060006075 0.713 0.015001519 1.1802307e-38 272 228
-0.058508728 0.70999998 0.014938398 1.1618275e-38 273 228
-0.057102561 0.708 0.01489632 1.1433881e-38 274 228
-0.055703394 0.70599997 0.014854239 1.1249131e-38 275 228
-0.054311249 0.704 0.014812159 1.1156937e-38 276 228
-0.053076904 0.704 0.014812159 1.0880713e-38 277 228
-0.051621638 0.70099998 0.014749039 1.0421546e-38 278 228
-0.050320663 0.69999999 0.014727999 1.0329351e-38 279 228
-0.048882935 0.69700003 0.01466488 1.0697115e-38 280 228
-0.047455717 0.69400001 0.01460176 1.2448831e-38 281 228
-0.04617228 0.69300002 0.014580719 1.38322e-38 282 228
-0.0447626 0.69 0.014517599 1.4108427e-38 283 228
-0.043552797 0.69 0.014517599 1.3648553e-38 284 228
-0.042158898 0.68699998 0.014454478 1.3832584e-38 285 228
-0.040894743 0.68599999 0.01443344 1.3923708e-38 286 228
-0.039691959 0.68599999 0.01443344 1.3554924e-38 287 228
-0.038320854 0.68300003 0.014370319 1.2267796e-38 288 228
-0.037068974 0.68199998 0.01434928 1.1346199e-38 289 228
-0.035715401 0.67900002 0.01428616 1.0151265e-38 290 228
-0.034474038 0.67799997 0.014265119 9.7824828e-39 291 228
-0.033187091 0.676 0.014223038 9.5073406e-39 292 228
-0.032001842 0.676 0.014223038 9.5073406e-39 293 228
-0.030771 0.67500001 0.014202001 9.5073406e-39 294 228
-0.029543666 0.67400002 0.01418096 9.5073406e-39 295 228
-0.02827776 0.67199999 0.01413888 9.4147891e-39 296 228
-0.027018867 0.67000002 0.014096799 9.3225935e-39 297 228
-0.025766984 0.66799998 0.014054719 9.3225935e-39 298 228
-0.024558939 0.667 0.014033679 9.3225935e-39 299 228
-0.023354398 0.66600001 0.014012639 9.4144261e-39 300 228
-0.022120051 0.66399997 0.013970559 9.3222305e-39 301 228
-0.020924279 0.66299999 0.013949519 9.3222305e-39 302 228
-0.019732011 0.662 0.01392848 9.3222305e-39 303 228
-0.018543253 0.66100001 0.01390744 9.7824856e-39 304 228
-0.017331699 0.65899998 0.013865359 9.5977356e-39 305 228
-0.016151706 0.65799999 0.01384432 8.9361616e-39 306 228
-0.01497522 0.65700001 0.013823279 6.0780971e-39 307 228
-0.013781199 0.65499997 0.013781199 1.0469296e-38 308 228
-0.012613479 0.65399998 0.013760159 1.2220295e-38 309 228
-0.011449266 0.653 0.013739119 1.0668422e-38 310 228
-0.01028856 0.65200001 0.01371808 1.1498184e-38 311 228
-0.0091173323 0.64999998 0.013675999 1.0308624e-38 312 228
-0.0079531204 0.648 0.01363392 1.040082e-38 313 228
-0.0068064397 0.64700001 0.013612879 1.0308624e-38 314 228
-0.0056457333 0.64399999 0.013549759 1.0124593e-38 315 228
-0.0045095733 0.64300001 0.01352872 1.0126381e-38 316 228
-0.00337692 0.64200002 0.01350768 1.0310772e-38 317 228
-0.0022477731 0.64099997 0.013486639 1.0217858e-38 318 228
-0.0011221332 0.63999999 0.013465599 9.9409122e-39 319 228
0 0.63800001 0.01342352 1.0028074e-38 320 228
0.0011168733 0.63700002 0.01340248 9.1057593e-39 321 228
0.0022302398 0.63599998 0.013381439 1.0751967e-38 322 228
0.0033400999 0.63499999 0.0133604 1.0383183e-38 323 228
0.0044324268 0.63200003 0.01329728 1.1022446e-38 324 228
0.0055405335 0.63200003 0.01329728 1.0837694e-38 325 228
0.0066381195 0.63099998 0.013276239 1.0929544e-38 326 228
0.0077444729 0.63099998 0.013276239 1.0652955e-38 327 228
0.0088367993 0.63 0.013255199 1.0469294e-38 328 228
0.0099414 0.63 0.013255199 1.0744803e-38 329 228
0.011010934 0.62800002 0.01321312 1.0656212e-38 330 228
0.012054166 0.625 0.01315 1.1025355e-38 331 228
0.01312896 0.62400001 0.01312896 1.0753078e-38 332 228
0.014200246 0.62300003 0.01310792 1.0845633e-38 333 228
0.015292573 0.62300003 0.01310792 1.102713e-38 334 228
0.016358599 0.62199998 0.013086879 1.0473956e-38 335 228
0.017421119 0.62099999 0.013065839 1.0746582e-38 336 228
0.018509939 0.62099999 0.013065839 9.8264177e-39 337 228
0.01953564 0.61900002 0.01302376 9.828231e-39 338 228
0.020521011 0.616 0.01296064 1.7112044e-38 339 228
0.021566 0.61500001 0.012939599 1.2724792e-38 340 228
0.022607479 0.61400002 0.01291856 1.2816988e-38 341 228
0.023645451 0.61299998 0.012897519 1.2357812e-38 342 228
0.024720244 0.61299998 0.012897519 1.2541843e-38 343 228
0.025752958 0.61199999 0.012876479 1.2541127e-38 344 228
0.026782164 0.611 0.012855439 1.2541127e-38 345 228
0.027807867 0.61000001 0.0128344 1.2541127e-38 346 228
0.028830061 0.60900003 0.01281336 1.2541127e-38 347 228
0.029848745 0.60799998 0.012792319 1.2633322e-38 348 228
0.030863928 0.60699999 0.01277128 1.1895757e-38 349 228
0.031928197 0.60699999 0.01277128 1.115495e-38 350 228
0.032992471 0.60699999 0.01277128 1.1062754e-38 351 228
0.034112852 0.60799998 0.012792319 1.1246775e-38 352 228
0.035236739 0.60900003 0.01281336 1.1246775e-38 353 228
0.036364131 0.61000001 0.0128344 1.1430441e-38 354 228
0.037495032 0.611 0.012855439 1.1430441e-38 355 228
0.038629439 0.61199999 0.012876479 1.1521917e-38 356 228
0.039767351 0.61299998 0.012897519 1.1521917e-38 357 228
0.040842142 0.61299998 0.012897519 1.1521917e-38 358 228
0.041916937 0.61299998 0.012897519 1.1521917e-38 359 228
0.043061867 0.61400002 0.01291856 1.1521917e-38 360 228
0.0442103 0.61500001 0.012939599 1.1521917e-38 361 228
0.045509517 0.61799997 0.013002719 1.1521917e-38 362 228
0.046668474 0.61900002 0.01302376 1.1521917e-38 363 228
0.047753785 0.61900002 0.01302376 1.1430441e-38 364 228
0.0488391 0.61900002 0.01302376 1.1430441e-38 365 228
0.050005067 0.62 0.0130448 1.1521917e-38 366 228
0.051092129 0.62 0.0130448 1.142972e-38 367 228
0.052263357 0.62099999 0.013065839 1.1521915e-38 368 228
0.053609919 0.62400001 0.01312896 1.1521915e-38 369 228
0.054966997 0.62699997 0.013192079 1.1429718e-38 370 228
0.056155756 0.62800002 0.01321312 1.1429718e-38 371 228
0.057439197 0.63 0.013255199 1.1428999e-38 372 228
0.058543798 0.63 0.013255199 1.161303e-38 373 228
0.059743073 0.63099998 0.013276239 1.1429715e-38 374 228
0.060945868 0.63200003 0.01329728 1.1522271e-38 375 228
0.062053975 0.63200003 0.01329728 1.1429715e-38 376 228
0.063361958 0.634 0.013339359 1.1429715e-38 377 228
0.064473569 0.634 0.013339359 1.1429718e-38 378 228
0.065688632 0.63499999 0.0133604 1.1337522e-38 379 228
0.067012399 0.63700002 0.01340248 1.1429364e-38 380 228
0.068236224 0.63800001 0.01342352 1.1521561e-38 381 228
0.069680966 0.64099997 0.013486639 1.1523365e-38 382 228
0.070804857 0.64099997 0.013486639 1.2076539e-38 383 228
0.07204096 0.64200002 0.01350768 1.2262016e-38 384 228
-0.10207205 0.76599997 0.014773586 1.4569433e-38 244 229
-0.100466 0.764 0.014735013 1.4476879e-38 245 229
-0.098866954 0.76200002 0.01469644 1.429249e-38 246 229
-0.097402923 0.76099998 0.014677152 1.429249e-38 247 229
-0.096068636 0.76099998 0.014677152 1.4016976e-38 248 229
-0.09448538 0.759 0.014638579 1.4109171e-38 249 229
-0.092663661 0.755 0.014561433 1.2542864e-38 250 229
-0.091218919 0.75400001 0.014542146 1.0791147e-38 251 229
-0.089419998 0.75 0.014465 1.1340629e-38 252 229
-0.087752573 0.74699998 0.014407139 1.1248433e-38 253 229
-0.086327121 0.74599999 0.014387853 1.1341684e-38 254 229
-0.084791198 0.74400002 0.01434928 1.1525714e-38 255 229
-0.083150074 0.741 0.01429142 1.1525714e-38 256 229
-0.081519477 0.73799998 0.014233559 1.1525714e-38 257 229
-0.080008104 0.736 0.014194986 1.1618266e-38 258 229
-0.07850375 0.73400003 0.014156413 1.1618266e-38 259 229
-0.077111594 0.73299998 0.014137126 1.1434954e-38 260 229
-0.075619511 0.73100001 0.014098554 1.1434954e-38 261 229
-0.074032739 0.72799999 0.014040692 1.1618266e-38 262 229
-0.072656378 0.727 0.014021406 1.1618266e-38 263 229
-0.070988953 0.72299999 0.01394426 1.1526072e-38 264 229
-0.069624864 0.722 0.013924973 1.1618266e-38 265 229
-0.068169601 0.72000003 0.0138864 1.1618266e-38 266 229
-0.066814266 0.71899998 0.013867113 1.1618266e-38 267 229
-0.065371275 0.71700001 0.013828539 1.1618266e-38 268 229
-0.064024724 0.71600002 0.013809253 1.1618266e-38 269 229
-0.062593997 0.71399999 0.01377068 1.1709384e-38 270 229
-0.061342116 0.71399999 0.01377068 1.1709384e-38 271 229
-0.060006075 0.713 0.013751393 1.1709386e-38 272 229
-0.058591139 0.71100003 0.01371282 1.1709386e-38 273 229
-0.057102561 0.708 0.013654959 1.1617569e-38 274 229
-0.055782299 0.70700002 0.013635674 1.1617569e-38 275 229
-0.054311249 0.704 0.013577812 1.1892749e-38 276 229
-0.053001512 0.70300001 0.013558527 1.2445564e-38 277 229
-0.051621638 0.70099998 0.013519952 1.2170818e-38 278 229
-0.050320663 0.69999999 0.013500666 1.2631798e-38 279 229
-0.048953064 0.69800001 0.013462093 1.3093902e-38 280 229
-0.047592476 0.69599998 0.013423519 1.3831467e-38 281 229
-0.046238903 0.69400001 0.013384946 1.3924058e-38 282 229
-0.044827472 0.69099998 0.013327086 1.3924058e-38 283 229
-0.043552797 0.69 0.0133078 1.3832228e-38 284 229
-0.042220265 0.68800002 0.013269227 1.3832228e-38 285 229
-0.040954359 0.68699998 0.013249939 1.4015906e-38 286 229
-0.039691959 0.68599999 0.013230653 1.2909199e-38 287 229
-0.038376961 0.68400002 0.01319208 1.0703713e-38 288 229
-0.037068974 0.68199998 0.013153506 9.6899214e-39 289 229
-0.035767999 0.68000001 0.013114933 9.5073378e-39 290 229
-0.034474038 0.67799997 0.013076359 9.5073378e-39 291 229
-0.033187091 0.676 0.013037786 9.5073406e-39 292 229
-0.032001842 0.676 0.013037786 9.415145e-39 293 229
-0.030771 0.67500001 0.0130185 9.415145e-39 294 229
-0.029543666 0.67400002 0.012999214 9.415145e-39 295 229
-0.02827776 0.67199999 0.012960639 9.3225935e-39 296 229
-0.027059194 0.671 0.012941353 9.3225935e-39 297 229
-0.025844134 0.67000002 0.012922067 9.3225935e-39 298 229
-0.024558939 0.667 0.012864206 9.1385623e-39 299 229
-0.023354398 0.66600001 0.01284492 9.3229494e-39 300 229
-0.022120051 0.66399997 0.012806346 9.3229494e-39 301 229
-0.020924279 0.66299999 0.012787059 9.3222305e-39 302 229
-0.019732011 0.662 0.012767773 9.3222305e-39 303 229
-0.018543253 0.66100001 0.012748486 9.7824856e-39 304 229
-0.017331699 0.65899998 0.012709912 9.69029e-39 305 229
-0.016151706 0.65799999 0.012690626 8.8439631e-39 306 229
-0.01497522 0.65700001 0.01267134 5.9858986e-39 307 229
-0.013781199 0.65499997 0.012632766 1.0193782e-38 308 229
-0.012632766 0.65499997 0.012632766 1.2037336e-38 309 229
-0.011449266 0.653 0.012594193 1.0578022e-38 310 229
-0.01028856 0.65200001 0.012574906 1.1223392e-38 311 229
-0.0091173323 0.64999998 0.012536332 1.0308268e-38 312 229
-0.0079776663 0.64999998 0.012536332 1.0400464e-38 313 229
-0.0068169599 0.648 0.01249776 1.0034558e-38 314 229
-0.0056720334 0.64700001 0.012478473 1.0034558e-38 315 229
-0.0045165867 0.64399999 0.012420613 1.0034555e-38 316 229
-0.0033821799 0.64300001 0.012401327 1.0034555e-38 317 229
-0.00225128 0.64200002 0.01238204 1.0125309e-38 318 229
-0.0011238866 0.64099997 0.012362752 1.0033113e-38 319 229
0 0.63999999 0.012343466 1.0032748e-38 320 229
0.0011186267 0.63800001 0.012304893 9.2026269e-39 321 229
0.0022302398 0.63599998 0.012266319 1.0571892e-38 322 229
0.0033453598 0.63599998 0.012266319 9.9265223e-39 323 229
0.0044464534 0.634 0.012227747 1.0747654e-38 324 229
0.0055405335 0.63200003 0.012189173 1.0655099e-38 325 229
0.0066486401 0.63200003 0.012189173 1.0836975e-38 326 229
0.0077444729 0.63099998 0.012169886 1.0193758e-38 327 229
0.0088367993 0.63 0.0121506 9.6427551e-39 328 229
0.0099414 0.63 0.0121506 1.0010103e-38 329 229
0.011010934 0.62800002 0.012112026 1.0193779e-38 330 229
0.012092739 0.62699997 0.012092739 1.0193779e-38 331 229
0.01312896 0.62400001 0.01203488 1.0837348e-38 332 229
0.014200246 0.62300003 0.012015593 1.139052e-38 333 229
0.015292573 0.62300003 0.012015593 1.1021739e-38 334 229
0.016358599 0.62199998 0.011996306 1.0929544e-38 335 229
0.017449172 0.62199998 0.011996306 1.0745501e-38 336 229
0.018509939 0.62099999 0.01197702 9.7345794e-39 337 229
0.019567199 0.62 0.011957733 9.8285841e-39 338 229
0.020620953 0.61900002 0.011938446 1.7019843e-38 339 229
0.021566 0.61500001 0.0118613 1.2816985e-38 340 229
0.022607479 0.61400002 0.011842013 1.2909539e-38 341 229
0.023645451 0.61299998 0.011822726 1.2357814e-38 342 229
0.024720244 0.61299998 0.011822726 1.2357814e-38 343 229
0.025752958 0.61199999 0.01180344 1.2724439e-38 344 229
0.026825998 0.61199999 0.01180344 1.2724439e-38 345 229
0.027853452 0.611 0.011784153 1.2541127e-38 346 229
0.028877402 0.61000001 0.011764866 1.2541127e-38 347 229
0.029897839 0.60900003 0.01174558 1.2633322e-38 348 229
0.030914772 0.60799998 0.011726293 1.1895757e-38 349 229
0.031980798 0.60799998 0.011726293 1.1062757e-38 350 229
0.033046823 0.60799998 0.011726293 1.1062757e-38 351 229
0.034112852 0.60799998 0.011726293 1.1430087e-38 352 229
0.035236739 0.60900003 0.01174558 1.1430087e-38 353 229
0.036364131 0.61000001 0.011764866 1.1430441e-38 354 229
0.037495032 0.611 0.011784153 1.1430441e-38 355 229
0.038629439 0.61199999 0.01180344 1.1521917e-38 356 229
0.039767351 0.61299998 0.011822726 1.1521917e-38 357 229
0.040842142 0.61299998 0.011822726 1.1521917e-38 358 229
0.041985322 0.61400002 0.011842013 1.1521917e-38 359 229
0.043132 0.61500001 0.0118613 1.1521915e-38 360 229
0.044282187 0.616 0.011880586 1.1521915e-38 361 229
0.045509517 0.61799997 0.011919159 1.1430438e-38 362 229
0.046668474 0.61900002 0.011938446 1.1430438e-38 363 229
0.047753785 0.61900002 0.011938446 1.1521915e-38 364 229
0.0488391 0.61900002 0.011938446 1.1521915e-38 365 229
0.050005067 0.62 0.011957733 1.1521915e-38 366 229
0.05117454 0.62099999 0.01197702 1.1521915e-38 367 229
0.05243168 0.62300003 0.012015593 1.1430438e-38 368 229
0.053695831 0.625 0.012054166 1.1430438e-38 369 229
0.054966997 0.62699997 0.012092739 1.1429718e-38 370 229
0.056245174 0.62900001 0.012131313 1.1337522e-38 371 229
0.057439197 0.63 0.0121506 1.1428999e-38 372 229
0.058636725 0.63099998 0.012169886 1.1428999e-38 373 229
0.059743073 0.63099998 0.012169886 1.1337519e-38 374 229
0.060945868 0.63200003 0.012189173 1.1429715e-38 375 229
0.062053975 0.63200003 0.012189173 1.1337522e-38 376 229
0.063361958 0.634 0.012227747 1.1429718e-38 377 229
0.064473569 0.634 0.012227747 1.1429718e-38 378 229
0.065792076 0.63599998 0.012266319 1.1429718e-38 379 229
0.067012399 0.63700002 0.012285607 1.142972e-38 380 229
0.068450131 0.63999999 0.012343466 1.1521917e-38 381 229
0.069680966 0.64099997 0.012362752 1.1706674e-38 382 229
0.070804857 0.64099997 0.012362752 1.2259848e-38 383 229
0.07192874 0.64099997 0.012362752 1.2353849e-38 384 229
-0.10207205 0.76599997 0.013430533 1.4569433e-38 244 230
-0.10072899 0.76599997 0.013430533 1.4476879e-38 245 230
-0.099126451 0.764 0.013395466 1.4292488e-38 246 230
-0.097530924 0.76200002 0.0133604 1.4292488e-38 247 230
-0.096068636 0.76099998 0.013342866 1.4200288e-38 248 230
-0.09448538 0.759 0.0133078 1.4385039e-38 249 230
-0.092909135 0.75700003 0.013272733 1.2911296e-38 250 230
-0.091218919 0.75400001 0.013220133 1.0975188e-38 251 230
-0.089419998 0.75 0.01315 1.1340275e-38 252 230
-0.087752573 0.74699998 0.013097399 1.1340275e-38 253 230
-0.086327121 0.74599999 0.013079867 1.1342401e-38 254 230
-0.084791198 0.74400002 0.0130448 1.1250207e-38 255 230
-0.083150074 0.741 0.0129922 1.1341684e-38 256 230
-0.081519477 0.73799998 0.012939599 1.1525714e-38 257 230
-0.080008104 0.736 0.012904533 1.1434595e-38 258 230
-0.07850375 0.73400003 0.012869466 1.1342401e-38 259 230
-0.077111594 0.73299998 0.012851933 1.1617908e-38 260 230
-0.075619511 0.73100001 0.012816866 1.1617908e-38 261 230
-0.074236132 0.73000002 0.012799333 1.1342401e-38 262 230
-0.072756313 0.72799999 0.012764266 1.1342401e-38 263 230
-0.071185336 0.72500002 0.012711667 1.1526431e-38 264 230
-0.069721296 0.72299999 0.012676599 1.1526431e-38 265 230
-0.068169601 0.72000003 0.012624 1.1526431e-38 266 230
-0.066814266 0.71899998 0.012606465 1.1526431e-38 267 230
-0.065371275 0.71700001 0.0125714 1.1618275e-38 268 230
-0.064024724 0.71600002 0.012553867 1.1802307e-38 269 230
-0.062769331 0.71600002 0.012553867 1.1893797e-38 270 230
-0.061342116 0.71399999 0.012518799 1.1986351e-38 271 230
-0.060006075 0.713 0.012501267 1.1984929e-38 272 230
-0.058591139 0.71100003 0.0124662 1.216896e-38 273 230
-0.057102561 0.708 0.0124136 1.2532727e-38 274 230
-0.055782299 0.70700002 0.012396066 1.2071749e-38 275 230
-0.054311249 0.704 0.012343466 1.2165424e-38 276 230
-0.053001512 0.70300001 0.012325933 1.3271772e-38 277 230
-0.051621638 0.70099998 0.012290866 1.4104094e-38 278 230
-0.050320663 0.69999999 0.012273333 1.4196291e-38 279 230
-0.048953064 0.69800001 0.012238266 1.37393e-38 280 230
-0.047592476 0.69599998 0.0122032 1.4015528e-38 281 230
-0.046238903 0.69400001 0.012168133 1.3924064e-38 282 230
-0.044827472 0.69099998 0.012115533 1.3924064e-38 283 230
-0.043552797 0.69 0.012097999 1.3923708e-38 284 230
-0.042220265 0.68800002 0.012062933 1.3647121e-38 285 230
-0.040954359 0.68699998 0.012045399 1.2452544e-38 286 230
-0.039691959 0.68599999 0.012027865 1.1069609e-38 287 230
-0.038376961 0.68400002 0.0119928 9.8753973e-39 288 230
-0.037068974 0.68199998 0.011957732 9.691006e-39 289 230
-0.035767999 0.68000001 0.011922667 9.416224e-39 290 230
-0.034474038 0.67799997 0.011887599 9.3240284e-39 291 230
-0.033285279 0.67799997 0.011887599 9.5066218e-39 292 230
-0.032001842 0.676 0.011852534 9.5066218e-39 293 230
-0.030771 0.67500001 0.011835 9.5066218e-39 294 230
-0.029543666 0.67400002 0.011817466 9.5066218e-39 295 230
-0.02836192 0.67400002 0.011817466 9.4144261e-39 296 230
-0.027059194 0.671 0.011764866 9.4144261e-39 297 230
-0.025882706 0.671 0.011764866 9.3229494e-39 298 230
-0.024669399 0.67000002 0.011747333 9.3229494e-39 299 230
-0.023389466 0.667 0.011694733 9.1389183e-39 300 230
-0.02218668 0.66600001 0.011677199 9.1389183e-39 301 230
-0.020924279 0.66299999 0.0116246 9.3222305e-39 302 230
-0.019732011 0.662 0.011607066 9.3222305e-39 303 230
-0.018543253 0.66100001 0.011589534 9.7824856e-39 304 230
-0.017331699 0.65899998 0.011554466 9.50554e-39 305 230
-0.016151706 0.65799999 0.011536933 8.7535654e-39 306 230
-0.014998012 0.65799999 0.011536933 5.8955009e-39 307 230
-0.013781199 0.65499997 0.011484332 1.0010474e-38 308 230
-0.012632766 0.65499997 0.011484332 1.1762191e-38 309 230
-0.011449266 0.653 0.011449266 1.0578025e-38 310 230
-0.010304339 0.653 0.011449266 1.1131198e-38 311 230
-0.0091173323 0.64999998 0.011396666 1.0125672e-38 312 230
-0.0079776663 0.64999998 0.011396666 1.0310422e-38 313 230
-0.0068169599 0.648 0.0113616 9.851962e-39 314 230
-0.0056720334 0.64700001 0.011344067 9.851962e-39 315 230
-0.0045165867 0.64399999 0.011291467 9.9416437e-39 316 230
-0.0033821799 0.64300001 0.011273934 9.849448e-39 317 230
-0.00225128 0.64200002 0.0112564 9.849448e-39 318 230
-0.0011238866 0.64099997 0.011238866 1.0125675e-38 319 230
0 0.63999999 0.011221332 9.9427101e-39 320 230
0.0011186267 0.63800001 0.011186266 9.205145e-39 321 230
0.0022337467 0.63700002 0.011168733 1.0482216e-38 322 230
0.0033453598 0.63599998 0.011151199 9.3758694e-39 323 230
0.0044534663 0.63499999 0.011133666 1.093061e-38 324 230
0.0055580665 0.634 0.011116133 1.0101927e-38 325 230
0.0066486401 0.63200003 0.011081067 1.0746229e-38 326 230
0.0077567468 0.63200003 0.011081067 1.3511737e-38 327 230
0.008850826 0.63099998 0.011063533 1.0951852e-38 328 230
0.0099414 0.63 0.011046 1.1505025e-38 329 230
0.011028466 0.62900001 0.011028466 1.1681855e-38 330 230
0.012092739 0.62699997 0.010993399 1.0114529e-38 331 230
0.01315 0.625 0.010958333 1.0745145e-38 332 230
0.01422304 0.62400001 0.0109408 1.0745145e-38 333 230
0.015292573 0.62300003 0.010923267 1.0746947e-38 334 230
0.0163849 0.62300003 0.010923267 1.0285969e-38 335 230
0.017449172 0.62199998 0.010905732 1.0745145e-38 336 230
0.018539745 0.62199998 0.010905732 9.7345822e-39 337 230
0.019598758 0.62099999 0.010888199 9.7371102e-39 338 230
0.020654265 0.62 0.010870666 1.6743979e-38 339 230
0.021601066 0.616 0.010800533 1.2724792e-38 340 230
0.022607479 0.61400002 0.010765467 1.2909183e-38 341 230
0.023684027 0.61400002 0.010765467 1.2357814e-38 342 230
0.024720244 0.61299998 0.010747932 1.2357814e-38 343 230
0.025795039 0.61299998 0.010747932 1.2541127e-38 344 230
0.026825998 0.61199999 0.0107304 1.2541127e-38 345 230
0.027853452 0.611 0.010712867 1.2541127e-38 346 230
0.028877402 0.61000001 0.010695334 1.2541127e-38 347 230
0.029897839 0.60900003 0.0106778 1.2541845e-38 348 230
0.030965621 0.60900003 0.0106778 1.1712445e-38 349 230
0.032033399 0.60900003 0.0106778 1.1062757e-38 350 230
0.033046823 0.60799998 0.010660267 1.0970561e-38 351 230
0.034112852 0.60799998 0.010660267 1.1246056e-38 352 230
0.035236739 0.60900003 0.0106778 1.1430087e-38 353 230
0.036364131 0.61000001 0.010695334 1.1430438e-38 354 230
0.037495032 0.611 0.010712867 1.1430438e-38 355 230
0.038629439 0.61199999 0.0107304 1.161411e-38 356 230
0.039767351 0.61299998 0.010747932 1.161411e-38 357 230
0.040842142 0.61299998 0.010747932 1.1430438e-38 358 230
0.041985322 0.61400002 0.010765467 1.1522633e-38 359 230
0.043132 0.61500001 0.010783 1.1521915e-38 360 230
0.044282187 0.616 0.010800533 1.161411e-38 361 230
0.045583159 0.61900002 0.010853133 1.1430438e-38 362 230
0.046668474 0.61900002 0.010853133 1.1522633e-38 363 230
0.047753785 0.61900002 0.010853133 1.1521915e-38 364 230
0.048917998 0.62 0.010870666 1.161411e-38 365 230
0.05008572 0.62099999 0.010888199 1.1430438e-38 366 230
