# .PCD v.7 - Point Cloud Data file format
FIELDS x y z rgb imX imY
SIZE 4 4 4 4 4 4
TYPE F F F F F F
COUNT 1 1 1 1 1 1
WIDTH 831
HEIGHT 1
VIEWPOINT 0 0 0 1 0 0 0
POINTS 831
DATA ascii
0.020268533 0.68000001 -0.025037598 1.1610105e-38 337 261
0.021429239 0.67900002 -0.025000781 1.1700503e-38 338 261
0.022619752 0.67900002 -0.025000781 1.1239525e-38 339 261
0.023810266 0.67900002 -0.025000781 1.1422474e-38 340 261
0.025037598 0.68000001 -0.025037598 1.1422474e-38 341 261
0.026229866 0.68000001 -0.025037598 1.1423546e-38 342 261
0.027422134 0.68000001 -0.025037598 1.179233e-38 343 261
0.028614398 0.68000001 -0.025037598 1.1884526e-38 344 261
0.029806666 0.68000001 -0.025037598 1.1884526e-38 345 261
0.032184184 0.70599997 -0.025994917 1.206856e-38 346 261
0.03332736 0.704 -0.02592128 1.2160755e-38 347 261
0.034561705 0.704 -0.02592128 1.2712497e-38 348 261
0.035796054 0.704 -0.02592128 1.3357508e-38 349 261
0.037030395 0.704 -0.02592128 1.4005046e-38 350 261
0.038373452 0.70599997 -0.025994917 1.5387981e-38 351 261
0.039611302 0.70599997 -0.025994917 1.6309584e-38 352 261
0.040849157 0.70599997 -0.025994917 1.6217388e-38 353 261
0.039046731 0.65499997 -0.024117097 1.5389057e-38 354 261
0.040195163 0.65499997 -0.024117097 1.3545144e-38 355 261
0.041280478 0.65399998 -0.024080278 1.3085238e-38 356 261
0.04242716 0.65399998 -0.024080278 1.3085238e-38 357 261
0.043640465 0.65499997 -0.024117097 1.3176355e-38 358 261
0.044788897 0.65499997 -0.024117097 1.2900128e-38 359 261
0.04593733 0.65499997 -0.024117097 1.2808283e-38 360 261
0.047085766 0.65499997 -0.024117097 1.2715727e-38 361 261
0.048234195 0.65499997 -0.024117097 1.2623168e-38 362 261
0.049533416 0.65700001 -0.024190739 1.2438418e-38 363 261
0.050685361 0.65700001 -0.024190739 1.2712845e-38 364 261
0.051916201 0.65799999 -0.02422756 1.2436256e-38 365 261
0.05306989 0.65799999 -0.02422756 1.2067846e-38 366 261
0.054305989 0.65899998 -0.024264378 1.4188346e-38 367 261
0.055713918 0.662 -0.024374841 1.511176e-38 368 261
0.056874625 0.662 -0.024374841 1.6125913e-38 369 261
0.05821066 0.66399997 -0.024448479 1.6033367e-38 370 261
0.059374876 0.66399997 -0.024448479 1.6033367e-38 371 261
0.060539093 0.66399997 -0.024448479 1.6033367e-38 372 261
-0.056537982 0.70099998 -0.027039904 1.5205389e-38 274 262
-0.055229999 0.69999999 -0.027001332 1.4467822e-38 275 262
-0.053848371 0.69800001 -0.026924185 1.4467091e-38 276 262
-0.052549154 0.69700003 -0.026885614 1.4190864e-38 277 262
-0.051327083 0.69700003 -0.026885614 1.3823156e-38 278 262
-0.050033119 0.69599998 -0.026847038 1.3730961e-38 279 262
-0.048672531 0.69400001 -0.026769891 1.3363617e-38 280 262
-0.047387339 0.69300002 -0.02673132 1.3271422e-38 281 262
-0.046039023 0.69099998 -0.026654173 1.3270706e-38 282 262
-0.0447626 0.69 -0.026615599 1.3270706e-38 283 262
-0.043426562 0.68800002 -0.026538454 1.3178154e-38 284 262
-0.042158898 0.68699998 -0.026499879 1.3085957e-38 285 262
-0.040894743 0.68599999 -0.026461305 1.3085235e-38 286 262
-0.03957624 0.68400002 -0.02638416 1.3085235e-38 287 262
-0.038320854 0.68300003 -0.026345588 1.2993037e-38 288 262
-0.037068974 0.68199998 -0.026307013 1.2993037e-38 289 262
-0.035873197 0.68199998 -0.026307013 1.2809725e-38 290 262
-0.034575731 0.68000001 -0.026229866 1.2717529e-38 291 262
-0.033383466 0.68000001 -0.026229866 1.2809725e-38 292 262
-0.032191198 0.68000001 -0.026229866 1.2625333e-38 293 262
-0.030953348 0.67900002 -0.026191294 1.2900478e-38 294 262
-0.029631332 0.676 -0.026075572 1.2900478e-38 295 262
-0.028446076 0.676 -0.026075572 1.2809002e-38 296 262
-0.027220501 0.67500001 -0.026037 1.2809002e-38 297 262
-0.026037 0.67500001 -0.026037 1.2625331e-38 298 262
-0.024816679 0.67400002 -0.025998428 1.2625331e-38 299 262
-0.023634933 0.67400002 -0.025998428 1.2532771e-38 300 262
-0.022486499 0.67500001 -0.026037 1.2532771e-38 301 262
-0.021303 0.67500001 -0.026037 1.2532415e-38 302 262
-0.020089693 0.67400002 -0.025998428 1.2440219e-38 303 262
-0.018907947 0.67400002 -0.025998428 1.2440222e-38 304 262
-0.0177262 0.67400002 -0.025998428 1.2347668e-38 305 262
-0.016544454 0.67400002 -0.025998428 1.2531336e-38 306 262
-0.01531712 0.67199999 -0.025921278 1.2531336e-38 307 262
-0.01413888 0.67199999 -0.025921278 1.2531336e-38 308 262
-0.012960639 0.67199999 -0.025921278 1.2347305e-38 309 262
-0.011782399 0.67199999 -0.025921278 1.2254753e-38 310 262
-0.010604159 0.67199999 -0.025921278 1.2254753e-38 311 262
-0.0094259195 0.67199999 -0.025921278 1.2162911e-38 312 262
-0.00824768 0.67199999 -0.025921278 1.2162911e-38 313 262
-0.0070694401 0.67199999 -0.025921278 1.2346579e-38 314 262
-0.0059087332 0.67400002 -0.025998428 1.2346579e-38 315 262
-0.0047269869 0.67400002 -0.025998428 1.2254023e-38 316 262
-0.00354524 0.67400002 -0.025998428 1.2069992e-38 317 262
-0.0023634934 0.67400002 -0.025998428 1.2436619e-38 318 262
-0.0011834999 0.67500001 -0.026037 1.2436619e-38 319 262
0 0.67500001 -0.026037 1.2161108e-38 320 262
0.0011834999 0.67500001 -0.026037 1.2161108e-38 321 262
0.0023669999 0.67500001 -0.026037 1.2161108e-38 322 262
0.0035505001 0.67500001 -0.026037 1.2068913e-38 323 262
0.0047339997 0.67500001 -0.026037 1.1884882e-38 324 262
0.0059174998 0.67500001 -0.026037 1.1884882e-38 325 262
0.0071010003 0.67500001 -0.026037 1.1884882e-38 326 262
0.0082967728 0.676 -0.026075572 1.1884882e-38 327 262
0.0095100794 0.67799997 -0.026152719 1.179233e-38 328 262
0.010698839 0.67799997 -0.026152719 1.1700133e-38 329 262
0.011905133 0.67900002 -0.026191294 1.1607221e-38 330 262
0.013095647 0.67900002 -0.026191294 1.1607221e-38 331 262
0.014307199 0.68000001 -0.026229866 1.1607584e-38 332 262
0.015499466 0.68000001 -0.026229866 1.1792336e-38 333 262
0.016691733 0.68000001 -0.026229866 1.1884894e-38 334 262
0.017883999 0.68000001 -0.026229866 1.197709e-38 335 262
0.019076265 0.68000001 -0.026229866 1.1884894e-38 336 262
0.020268533 0.68000001 -0.026229866 1.1608306e-38 337 262
0.0214608 0.68000001 -0.026229866 1.1606868e-38 338 262
0.022653066 0.68000001 -0.026229866 1.1422477e-38 339 262
0.023845334 0.68000001 -0.026229866 1.1330276e-38 340 262
0.025037598 0.68000001 -0.026229866 1.1422471e-38 341 262
0.026229866 0.68000001 -0.026229866 1.1424622e-38 342 262
0.027422134 0.68000001 -0.026229866 1.1608654e-38 343 262
0.02869856 0.68199998 -0.026307013 1.1975278e-38 344 262
0.030595668 0.69800001 -0.026924185 1.2067475e-38 345 262
0.031819493 0.69800001 -0.026924185 1.2251509e-38 346 262
0.03318534 0.70099998 -0.027039904 1.24359e-38 347 262
0.034512613 0.70300001 -0.027117053 1.2803607e-38 348 262
0.035796054 0.704 -0.027155625 1.3633727e-38 349 262
0.037030395 0.704 -0.027155625 1.4373826e-38 350 262
0.038373452 0.70599997 -0.027232772 1.5572369e-38 351 262
0.039611302 0.70599997 -0.027232772 1.6217032e-38 352 262
0.040849157 0.70599997 -0.027232772 1.6033e-38 353 262
0.042087011 0.70599997 -0.027232772 1.5573095e-38 354 262
0.040133797 0.65399998 -0.025226958 1.4005768e-38 355 262
0.041280478 0.65399998 -0.025226958 1.3269634e-38 356 262
0.04242716 0.65399998 -0.025226958 1.3177437e-38 357 262
0.043573838 0.65399998 -0.025226958 1.2992321e-38 358 262
0.044788897 0.65499997 -0.025265532 1.280793e-38 359 262
0.04593733 0.65499997 -0.025265532 1.2715364e-38 360 262
0.047085766 0.65499997 -0.025265532 1.2623168e-38 361 262
0.048234195 0.65499997 -0.025265532 1.24377e-38 362 262
0.049382631 0.65499997 -0.025265532 1.2345503e-38 363 262
0.050685361 0.65700001 -0.025342681 1.2436622e-38 364 262
0.051916201 0.65799999 -0.025381252 1.2436622e-38 365 262
0.05306989 0.65799999 -0.025381252 1.1884897e-38 366 262
0.054305989 0.65899998 -0.025419824 1.3913201e-38 367 262
0.05562976 0.66100001 -0.025496973 1.4928447e-38 368 262
0.056874625 0.662 -0.025535546 1.6126632e-38 369 262
0.05821066 0.66399997 -0.025612691 1.6033367e-38 370 262
0.059374876 0.66399997 -0.025612691 1.6033367e-38 371 262
0.060539093 0.66399997 -0.025612691 1.6033367e-38 372 262
-0.056537982 0.70099998 -0.028268991 1.5480897e-38 274 263
-0.055229999 0.69999999 -0.028228667 1.4743332e-38 275 263
-0.053848371 0.69800001 -0.028148014 1.4559642e-38 276 263
-0.052624546 0.69800001 -0.028148014 1.4190861e-38 277 263
-0.051327083 0.69700003 -0.028107686 1.3823156e-38 278 263
-0.050033119 0.69599998 -0.028067358 1.3730961e-38 279 263
-0.048672531 0.69400001 -0.027986705 1.345545e-38 280 263
-0.047387339 0.69300002 -0.027946379 1.3362896e-38 281 263
-0.04617228 0.69300002 -0.027946379 1.3454015e-38 282 263
-0.044827472 0.69099998 -0.027865725 1.3269984e-38 283 263
-0.043552797 0.69 -0.027825398 1.3177434e-38 284 263
-0.042220265 0.68800002 -0.027744746 1.3177434e-38 285 263
-0.040954359 0.68699998 -0.027704418 1.3085235e-38 286 263
-0.039691959 0.68599999 -0.027664091 1.3085235e-38 287 263
-0.038376961 0.68400002 -0.027583439 1.3085589e-38 288 263
-0.037123326 0.68300003 -0.027543113 1.3085589e-38 289 263
-0.035925802 0.68300003 -0.027543113 1.2993393e-38 290 263
-0.034677424 0.68199998 -0.027502786 1.2993393e-38 291 263
-0.033383466 0.68000001 -0.027422134 1.2901197e-38 292 263
-0.032191198 0.68000001 -0.027422134 1.2993393e-38 293 263
-0.030998932 0.68000001 -0.027422134 1.2901197e-38 294 263
-0.029762832 0.67900002 -0.027381808 1.2901197e-38 295 263
-0.028446076 0.676 -0.027260827 1.2901194e-38 296 263
-0.027260827 0.676 -0.027260827 1.2808999e-38 297 263
-0.026037 0.67500001 -0.027220501 1.2625687e-38 298 263
-0.0248535 0.67500001 -0.027220501 1.2533491e-38 299 263
-0.023669999 0.67500001 -0.027220501 1.2532768e-38 300 263
-0.022519812 0.676 -0.027260827 1.2532768e-38 301 263
-0.021334561 0.676 -0.027260827 1.2532771e-38 302 263
-0.020149305 0.676 -0.027260827 1.2532771e-38 303 263
-0.018935999 0.67500001 -0.027220501 1.2440219e-38 304 263
-0.0177525 0.67500001 -0.027220501 1.2440219e-38 305 263
-0.016544454 0.67400002 -0.027180174 1.2440216e-38 306 263
-0.015362706 0.67400002 -0.027180174 1.2440216e-38 307 263
-0.01418096 0.67400002 -0.027180174 1.2531333e-38 308 263
-0.012999214 0.67400002 -0.027180174 1.2531333e-38 309 263
-0.011817466 0.67400002 -0.027180174 1.2530617e-38 310 263
-0.01063572 0.67400002 -0.027180174 1.2530617e-38 311 263
-0.0094539737 0.67400002 -0.027180174 1.2530617e-38 312 263
-0.0082722269 0.67400002 -0.027180174 1.2438421e-38 313 263
-0.0070904801 0.67400002 -0.027180174 1.2438774e-38 314 263
-0.0059087332 0.67400002 -0.027180174 1.2438774e-38 315 263
-0.0047339997 0.67500001 -0.027220501 1.2530251e-38 316 263
-0.00354524 0.67400002 -0.027180174 1.2438055e-38 317 263
-0.0023634934 0.67400002 -0.027180174 1.2254023e-38 318 263
-0.0011834999 0.67500001 -0.027220501 1.2254023e-38 319 263
0 0.67500001 -0.027220501 1.2253304e-38 320 263
0.0011834999 0.67500001 -0.027220501 1.2253304e-38 321 263
0.0023669999 0.67500001 -0.027220501 1.1977793e-38 322 263
0.0035505001 0.67500001 -0.027220501 1.1977793e-38 323 263
0.0047339997 0.67500001 -0.027220501 1.1977796e-38 324 263
0.0059262668 0.676 -0.027260827 1.1885601e-38 325 263
0.0071115191 0.676 -0.027260827 1.1885245e-38 326 263
0.0083213197 0.67799997 -0.027341479 1.1793049e-38 327 263
0.0095100794 0.67799997 -0.027341479 1.1883445e-38 328 263
0.010714619 0.67900002 -0.027381808 1.1883445e-38 329 263
0.011905133 0.67900002 -0.027381808 1.1790531e-38 330 263
0.013095647 0.67900002 -0.027381808 1.1790531e-38 331 263
0.014307199 0.68000001 -0.027422134 1.1607221e-38 332 263
0.015545053 0.68199998 -0.027502786 1.1791253e-38 333 263
0.016740825 0.68199998 -0.027502786 1.179198e-38 334 263
0.017936599 0.68199998 -0.027502786 1.179198e-38 335 263
0.019132372 0.68199998 -0.027502786 1.1883095e-38 336 263
0.020328145 0.68199998 -0.027502786 1.1606868e-38 337 263
0.021523919 0.68199998 -0.027502786 1.1605784e-38 338 263
0.022719691 0.68199998 -0.027502786 1.1513588e-38 339 263
0.023915464 0.68199998 -0.027502786 1.1330629e-38 340 263
0.025111238 0.68199998 -0.027502786 1.1422825e-38 341 263
0.026307013 0.68199998 -0.027502786 1.1607219e-38 342 263
0.027502786 0.68199998 -0.027502786 1.1607219e-38 343 263
0.028740639 0.68300003 -0.027543113 1.1882729e-38 344 263
0.030507999 0.69599998 -0.028067358 1.1974925e-38 345 263
0.031819493 0.69800001 -0.028148014 1.2251509e-38 346 263
0.03318534 0.70099998 -0.028268991 1.24359e-38 347 263
0.034512613 0.70300001 -0.028349647 1.2803963e-38 348 263
0.035796054 0.704 -0.028389972 1.3633725e-38 349 263
0.037030395 0.704 -0.028389972 1.4742967e-38 350 263
0.038373452 0.70599997 -0.028470624 1.575676e-38 351 263
0.040849157 0.70599997 -0.028470624 1.5941167e-38 353 263
0.040133797 0.65399998 -0.02637364 1.4098684e-38 355 263
0.041280478 0.65399998 -0.02637364 1.354586e-38 356 263
0.04242716 0.65399998 -0.02637364 1.3084882e-38 357 263
0.043573838 0.65399998 -0.02637364 1.2900122e-38 358 263
0.044788897 0.65499997 -0.026413966 1.271573e-38 359 263
0.04593733 0.65499997 -0.026413966 1.2530614e-38 360 263
0.047085766 0.65499997 -0.026413966 1.2438418e-38 361 263
0.048234195 0.65499997 -0.026413966 1.2345503e-38 362 263
0.049382631 0.65499997 -0.026413966 1.2253307e-38 363 263
0.050685361 0.65700001 -0.026494619 1.2436622e-38 364 263
0.051916201 0.65799999 -0.026534945 1.2436622e-38 365 263
0.05306989 0.65799999 -0.026534945 1.1884178e-38 366 263
0.054305989 0.65899998 -0.026575271 1.4004318e-38 367 263
0.05562976 0.66100001 -0.026655925 1.5020287e-38 368 263
0.056874625 0.662 -0.026696252 1.6034439e-38 369 263
0.058035329 0.662 -0.026696252 1.6216682e-38 370 263
0.05919604 0.662 -0.026696252 1.6216682e-38 371 263
-0.05768466 0.69999999 -0.029455997 1.5849702e-38 273 264
-0.056457333 0.69999999 -0.029455997 1.5573092e-38 274 264
-0.055229999 0.69999999 -0.029455997 1.4743332e-38 275 264
-0.053848371 0.69800001 -0.029371841 1.4651119e-38 276 264
-0.052624546 0.69800001 -0.029371841 1.4374174e-38 277 264
-0.051327083 0.69700003 -0.02932976 1.4006469e-38 278 264
-0.050105009 0.69700003 -0.02932976 1.3914273e-38 279 264
-0.048812799 0.69599998 -0.029287677 1.345545e-38 280 264
-0.047455717 0.69400001 -0.029203519 1.3362896e-38 281 264
-0.04617228 0.69300002 -0.029161438 1.3546567e-38 282 264
-0.044957221 0.69300002 -0.029161438 1.3454012e-38 283 264
-0.043615919 0.69099998 -0.029077278 1.3178151e-38 284 264
-0.042220265 0.68800002 -0.028951041 1.3085954e-38 285 264
-0.040954359 0.68699998 -0.028908957 1.308631e-38 286 264
-0.039749816 0.68699998 -0.028908957 1.308631e-38 287 264
-0.038376961 0.68400002 -0.02878272 1.3085586e-38 288 264
-0.037177678 0.68400002 -0.02878272 1.3085586e-38 289 264
-0.035925802 0.68300003 -0.028740639 1.2810078e-38 290 264
-0.034677424 0.68199998 -0.02869856 1.2810078e-38 291 264
-0.03348165 0.68199998 -0.02869856 1.2810078e-38 292 264
-0.032285877 0.68199998 -0.02869856 1.2810078e-38 293 264
-0.030998932 0.68000001 -0.028614398 1.2717882e-38 294 264
-0.029806666 0.68000001 -0.028614398 1.2717882e-38 295 264
-0.028572321 0.67900002 -0.028572321 1.2625687e-38 296 264
-0.027260827 0.676 -0.028446076 1.2625687e-38 297 264
-0.026075572 0.676 -0.028446076 1.2533491e-38 298 264
-0.0248535 0.67500001 -0.028404001 1.2533491e-38 299 264
-0.023669999 0.67500001 -0.028404001 1.2624968e-38 300 264
-0.022519812 0.676 -0.028446076 1.2532771e-38 301 264
-0.021334561 0.676 -0.028446076 1.2532771e-38 302 264
-0.020149305 0.676 -0.028446076 1.2532771e-38 303 264
-0.018964052 0.676 -0.028446076 1.2623884e-38 304 264
-0.0177525 0.67500001 -0.028404001 1.2623884e-38 305 264
-0.016569 0.67500001 -0.028404001 1.2531689e-38 306 264
-0.0153855 0.67500001 -0.028404001 1.2531689e-38 307 264
-0.014202001 0.67500001 -0.028404001 1.2531333e-38 308 264
-0.0130185 0.67500001 -0.028404001 1.2531333e-38 309 264
-0.011835 0.67500001 -0.028404001 1.2347302e-38 310 264
-0.0106515 0.67500001 -0.028404001 1.2347302e-38 311 264
-0.0094679995 0.67500001 -0.028404001 1.2530614e-38 312 264
-0.0082844999 0.67500001 -0.028404001 1.2530614e-38 313 264
-0.0071010003 0.67500001 -0.028404001 1.2438418e-38 314 264
-0.0059174998 0.67500001 -0.028404001 1.2438418e-38 315 264
-0.0047339997 0.67500001 -0.028404001 1.2438774e-38 316 264
-0.0035505001 0.67500001 -0.028404001 1.2438774e-38 317 264
-0.0023669999 0.67500001 -0.028404001 1.2346575e-38 318 264
-0.0011834999 0.67500001 -0.028404001 1.2254379e-38 319 264
0 0.67500001 -0.028404001 1.2161108e-38 320 264
0.0011834999 0.67500001 -0.028404001 1.2161108e-38 321 264
0.0023705065 0.676 -0.028446076 1.2068916e-38 322 264
0.0035557596 0.676 -0.028446076 1.2068916e-38 323 264
0.0047410131 0.676 -0.028446076 1.1977799e-38 324 264
0.0059262668 0.676 -0.028446076 1.1977799e-38 325 264
0.0071115191 0.676 -0.028446076 1.1885245e-38 326 264
0.0083213197 0.67799997 -0.028530238 1.1793049e-38 327 264
0.009524107 0.67900002 -0.028572321 1.1976001e-38 328 264
0.010714619 0.67900002 -0.028572321 1.1883445e-38 329 264
0.011905133 0.67900002 -0.028572321 1.1883082e-38 330 264
0.013114933 0.68000001 -0.028614398 1.1698332e-38 331 264
0.01434928 0.68199998 -0.02869856 1.1422827e-38 332 264
0.015545053 0.68199998 -0.02869856 1.1515023e-38 333 264
0.016740825 0.68199998 -0.02869856 1.1515389e-38 334 264
0.017936599 0.68199998 -0.02869856 1.1423193e-38 335 264
0.019132372 0.68199998 -0.02869856 1.1422477e-38 336 264
0.020357953 0.68300003 -0.028740639 1.1329923e-38 337 264
0.02155548 0.68300003 -0.028740639 1.1238432e-38 338 264
0.022753006 0.68300003 -0.028740639 1.1238432e-38 339 264
0.023950534 0.68300003 -0.028740639 1.1055117e-38 340 264
0.02514806 0.68300003 -0.028740639 1.1147314e-38 341 264
0.026345588 0.68300003 -0.028740639 1.1605784e-38 342 264
0.027946379 0.69300002 -0.029161438 1.1605784e-38 343 264
0.029203519 0.69400001 -0.029203519 1.1790534e-38 344 264
0.030507999 0.69599998 -0.029287677 1.1974925e-38 345 264
0.031819493 0.69800001 -0.029371841 1.2251509e-38 346 264
0.03318534 0.70099998 -0.029498078 1.2528096e-38 347 264
0.034512613 0.70300001 -0.029582238 1.2712491e-38 348 264
0.035796054 0.704 -0.029624319 1.3726642e-38 349 264
0.037135597 0.70599997 -0.029708479 1.4836249e-38 350 264
0.038373452 0.70599997 -0.029708479 1.5389423e-38 351 264
0.042492028 0.65499997 -0.027562398 1.2992336e-38 357 264
0.043640465 0.65499997 -0.027562398 1.2532067e-38 358 264
0.044788897 0.65499997 -0.027562398 1.2255122e-38 359 264
0.04593733 0.65499997 -0.027562398 1.2346226e-38 360 264
0.047085766 0.65499997 -0.027562398 1.2254029e-38 361 264
0.048234195 0.65499997 -0.027562398 1.2254026e-38 362 264
0.049382631 0.65499997 -0.027562398 1.1977799e-38 363 264
0.050685361 0.65700001 -0.027646558 1.2068207e-38 364 264
0.051837299 0.65700001 -0.027646558 1.1884175e-38 365 264
0.052989237 0.65700001 -0.027646558 1.151684e-38 366 264
0.054223582 0.65799999 -0.027688639 1.3821371e-38 367 264
0.055461437 0.65899998 -0.027730718 1.4836975e-38 368 264
0.056788713 0.66100001 -0.02781488 1.5851127e-38 369 264
0.057947662 0.66100001 -0.02781488 1.6125565e-38 370 264
-0.056457333 0.69999999 -0.030683333 1.5573817e-38 274 265
-0.054002665 0.69999999 -0.030683333 1.4651841e-38 276 265
-0.052624546 0.69800001 -0.030595668 1.4190864e-38 277 265
-0.051400717 0.69800001 -0.030595668 1.373168e-38 278 265
-0.050105009 0.69700003 -0.030551834 1.3639125e-38 279 265
-0.048812799 0.69599998 -0.030507999 1.3639478e-38 280 265
-0.047592476 0.69599998 -0.030507999 1.3363252e-38 281 265
-0.046238903 0.69400001 -0.030420333 1.3363252e-38 282 265
-0.044957221 0.69300002 -0.0303765 1.3271056e-38 283 265
-0.043615919 0.69099998 -0.030288832 1.3178504e-38 284 265
-0.042342998 0.69 -0.030244999 1.3178504e-38 285 265
-0.041013971 0.68800002 -0.030157333 1.3085589e-38 286 265
-0.039749816 0.68699998 -0.030113498 1.3085589e-38 287 265
-0.03848917 0.68599999 -0.030069664 1.2994112e-38 288 265
-0.037177678 0.68400002 -0.029982001 1.2810081e-38 289 265
-0.035925802 0.68300003 -0.029938167 1.2994112e-38 290 265
-0.034677424 0.68199998 -0.029894331 1.2994112e-38 291 265
-0.03348165 0.68199998 -0.029894331 1.2810081e-38 292 265
-0.032285877 0.68199998 -0.029894331 1.2717526e-38 293 265
-0.031090107 0.68199998 -0.029894331 1.2717529e-38 294 265
-0.029806666 0.68000001 -0.029806666 1.2717529e-38 295 265
-0.028614398 0.68000001 -0.029806666 1.2626049e-38 296 265
-0.027381808 0.67900002 -0.029762832 1.2442018e-38 297 265
-0.026191294 0.67900002 -0.029762832 1.2624968e-38 298 265
-0.024890319 0.676 -0.029631332 1.2624968e-38 299 265
-0.023705067 0.676 -0.029631332 1.2532771e-38 300 265
-0.022586439 0.67799997 -0.029718997 1.2624968e-38 301 265
-0.021397678 0.67799997 -0.029718997 1.2532768e-38 302 265
-0.020208918 0.67799997 -0.029718997 1.2532768e-38 303 265
-0.019020159 0.67799997 -0.029718997 1.2532768e-38 304 265
-0.017778801 0.676 -0.029631332 1.2532768e-38 305 265
-0.016593546 0.676 -0.029631332 1.2532768e-38 306 265
-0.015408293 0.676 -0.029631332 1.2440572e-38 307 265
-0.014223038 0.676 -0.029631332 1.2440572e-38 308 265
-0.013037786 0.676 -0.029631332 1.2348377e-38 309 265
-0.011852534 0.676 -0.029631332 1.2531333e-38 310 265
-0.01066728 0.676 -0.029631332 1.2531333e-38 311 265
-0.0094820261 0.676 -0.029631332 1.2530617e-38 312 265
-0.0082967728 0.676 -0.029631332 1.2530617e-38 313 265
-0.0071115191 0.676 -0.029631332 1.2529895e-38 314 265
-0.0059262668 0.676 -0.029631332 1.2714285e-38 315 265
-0.0047410131 0.676 -0.029631332 1.2347658e-38 316 265
-0.0035557596 0.676 -0.029631332 1.2255103e-38 317 265
-0.0023705065 0.676 -0.029631332 1.2255106e-38 318 265
-0.0011852533 0.676 -0.029631332 1.1978518e-38 319 265
0 0.676 -0.029631332 1.2253307e-38 320 265
0.0011852533 0.676 -0.029631332 1.2161111e-38 321 265
0.0023705065 0.676 -0.029631332 1.2161108e-38 322 265
0.0035557596 0.676 -0.029631332 1.2068913e-38 323 265
0.0047550397 0.67799997 -0.029718997 1.1977799e-38 324 265
0.0059437994 0.67799997 -0.029718997 1.1885245e-38 325 265
0.0071325595 0.67799997 -0.029718997 1.1702651e-38 326 265
0.0083335936 0.67900002 -0.029762832 1.1610456e-38 327 265
0.0095381327 0.68000001 -0.029806666 1.1793405e-38 328 265
0.0107304 0.68000001 -0.029806666 1.1701209e-38 329 265
0.011922667 0.68000001 -0.029806666 1.1790884e-38 330 265
0.013153506 0.68199998 -0.029894331 1.1698688e-38 331 265
0.014370319 0.68300003 -0.029938167 1.1422825e-38 332 265
0.015567848 0.68300003 -0.029938167 1.1422825e-38 333 265
0.016765373 0.68300003 -0.029938167 1.1422471e-38 334 265
0.017962901 0.68300003 -0.029938167 1.1238079e-38 335 265
0.019160427 0.68300003 -0.029938167 1.1329556e-38 336 265
0.020357953 0.68300003 -0.029938167 1.123736e-38 337 265
0.02158704 0.68400002 -0.029982001 1.1146236e-38 338 265
0.022786319 0.68400002 -0.029982001 1.1146236e-38 339 265
0.0239856 0.68400002 -0.029982001 1.1238429e-38 340 265
0.025184879 0.68400002 -0.029982001 1.1238429e-38 341 265
0.026461305 0.68599999 -0.030069664 1.1513941e-38 342 265
0.027946379 0.69300002 -0.0303765 1.1606137e-38 343 265
0.029203519 0.69400001 -0.030420333 1.1790887e-38 344 265
0.030507999 0.69599998 -0.030507999 1.2067475e-38 345 265
0.031910665 0.69999999 -0.030683333 1.216039e-38 346 265
0.033280019 0.70300001 -0.030814834 1.2529171e-38 347 265
0.034561705 0.704 -0.030858666 1.2896525e-38 348 265
0.035897743 0.70599997 -0.030946331 1.4003233e-38 349 265
0.037135597 0.70599997 -0.030946331 1.4928442e-38 350 265
0.038373452 0.70599997 -0.030946331 1.5113192e-38 351 265
0.042492028 0.65499997 -0.028710833 1.2624277e-38 357 265
0.043640465 0.65499997 -0.028710833 1.2440232e-38 358 265
0.044788897 0.65499997 -0.028710833 1.1887418e-38 359 265
0.04593733 0.65499997 -0.028710833 1.2070358e-38 360 265
0.047085766 0.65499997 -0.028710833 1.1885966e-38 361 265
0.048234195 0.65499997 -0.028710833 1.1885247e-38 362 265
0.049382631 0.65499997 -0.028710833 1.1885247e-38 363 265
0.050685361 0.65700001 -0.028798498 1.1792336e-38 364 265
0.051837299 0.65700001 -0.028798498 1.1515389e-38 365 265
0.052989237 0.65700001 -0.028798498 1.1422487e-38 366 265
0.054223582 0.65799999 -0.028842334 1.428091e-38 367 265
0.055461437 0.65899998 -0.028886165 1.5112485e-38 368 265
0.056788713 0.66100001 -0.028973831 1.5757855e-38 369 265
0.057947662 0.66100001 -0.028973831 1.5941173e-38 370 265
-0.052850723 0.70099998 -0.031956252 1.4466009e-38 277 266
-0.051547997 0.69999999 -0.031910665 1.4098298e-38 278 266
-0.050176892 0.69800001 -0.031819493 1.4098298e-38 279 266
-0.048882935 0.69700003 -0.03177391 1.3822428e-38 280 266
-0.047660861 0.69700003 -0.03177391 1.3638397e-38 281 266
-0.046372157 0.69599998 -0.031728316 1.3638397e-38 282 266
-0.045022093 0.69400001 -0.031637147 1.3545842e-38 283 266
-0.043742158 0.69300002 -0.031591557 1.3270336e-38 284 266
-0.042404365 0.69099998 -0.031500384 1.317814e-38 285 266
-0.041133199 0.69 -0.031454802 1.3085586e-38 286 266
-0.039807681 0.68800002 -0.031363625 1.317814e-38 287 266
-0.038545277 0.68699998 -0.031318039 1.3085589e-38 288 266
-0.037286382 0.68599999 -0.031272452 1.3085589e-38 289 266
-0.035978399 0.68400002 -0.03118128 1.2810081e-38 290 266
-0.034728274 0.68300003 -0.031135695 1.2810081e-38 291 266
-0.033530746 0.68300003 -0.031135695 1.2810081e-38 292 266
-0.032285877 0.68199998 -0.031090107 1.2810081e-38 293 266
-0.031090107 0.68199998 -0.031090107 1.2810081e-38 294 266
-0.029894331 0.68199998 -0.031090107 1.2810081e-38 295 266
-0.028614398 0.68000001 -0.030998932 1.2626049e-38 296 266
-0.027422134 0.68000001 -0.030998932 1.2442018e-38 297 266
-0.026191294 0.67900002 -0.030953348 1.2808996e-38 298 266
-0.025000781 0.67900002 -0.030953348 1.2624963e-38 299 266
-0.023775198 0.67799997 -0.030907756 1.2625319e-38 300 266
-0.022586439 0.67799997 -0.030907756 1.2625319e-38 301 266
-0.021429239 0.67900002 -0.030953348 1.2808632e-38 302 266
-0.020208918 0.67799997 -0.030907756 1.2716436e-38 303 266
-0.019020159 0.67799997 -0.030907756 1.2532765e-38 304 266
-0.0178314 0.67799997 -0.030907756 1.2532765e-38 305 266
-0.016593546 0.676 -0.030816587 1.271608e-38 306 266
-0.015408293 0.676 -0.030816587 1.2623884e-38 307 266
-0.014223038 0.676 -0.030816587 1.2531689e-38 308 266
-0.013037786 0.676 -0.030816587 1.2531689e-38 309 266
-0.011852534 0.676 -0.030816587 1.2531333e-38 310 266
-0.01066728 0.676 -0.030816587 1.2531333e-38 311 266
-0.0094820261 0.676 -0.030816587 1.2530617e-38 312 266
-0.0082967728 0.676 -0.030816587 1.2438421e-38 313 266
-0.0071115191 0.676 -0.030816587 1.2529898e-38 314 266
-0.0059262668 0.676 -0.030816587 1.2529898e-38 315 266
-0.0047410131 0.676 -0.030816587 1.2255825e-38 316 266
-0.0035557596 0.676 -0.030816587 1.2255825e-38 317 266
-0.0023705065 0.676 -0.030816587 1.2438774e-38 318 266
-0.0011852533 0.676 -0.030816587 1.2254023e-38 319 266
0 0.676 -0.030816587 1.2436975e-38 320 266
0.0011887599 0.67799997 -0.030907756 1.2252585e-38 321 266
0.0023775198 0.67799997 -0.030907756 1.2343702e-38 322 266
0.0035662798 0.67799997 -0.030907756 1.2343702e-38 323 266
0.0047550397 0.67799997 -0.030907756 1.2161108e-38 324 266
0.0059437994 0.67799997 -0.030907756 1.2253304e-38 325 266
0.0071535995 0.68000001 -0.030998932 1.1978515e-38 326 266
0.0083458666 0.68000001 -0.030998932 1.1702288e-38 327 266
0.009566186 0.68199998 -0.031090107 1.1884879e-38 328 266
0.010761959 0.68199998 -0.031090107 1.1792683e-38 329 266
0.011957732 0.68199998 -0.031090107 1.2066745e-38 330 266
0.013153506 0.68199998 -0.031090107 1.1790518e-38 331 266
0.014370319 0.68300003 -0.031135695 1.160649e-38 332 266
0.015567848 0.68300003 -0.031135695 1.1514294e-38 333 266
0.016789921 0.68400002 -0.03118128 1.1329909e-38 334 266
0.0179892 0.68400002 -0.03118128 1.1237713e-38 335 266
0.01918848 0.68400002 -0.03118128 1.1145161e-38 336 266
0.020447372 0.68599999 -0.031272452 1.1052966e-38 337 266
0.021650158 0.68599999 -0.031272452 1.1052963e-38 338 266
0.022919573 0.68800002 -0.031363625 1.1237713e-38 339 266
0.024301201 0.69300002 -0.031591557 1.1238429e-38 340 266
0.025553079 0.69400001 -0.031637147 1.1238429e-38 341 266
0.026769891 0.69400001 -0.031637147 1.1146964e-38 342 266
0.027986705 0.69400001 -0.031637147 1.1239159e-38 343 266
0.029287677 0.69599998 -0.031728316 1.1791253e-38 344 266
0.030551834 0.69700003 -0.03177391 1.1975645e-38 345 266
0.031910665 0.69999999 -0.031910665 1.2253307e-38 346 266
0.033280019 0.70300001 -0.032047424 1.2529895e-38 347 266
0.034561705 0.704 -0.032093015 1.3266031e-38 348 266
0.035897743 0.70599997 -0.032184184 1.4372377e-38 349 266
0.037135597 0.70599997 -0.032184184 1.4928447e-38 350 266
0.04262178 0.65700001 -0.02995044 1.2440962e-38 357 266
0.043640465 0.65499997 -0.029859263 1.2164358e-38 358 266
0.044788897 0.65499997 -0.029859263 1.1887412e-38 359 266
0.04593733 0.65499997 -0.029859263 1.206856e-38 360 266
0.047085766 0.65499997 -0.029859263 1.206856e-38 361 266
0.048381478 0.65700001 -0.02995044 1.1792699e-38 362 266
0.049533416 0.65700001 -0.02995044 1.1700503e-38 363 266
0.050685361 0.65700001 -0.02995044 1.179198e-38 364 266
0.051837299 0.65700001 -0.02995044 1.1515392e-38 365 266
0.052989237 0.65700001 -0.02995044 1.2064975e-38 366 266
0.054223582 0.65799999 -0.029996024 1.5291822e-38 367 266
0.055461437 0.65899998 -0.030041611 1.5387998e-38 368 266
0.056616884 0.65899998 -0.030041611 1.5848974e-38 369 266
-0.051547997 0.69999999 -0.033137999 1.4099382e-38 278 267
-0.050176892 0.69800001 -0.033043321 1.3730958e-38 279 267
-0.048882935 0.69700003 -0.03299598 1.3639481e-38 280 267
-0.047660861 0.69700003 -0.03299598 1.3362896e-38 281 267
-0.046372157 0.69599998 -0.032948639 1.3545845e-38 282 267
-0.045022093 0.69400001 -0.032853961 1.3545845e-38 283 267
-0.043742158 0.69300002 -0.03280662 1.3270336e-38 284 267
-0.042404365 0.69099998 -0.032711938 1.317814e-38 285 267
-0.041192811 0.69099998 -0.032711938 1.3085942e-38 286 267
-0.0399234 0.69 -0.032664597 1.3085942e-38 287 267
-0.038601387 0.68800002 -0.032569919 1.3269257e-38 288 267
-0.037340738 0.68699998 -0.032522578 1.3176702e-38 289 267
-0.036083598 0.68599999 -0.032475237 1.2810081e-38 290 267
-0.03477912 0.68400002 -0.032380559 1.2810081e-38 291 267
-0.033579841 0.68400002 -0.032380559 1.2901197e-38 292 267
-0.032333218 0.68300003 -0.032333218 1.2993393e-38 293 267
-0.031090107 0.68199998 -0.032285877 1.2717532e-38 294 267
-0.029894331 0.68199998 -0.032285877 1.2717532e-38 295 267
-0.02869856 0.68199998 -0.032285877 1.2626052e-38 296 267
-0.027422134 0.68000001 -0.032191198 1.2626052e-38 297 267
-0.026229866 0.68000001 -0.032191198 1.2809002e-38 298 267
-0.025000781 0.67900002 -0.032143861 1.2809002e-38 299 267
-0.023810266 0.67900002 -0.032143861 1.2809002e-38 300 267
-0.022619752 0.67900002 -0.032143861 1.2809002e-38 301 267
-0.021429239 0.67900002 -0.032143861 1.2624968e-38 302 267
-0.020238725 0.67900002 -0.032143861 1.2624968e-38 303 267
-0.019048214 0.67900002 -0.032143861 1.2716083e-38 304 267
-0.0178314 0.67799997 -0.03209652 1.2716083e-38 305 267
-0.016642639 0.67799997 -0.03209652 1.2623887e-38 306 267
-0.015453878 0.67799997 -0.03209652 1.2623887e-38 307 267
-0.014265119 0.67799997 -0.03209652 1.2623887e-38 308 267
-0.013037786 0.676 -0.032001842 1.2531333e-38 309 267
-0.011852534 0.676 -0.032001842 1.2348023e-38 310 267
-0.01066728 0.676 -0.032001842 1.2348023e-38 311 267
-0.0094820261 0.676 -0.032001842 1.2438424e-38 312 267
-0.0082967728 0.676 -0.032001842 1.253062e-38 313 267
-0.0071325595 0.67799997 -0.03209652 1.2438424e-38 314 267
-0.0059437994 0.67799997 -0.03209652 1.2438424e-38 315 267
-0.0047550397 0.67799997 -0.03209652 1.2255472e-38 316 267
-0.0035662798 0.67799997 -0.03209652 1.2255472e-38 317 267
-0.0023775198 0.67799997 -0.03209652 1.2254753e-38 318 267
-0.0011887599 0.67799997 -0.03209652 1.207036e-38 319 267
0 0.67799997 -0.03209652 1.2345503e-38 320 267
0.0011887599 0.67799997 -0.03209652 1.2253307e-38 321 267
0.0023775198 0.67799997 -0.03209652 1.2252585e-38 322 267
0.0035715401 0.67900002 -0.032143861 1.216039e-38 323 267
0.0047620535 0.67900002 -0.032143861 1.2161111e-38 324 267
0.0059613334 0.68000001 -0.032191198 1.2253307e-38 325 267
0.0071535995 0.68000001 -0.032191198 1.2069639e-38 326 267
0.0083704125 0.68199998 -0.032285877 1.2069639e-38 327 267
0.009566186 0.68199998 -0.032285877 1.2068197e-38 328 267
0.010761959 0.68199998 -0.032285877 1.1976001e-38 329 267
0.011975267 0.68300003 -0.032333218 1.1791606e-38 330 267
0.013172794 0.68300003 -0.032333218 1.1607216e-38 331 267
0.01439136 0.68400002 -0.032380559 1.1423897e-38 332 267
0.01559064 0.68400002 -0.032380559 1.1239865e-38 333 267
0.016839013 0.68599999 -0.032475237 1.1330982e-38 334 267
0.018041799 0.68599999 -0.032475237 1.1238785e-38 335 267
0.019272638 0.68699998 -0.032522578 1.1146233e-38 336 267
0.020506985 0.68800002 -0.032569919 1.0962202e-38 337 267
0.021776399 0.69 -0.032664597 1.1238066e-38 338 267
0.023019511 0.69099998 -0.032711938 1.1238066e-38 339 267
0.024301201 0.69300002 -0.03280662 1.1330262e-38 340 267
0.025553079 0.69400001 -0.032853961 1.1330262e-38 341 267
0.026847038 0.69599998 -0.032948639 1.1513938e-38 342 267
0.028067358 0.69599998 -0.032948639 1.1698688e-38 343 267
0.02932976 0.69700003 -0.03299598 1.1883801e-38 344 267
0.030683333 0.69999999 -0.033137999 1.2068194e-38 345 267
0.031956252 0.70099998 -0.03318534 1.2435547e-38 346 267
0.033280019 0.70300001 -0.033280019 1.3080917e-38 347 267
0.034561705 0.704 -0.03332736 1.3543345e-38 348 267
0.035897743 0.70599997 -0.033422034 1.428091e-38 349 267
0.037135597 0.70599997 -0.033422034 1.4468192e-38 350 267
0.04262178 0.65700001 -0.03110238 1.2348766e-38 357 267
0.043640465 0.65499997 -0.031007698 1.2164721e-38 358 267
0.044788897 0.65499997 -0.031007698 1.1519352e-38 359 267
0.046077598 0.65700001 -0.03110238 1.188525e-38 360 267
0.04722954 0.65700001 -0.03110238 1.1608303e-38 361 267
0.048381478 0.65700001 -0.03110238 1.1883095e-38 362 267
0.049533416 0.65700001 -0.03110238 1.1883095e-38 363 267
0.050685361 0.65700001 -0.03110238 1.1975648e-38 364 267
0.051916201 0.65799999 -0.031149717 1.1790897e-38 365 267
0.05306989 0.65799999 -0.031149717 1.2343001e-38 366 267
0.054223582 0.65799999 -0.031149717 1.5569848e-38 367 267
0.055461437 0.65899998 -0.031197058 1.5572745e-38 368 267
0.056616884 0.65899998 -0.031197058 1.5756776e-38 369 267
-0.052850723 0.70099998 -0.034414422 1.4283428e-38 277 268
-0.051621638 0.70099998 -0.034414422 1.4283766e-38 278 268
-0.050320663 0.69999999 -0.034365334 1.4006819e-38 279 268
-0.048953064 0.69800001 -0.034267146 1.3731308e-38 280 268
-0.047660861 0.69700003 -0.034218054 1.3639113e-38 281 268
-0.046438783 0.69700003 -0.034218054 1.3454365e-38 282 268
-0.045151837 0.69599998 -0.034168959 1.3454365e-38 283 268
-0.043805279 0.69400001 -0.034070771 1.3270333e-38 284 268
-0.042527102 0.69300002 -0.034021679 1.3178137e-38 285 268
-0.041192811 0.69099998 -0.033923492 1.3361452e-38 286 268
-0.0399234 0.69 -0.0338744 1.3269257e-38 287 268
-0.038713597 0.69 -0.0338744 1.3269257e-38 288 268
-0.037395094 0.68800002 -0.033776212 1.3269257e-38 289 268
-0.036136195 0.68699998 -0.033727121 1.299339e-38 290 268
-0.03477912 0.68400002 -0.033579841 1.299339e-38 291 268
-0.033579841 0.68400002 -0.033579841 1.2901197e-38 292 268
-0.032380559 0.68400002 -0.033579841 1.2901197e-38 293 268
-0.031135695 0.68300003 -0.033530746 1.2900841e-38 294 268
-0.029894331 0.68199998 -0.03348165 1.2900841e-38 295 268
-0.02869856 0.68199998 -0.03348165 1.2900841e-38 296 268
-0.027502786 0.68199998 -0.03348165 1.2900841e-38 297 268
-0.026229866 0.68000001 -0.033383466 1.2900478e-38 298 268
-0.025037598 0.68000001 -0.033383466 1.2900478e-38 299 268
-0.023845334 0.68000001 -0.033383466 1.2900478e-38 300 268
-0.022653066 0.68000001 -0.033383466 1.2900478e-38 301 268
-0.0214608 0.68000001 -0.033383466 1.280828e-38 302 268
-0.020268533 0.68000001 -0.033383466 1.280828e-38 303 268
-0.019048214 0.67900002 -0.033334374 1.2532768e-38 304 268
-0.017857701 0.67900002 -0.033334374 1.2532768e-38 305 268
-0.016642639 0.67799997 -0.033285279 1.271608e-38 306 268
-0.015453878 0.67799997 -0.033285279 1.271608e-38 307 268
-0.014265119 0.67799997 -0.033285279 1.2623884e-38 308 268
-0.013076359 0.67799997 -0.033285279 1.2623884e-38 309 268
-0.011887599 0.67799997 -0.033285279 1.2531333e-38 310 268
-0.010698839 0.67799997 -0.033285279 1.2347302e-38 311 268
-0.0095100794 0.67799997 -0.033285279 1.2438421e-38 312 268
-0.0083213197 0.67799997 -0.033285279 1.2438421e-38 313 268
-0.0071325595 0.67799997 -0.033285279 1.2254753e-38 314 268
-0.0059437994 0.67799997 -0.033285279 1.2346949e-38 315 268
-0.0047550397 0.67799997 -0.033285279 1.234767e-38 316 268
-0.0035662798 0.67799997 -0.033285279 1.2163279e-38 317 268
-0.0023775198 0.67799997 -0.033285279 1.2437705e-38 318 268
-0.0011887599 0.67799997 -0.033285279 1.2437705e-38 319 268
0 0.67799997 -0.033285279 1.2528815e-38 320 268
0.0011905134 0.67900002 -0.033334374 1.2436619e-38 321 268
0.0023845332 0.68000001 -0.033383466 1.2436975e-38 322 268
0.0035767998 0.68000001 -0.033383466 1.2252585e-38 323 268
0.0047690663 0.68000001 -0.033383466 1.2161111e-38 324 268
0.0059613334 0.68000001 -0.033383466 1.2345503e-38 325 268
0.00717464 0.68199998 -0.03348165 1.2160755e-38 326 268
0.0083704125 0.68199998 -0.03348165 1.206856e-38 327 268
0.009566186 0.68199998 -0.03348165 1.2068197e-38 328 268
0.01077774 0.68300003 -0.033530746 1.1976001e-38 329 268
0.011975267 0.68300003 -0.033530746 1.17916e-38 330 268
0.013172794 0.68300003 -0.033530746 1.1607569e-38 331 268
0.01439136 0.68400002 -0.033579841 1.1606487e-38 332 268
0.01559064 0.68400002 -0.033579841 1.1606487e-38 333 268
0.016839013 0.68599999 -0.033678025 1.1514294e-38 334 268
0.018068098 0.68699998 -0.033727121 1.1330262e-38 335 268
0.019300694 0.68800002 -0.033776212 1.1238785e-38 336 268
0.020566599 0.69 -0.0338744 1.1146231e-38 337 268
0.021807959 0.69099998 -0.033923492 1.1238782e-38 338 268
0.02308614 0.69300002 -0.034021679 1.1238782e-38 339 268
0.024301201 0.69300002 -0.034021679 1.1238785e-38 340 268
0.025626717 0.69599998 -0.034168959 1.1330982e-38 341 268
0.026847038 0.69599998 -0.034168959 1.1422825e-38 342 268
0.028107686 0.69700003 -0.034218054 1.1607216e-38 343 268
0.029371841 0.69800001 -0.034267146 1.179233e-38 344 268
0.030683333 0.69999999 -0.034365334 1.2068916e-38 345 268
0.031956252 0.70099998 -0.034414422 1.2620661e-38 346 268
0.033280019 0.70300001 -0.034512613 1.3081638e-38 347 268
0.034561705 0.704 -0.034561705 1.3728103e-38 348 268
0.035897743 0.70599997 -0.034659892 1.4281277e-38 349 268
0.037135597 0.70599997 -0.034659892 1.4099059e-38 350 268
0.04153296 0.65799999 -0.032303412 1.2994136e-38 356 268
0.04262178 0.65700001 -0.03225432 1.2348766e-38 357 268
0.043773718 0.65700001 -0.03225432 1.2255478e-38 358 268
0.04492566 0.65700001 -0.03225432 1.1794499e-38 359 268
0.046077598 0.65700001 -0.03225432 1.1792336e-38 360 268
0.04722954 0.65700001 -0.03225432 1.1792336e-38 361 268
0.048381478 0.65700001 -0.03225432 1.1790899e-38 362 268
0.049533416 0.65700001 -0.03225432 1.1883095e-38 363 268
0.050762504 0.65799999 -0.032303412 1.1792336e-38 364 268
0.051916201 0.65799999 -0.032303412 1.1884531e-38 365 268
0.05306989 0.65799999 -0.032303412 1.2713226e-38 366 268
0.054223582 0.65799999 -0.032303412 1.5663846e-38 367 268
0.05562976 0.66100001 -0.032450691 1.5848974e-38 368 268
0.056788713 0.66100001 -0.032450691 1.5756779e-38 369 268
-0.051768921 0.70300001 -0.035745207 1.4284485e-38 278 269
-0.050392549 0.70099998 -0.035643511 1.3915702e-38 279 269
-0.049093332 0.69999999 -0.035592664 1.3732027e-38 280 269
-0.047865998 0.69999999 -0.035592664 1.3363605e-38 281 269
-0.046505414 0.69800001 -0.035490975 1.3546561e-38 282 269
-0.045216713 0.69700003 -0.035440128 1.3454365e-38 283 269
-0.043805279 0.69400001 -0.035287585 1.317814e-38 284 269
-0.042527102 0.69300002 -0.035236739 1.317814e-38 285 269
-0.041312039 0.69300002 -0.035236739 1.317814e-38 286 269
-0.039981257 0.69099998 -0.035135046 1.317814e-38 287 269
-0.038769703 0.69099998 -0.035135046 1.3085586e-38 288 269
-0.037503798 0.69 -0.035084199 1.3085586e-38 289 269
-0.0361888 0.68800002 -0.03498251 1.299339e-38 290 269
-0.034931656 0.68699998 -0.034931656 1.2901194e-38 291 269
-0.033727121 0.68699998 -0.034931656 1.2901197e-38 292 269
-0.032475237 0.68599999 -0.034880809 1.2901197e-38 293 269
-0.031272452 0.68599999 -0.034880809 1.2900841e-38 294 269
-0.029982001 0.68400002 -0.03477912 1.2900841e-38 295 269
-0.02878272 0.68400002 -0.03477912 1.2901194e-38 296 269
-0.027543113 0.68300003 -0.034728274 1.2901194e-38 297 269
-0.026307013 0.68199998 -0.034677424 1.2901194e-38 298 269
-0.025111238 0.68199998 -0.034677424 1.2901194e-38 299 269
-0.023915464 0.68199998 -0.034677424 1.2900478e-38 300 269
-0.022719691 0.68199998 -0.034677424 1.2900478e-38 301 269
-0.021523919 0.68199998 -0.034677424 1.2624612e-38 302 269
-0.020328145 0.68199998 -0.034677424 1.2624612e-38 303 269
-0.019132372 0.68199998 -0.034677424 1.2532768e-38 304 269
-0.017883999 0.68000001 -0.034575731 1.2532768e-38 305 269
-0.016691733 0.68000001 -0.034575731 1.2532765e-38 306 269
-0.015499466 0.68000001 -0.034575731 1.2532765e-38 307 269
-0.014307199 0.68000001 -0.034575731 1.2623884e-38 308 269
-0.013095647 0.67900002 -0.034524884 1.2623884e-38 309 269
-0.011905133 0.67900002 -0.034524884 1.2623168e-38 310 269
-0.010714619 0.67900002 -0.034524884 1.2530614e-38 311 269
-0.009524107 0.67900002 -0.034524884 1.2347305e-38 312 269
-0.0083335936 0.67900002 -0.034524884 1.2347305e-38 313 269
-0.0071430802 0.67900002 -0.034524884 1.2346949e-38 314 269
-0.0059525664 0.67900002 -0.034524884 1.2254753e-38 315 269
-0.0047620535 0.67900002 -0.034524884 1.2255475e-38 316 269
-0.0035767998 0.68000001 -0.034575731 1.2255475e-38 317 269
-0.0023810267 0.67900002 -0.034524884 1.2530264e-38 318 269
-0.0011905134 0.67900002 -0.034524884 1.2253675e-38 319 269
0 0.68000001 -0.034575731 1.2345505e-38 320 269
0.0011922666 0.68000001 -0.034575731 1.2160755e-38 321 269
0.0023845332 0.68000001 -0.034575731 1.2252588e-38 322 269
0.00358732 0.68199998 -0.034677424 1.2252588e-38 323 269
0.004783093 0.68199998 -0.034677424 1.2069995e-38 324 269
0.005978866 0.68199998 -0.034677424 1.2346223e-38 325 269
0.00717464 0.68199998 -0.034677424 1.2069639e-38 326 269
0.0083826864 0.68300003 -0.034728274 1.1885247e-38 327 269
0.0095802136 0.68300003 -0.034728274 1.1976001e-38 328 269
0.01077774 0.68300003 -0.034728274 1.1883445e-38 329 269
0.0119928 0.68400002 -0.03477912 1.1791603e-38 330 269
0.013230653 0.68599999 -0.034880809 1.1607572e-38 331 269
0.014454478 0.68699998 -0.034931656 1.1698686e-38 332 269
0.015659019 0.68699998 -0.034931656 1.160649e-38 333 269
0.01686356 0.68699998 -0.034931656 1.1422822e-38 334 269
0.0180944 0.68800002 -0.03498251 1.1330626e-38 335 269
0.019356798 0.69 -0.035084199 1.1330982e-38 336 269
0.020596405 0.69099998 -0.035135046 1.1238785e-38 337 269
0.021871079 0.69300002 -0.035236739 1.1146231e-38 338 269
0.023119451 0.69400001 -0.035287585 1.1238785e-38 339 269
0.024336265 0.69400001 -0.035287585 1.1146233e-38 340 269
0.025626717 0.69599998 -0.035389278 1.1238429e-38 341 269
0.026847038 0.69599998 -0.035389278 1.1422825e-38 342 269
0.028107686 0.69700003 -0.035440128 1.1791606e-38 343 269
0.029455997 0.69999999 -0.035592664 1.1975645e-38 344 269
0.030727165 0.70099998 -0.035643511 1.2252591e-38 345 269
0.032047424 0.70300001 -0.035745207 1.271286e-38 346 269
0.03332736 0.704 -0.035796054 1.3266034e-38 347 269
0.034659892 0.70599997 -0.035897743 1.3821021e-38 348 269
0.04062473 0.662 -0.033660494 1.3454043e-38 355 269
0.04153296 0.65799999 -0.033457108 1.2902292e-38 356 269
0.042686652 0.65799999 -0.033457108 1.2256922e-38 357 269
0.043840345 0.65799999 -0.033457108 1.2254756e-38 358 269
0.044994038 0.65799999 -0.033457108 1.1701582e-38 359 269
0.04614773 0.65799999 -0.033457108 1.17005e-38 360 269
0.047301427 0.65799999 -0.033457108 1.1608303e-38 361 269
0.048455119 0.65799999 -0.033457108 1.169978e-38 362 269
0.049684204 0.65899998 -0.033507951 1.1792336e-38 363 269
0.050839648 0.65899998 -0.033507951 1.2160039e-38 364 269
0.051995095 0.65899998 -0.033507951 1.2713213e-38 365 269
0.053150542 0.65899998 -0.033507951 1.3360396e-38 366 269
0.054470807 0.66100001 -0.033609647 1.5757482e-38 367 269
0.05562976 0.66100001 -0.033609647 1.5941173e-38 368 269
-0.053076904 0.704 -0.037030395 1.456146e-38 277 270
-0.051842559 0.704 -0.037030395 1.4376327e-38 278 270
-0.050536323 0.70300001 -0.036977798 1.4099382e-38 279 270
-0.049303733 0.70300001 -0.036977798 1.4006819e-38 280 270
-0.047934376 0.70099998 -0.036872596 1.3822428e-38 281 270
-0.046505414 0.69800001 -0.0367148 1.3638041e-38 282 270
-0.045216713 0.69700003 -0.036662199 1.3545845e-38 283 270
-0.043931518 0.69599998 -0.036609598 1.3453652e-38 284 270
-0.042588469 0.69400001 -0.036504399 1.3453652e-38 285 270
-0.041312039 0.69300002 -0.036451802 1.3361096e-38 286 270
-0.039981257 0.69099998 -0.036346599 1.3361096e-38 287 270
-0.038769703 0.69099998 -0.036346599 1.308666e-38 288 270
-0.037503798 0.69 -0.036293998 1.2994465e-38 289 270
-0.036293998 0.69 -0.036293998 1.2994465e-38 290 270
-0.03498251 0.68800002 -0.0361888 1.2810075e-38 291 270
-0.033727121 0.68699998 -0.036136195 1.2810078e-38 292 270
-0.032522578 0.68699998 -0.036136195 1.2717882e-38 293 270
-0.031272452 0.68599999 -0.036083598 1.2993393e-38 294 270
-0.030069664 0.68599999 -0.036083598 1.2993393e-38 295 270
-0.02878272 0.68400002 -0.035978399 1.2992671e-38 296 270
-0.027583439 0.68400002 -0.035978399 1.2992671e-38 297 270
-0.026345588 0.68300003 -0.035925802 1.2900473e-38 298 270
-0.025111238 0.68199998 -0.035873197 1.2900473e-38 299 270
-0.023915464 0.68199998 -0.035873197 1.280828e-38 300 270
-0.022719691 0.68199998 -0.035873197 1.280828e-38 301 270
-0.021523919 0.68199998 -0.035873197 1.2624968e-38 302 270
-0.020328145 0.68199998 -0.035873197 1.2624968e-38 303 270
-0.019132372 0.68199998 -0.035873197 1.2716083e-38 304 270
-0.017936599 0.68199998 -0.035873197 1.2716083e-38 305 270
-0.016740825 0.68199998 -0.035873197 1.271608e-38 306 270
-0.015545053 0.68199998 -0.035873197 1.271608e-38 307 270
-0.014307199 0.68000001 -0.035767999 1.271608e-38 308 270
-0.013114933 0.68000001 -0.035767999 1.2623884e-38 309 270
-0.011922667 0.68000001 -0.035767999 1.2806481e-38 310 270
-0.0107304 0.68000001 -0.035767999 1.2714285e-38 311 270
-0.0095381327 0.68000001 -0.035767999 1.2530617e-38 312 270
-0.0083458666 0.68000001 -0.035767999 1.2530617e-38 313 270
-0.0071535995 0.68000001 -0.035767999 1.253062e-38 314 270
-0.0059613334 0.68000001 -0.035767999 1.2438424e-38 315 270
-0.0047690663 0.68000001 -0.035767999 1.2622459e-38 316 270
-0.0035767998 0.68000001 -0.035767999 1.2438068e-38 317 270
-0.0023845332 0.68000001 -0.035767999 1.2529901e-38 318 270
-0.0011922666 0.68000001 -0.035767999 1.2437705e-38 319 270
0 0.68000001 -0.035767999 1.2528818e-38 320 270
0.0011957732 0.68199998 -0.035873197 1.2252591e-38 321 270
0.0023915465 0.68199998 -0.035873197 1.2161111e-38 322 270
0.00358732 0.68199998 -0.035873197 1.2253307e-38 323 270
0.004783093 0.68199998 -0.035873197 1.2069995e-38 324 270
0.005978866 0.68199998 -0.035873197 1.2254026e-38 325 270
0.0071851597 0.68300003 -0.035925802 1.2160755e-38 326 270
0.0083826864 0.68300003 -0.035925802 1.1884529e-38 327 270
0.0095802136 0.68300003 -0.035925802 1.179233e-38 328 270
0.01079352 0.68400002 -0.035978399 1.179233e-38 329 270
0.0119928 0.68400002 -0.035978399 1.1791603e-38 330 270
0.013230653 0.68599999 -0.036083598 1.1607572e-38 331 270
0.014454478 0.68699998 -0.036136195 1.1515373e-38 332 270
0.015681813 0.68800002 -0.0361888 1.1423178e-38 333 270
0.016888106 0.68800002 -0.0361888 1.1606487e-38 334 270
0.018146999 0.69 -0.036293998 1.1606487e-38 335 270
0.019384852 0.69099998 -0.036346599 1.1330982e-38 336 270
0.020656019 0.69300002 -0.036451802 1.1146231e-38 337 270
0.021902639 0.69400001 -0.036504399 1.0962202e-38 338 270
0.023119451 0.69400001 -0.036504399 1.0962202e-38 339 270
0.0244064 0.69599998 -0.036609598 1.1145517e-38 340 270
0.025626717 0.69599998 -0.036609598 1.1329909e-38 341 270
0.026885614 0.69700003 -0.036662199 1.1239512e-38 342 270
0.028148014 0.69800001 -0.0367148 1.1515739e-38 343 270
0.029498078 0.70099998 -0.036872596 1.1975648e-38 344 270
0.030814834 0.70300001 -0.036977798 1.2436266e-38 345 270
0.032093015 0.704 -0.037030395 1.2805058e-38 346 270
