# .PCD v.7 - Point Cloud Data file format
FIELDS x y z rgb imX imY
SIZE 4 4 4 4 4 4
TYPE F F F F F F
COUNT 1 1 1 1 1 1
WIDTH 825
HEIGHT 1
VIEWPOINT 0 0 0 1 0 0 0
POINTS 825
DATA ascii
0.027039904 0.70099998 -0.0012290865 8.5651664e-39 342 241
-0.079881869 0.67000002 -0.0023494666 5.805438e-39 252 242
-0.078707129 0.67000002 -0.0023494666 4.5917748e-40 253 242
-0.077532403 0.67000002 -0.0023494666 3.0356034e-39 254 242
-0.076357663 0.67000002 -0.0023494666 3.3121903e-39 255 242
-0.07518293 0.67000002 -0.0023494666 2.6693419e-39 256 242
-0.073787279 0.66799998 -0.0023424532 2.853373e-39 257 242
-0.072616048 0.66799998 -0.0023424532 3.036695e-39 258 242
-0.071444817 0.66799998 -0.0023424532 3.5898688e-39 259 242
-0.070168398 0.667 -0.0023389466 4.690827e-39 260 242
-0.068998925 0.667 -0.0023389466 7.1797503e-39 261 242
-0.067829452 0.667 -0.0023389466 1.0875847e-38 262 242
-0.06665998 0.667 -0.0023389466 1.4471117e-38 263 242
-0.065490507 0.667 -0.0023389466 1.3644603e-38 264 242
-0.046838548 0.70300001 -0.0024651866 6.9042003e-39 282 242
-0.04541133 0.69999999 -0.0024546667 6.3510266e-39 283 242
-0.04405776 0.69800001 -0.0024476533 5.7978598e-39 284 242
-0.042772565 0.69700003 -0.0024441467 5.5209128e-39 285 242
-0.041550495 0.69700003 -0.0024441467 4.9695411e-39 286 242
-0.040270556 0.69599998 -0.0024406398 4.6929528e-39 287 242
-0.039050236 0.69599998 -0.0024406398 4.3241744e-39 288 242
-0.037721213 0.69400001 -0.0024336267 4.0472274e-39 289 242
-0.036451802 0.69300002 -0.00243012 3.4036601e-39 290 242
-0.035236739 0.69300002 -0.00243012 3.3114645e-39 291 242
-0.033923492 0.69099998 -0.0024231065 3.1277991e-39 292 242
-0.032664597 0.69 -0.0024195998 3.4962215e-39 293 242
-0.031454802 0.69 -0.0024195998 4.324543e-39 294 242
-0.030113498 0.68699998 -0.0024090798 4.5089342e-39 295 242
-0.028908957 0.68699998 -0.0024090798 5.1521372e-39 296 242
-0.027664091 0.68599999 -0.0024055731 5.5205596e-39 297 242
-0.026461305 0.68599999 -0.0024055731 5.7978598e-39 298 242
-0.025258519 0.68599999 -0.0024055731 5.982251e-39 299 242
-0.0239856 0.68400002 -0.0023985601 6.1662822e-39 300 242
-0.022786319 0.68400002 -0.0023985601 6.2584778e-39 301 242
-0.021650158 0.68599999 -0.0024055731 5.8925721e-39 302 242
-0.020387759 0.68400002 -0.0023985601 5.9847692e-39 303 242
-0.01918848 0.68400002 -0.0023985601 6.4439425e-39 304 242
-0.017962901 0.68300003 -0.0023950534 6.2599113e-39 305 242
-0.016765373 0.68300003 -0.0023950534 5.8000108e-39 306 242
-0.015567848 0.68300003 -0.0023950534 5.6152608e-39 307 242
-0.014370319 0.68300003 -0.0023950534 5.2471999e-39 308 242
-0.013172794 0.68300003 -0.0023950534 5.1550043e-39 309 242
-0.011975267 0.68300003 -0.0023950534 5.2472027e-39 310 242
-0.01077774 0.68300003 -0.0023950534 5.1550071e-39 311 242
-0.0095802136 0.68300003 -0.0023950534 5.2472055e-39 312 242
-0.0083826864 0.68300003 -0.0023950534 5.3394026e-39 313 242
-0.0071851597 0.68300003 -0.0023950534 5.3393998e-39 314 242
-0.0059876335 0.68300003 -0.0023950534 5.1550071e-39 315 242
-0.0047901068 0.68300003 -0.0023950534 5.5219946e-39 316 242
-0.0035925799 0.68300003 -0.0023950534 5.4297989e-39 317 242
-0.0023950534 0.68300003 -0.0023950534 5.3376033e-39 318 242
-0.0011975267 0.68300003 -0.0023950534 5.5219946e-39 319 242
0 0.68300003 -0.0023950534 5.430515e-39 320 242
0.0011975267 0.68300003 -0.0023950534 5.522712e-39 321 242
0.0023985601 0.68400002 -0.0023985601 5.9826042e-39 322 242
0.00359784 0.68400002 -0.0023985601 5.8904085e-39 323 242
0.0048111463 0.68599999 -0.0024055731 5.8904057e-39 324 242
0.0060139326 0.68599999 -0.0024055731 5.7982101e-39 325 242
0.0072272392 0.68699998 -0.0024090798 5.4319457e-39 326 242
0.0084317802 0.68699998 -0.0024090798 5.6163356e-39 327 242
0.0096363192 0.68699998 -0.0024090798 5.798573e-39 328 242
0.010840859 0.68699998 -0.0024090798 5.7063774e-39 329 242
0.012062933 0.68800002 -0.0024125867 5.430515e-39 330 242
0.0133078 0.69 -0.0024195998 5.522712e-39 331 242
0.014517599 0.69 -0.0024195998 5.6149105e-39 332 242
0.015795778 0.69300002 -0.00243012 5.7071061e-39 333 242
0.017109027 0.69700003 -0.0024441467 5.707462e-39 334 242
0.0183574 0.69800001 -0.0024476533 5.7996577e-39 335 242
0.019581227 0.69800001 -0.0024476533 5.8014485e-39 336 242
0.020864666 0.69999999 -0.0024546667 5.9858412e-39 337 242
0.022123558 0.70099998 -0.0024581731 6.1702324e-39 338 242
0.023352645 0.70099998 -0.0024581731 6.2624281e-39 339 242
0.024651866 0.70300001 -0.0024651866 6.8130809e-39 340 242
0.02592128 0.704 -0.0024686933 5.9833202e-39 341 242
0.027155625 0.704 -0.0024686933 9.3931264e-39 342 242
-0.080001086 0.671 -0.0035294599 7.8312111e-39 252 243
-0.078707129 0.67000002 -0.0035241998 2.115445e-39 253 243
-0.077532403 0.67000002 -0.0035241998 2.8504877e-39 254 243
-0.076357663 0.67000002 -0.0035241998 3.3114645e-39 255 243
-0.07518293 0.67000002 -0.0035241998 3.0359692e-39 256 243
-0.074008204 0.67000002 -0.0035241998 3.0359692e-39 257 243
-0.072616048 0.66799998 -0.0035136798 3.4029566e-39 258 243
-0.071444817 0.66799998 -0.0035136798 3.8639348e-39 259 243
-0.070168398 0.667 -0.0035084197 4.0501267e-39 260 243
-0.068998925 0.667 -0.0035084197 5.3408655e-39 261 243
-0.067829452 0.667 -0.0035084197 9.9528092e-39 262 243
-0.06665998 0.667 -0.0035084197 1.4286004e-38 263 243
-0.065490507 0.667 -0.0035084197 1.3552402e-38 264 243
-0.046838548 0.70300001 -0.0036977797 7.4570084e-39 282 243
-0.04541133 0.69999999 -0.0036819996 6.811639e-39 283 243
-0.04405776 0.69800001 -0.0036714801 6.1666381e-39 284 243
-0.042772565 0.69700003 -0.00366622 5.6134643e-39 285 243
-0.041550495 0.69700003 -0.00366622 5.3376005e-39 286 243
-0.040328421 0.69700003 -0.00366622 5.1532092e-39 287 243
-0.039050236 0.69599998 -0.0036609597 4.6922311e-39 288 243
-0.037721213 0.69400001 -0.0036504399 4.2312529e-39 289 243
-0.036504399 0.69400001 -0.0036504399 3.679168e-39 290 243
-0.035236739 0.69300002 -0.0036451798 3.4029412e-39 291 243
-0.033923492 0.69099998 -0.0036346598 3.2189157e-39 292 243
-0.032711938 0.69099998 -0.0036346598 3.4955026e-39 293 243
-0.031454802 0.69 -0.0036293997 4.0483134e-39 294 243
-0.030157333 0.68800002 -0.0036188802 4.4167358e-39 295 243
-0.028908957 0.68699998 -0.0036136196 4.9677418e-39 296 243
-0.027704418 0.68699998 -0.0036136196 5.2443301e-39 297 243
-0.026499879 0.68699998 -0.0036136196 5.6134615e-39 298 243
-0.025258519 0.68599999 -0.00360836 5.7978542e-39 299 243
-0.024055731 0.68599999 -0.00360836 5.9826042e-39 300 243
-0.022852944 0.68599999 -0.00360836 6.2588309e-39 301 243
-0.021681719 0.68699998 -0.0036136196 5.8932896e-39 302 243
-0.020447372 0.68599999 -0.00360836 5.9854852e-39 303 243
-0.019244585 0.68599999 -0.00360836 6.4442984e-39 304 243
-0.0179892 0.68400002 -0.00359784 6.2602673e-39 305 243
-0.016789921 0.68400002 -0.00359784 5.9840419e-39 306 243
-0.01559064 0.68400002 -0.00359784 5.6152608e-39 307 243
-0.01439136 0.68400002 -0.00359784 5.523068e-39 308 243
-0.01319208 0.68400002 -0.00359784 5.523068e-39 309 243
-0.0119928 0.68400002 -0.00359784 5.5219918e-39 310 243
-0.01079352 0.68400002 -0.00359784 5.4297961e-39 311 243
-0.0095942402 0.68400002 -0.00359784 5.5219946e-39 312 243
-0.0083949603 0.68400002 -0.00359784 5.7060271e-39 313 243
-0.0071851597 0.68300003 -0.0035925799 5.522712e-39 314 243
-0.0059876335 0.68300003 -0.0035925799 5.3383194e-39 315 243
-0.0047901068 0.68300003 -0.0035925799 5.6131084e-39 316 243
-0.0035925799 0.68300003 -0.0035925799 5.7056628e-39 317 243
-0.0023950534 0.68300003 -0.0035925799 5.4297961e-39 318 243
-0.00119928 0.68400002 -0.00359784 5.5219918e-39 319 243
0 0.68400002 -0.00359784 5.523068e-39 320 243
0.00119928 0.68400002 -0.00359784 5.7074592e-39 321 243
0.0023985601 0.68400002 -0.00359784 6.0755187e-39 322 243
0.00360836 0.68599999 -0.00360836 5.8911274e-39 323 243
0.0048111463 0.68599999 -0.00360836 5.797857e-39 324 243
0.0060139326 0.68599999 -0.00360836 5.797857e-39 325 243
0.0072272392 0.68699998 -0.0036136196 5.6152636e-39 326 243
0.0084317802 0.68699998 -0.0036136196 5.7074592e-39 327 243
0.0096363192 0.68699998 -0.0036136196 5.7063802e-39 328 243
0.010856641 0.68800002 -0.0036188802 5.5223477e-39 329 243
0.012062933 0.68800002 -0.0036188802 5.5219946e-39 330 243
0.0133078 0.69 -0.0036293997 5.7060271e-39 331 243
0.014538639 0.69099998 -0.0036346598 5.7982255e-39 332 243
0.015818574 0.69400001 -0.0036504399 5.9826168e-39 333 243
0.017109027 0.69700003 -0.00366622 5.8000234e-39 334 243
0.0183574 0.69800001 -0.0036714801 5.8000234e-39 335 243
0.019637333 0.69999999 -0.0036819996 5.8929393e-39 336 243
0.020894472 0.70099998 -0.0036872597 6.0773305e-39 337 243
0.022123558 0.70099998 -0.0036872597 6.4464648e-39 338 243
0.023352645 0.70099998 -0.0036872597 6.6308575e-39 339 243
0.024686933 0.704 -0.0037030398 7.1818606e-39 340 243
0.02592128 0.704 -0.0037030398 6.4442956e-39 341 243
0.027155625 0.704 -0.0037030398 1.0222527e-38 342 243
-0.078824602 0.671 -0.0047059464 4.3288562e-39 253 244
-0.077532403 0.67000002 -0.0046989331 2.6632294e-39 254 244
-0.076357663 0.67000002 -0.0046989331 3.5844542e-39 255 244
-0.07518293 0.67000002 -0.0046989331 3.1281648e-39 256 244
-0.074008204 0.67000002 -0.0046989331 3.0359692e-39 257 244
-0.072833464 0.67000002 -0.0046989331 3.3118372e-39 258 244
-0.071444817 0.66799998 -0.0046849065 3.7728153e-39 259 244
-0.070168398 0.667 -0.0046778931 3.8653767e-39 260 244
-0.068998925 0.667 -0.0046778931 3.8653767e-39 261 244
-0.067829452 0.667 -0.0046778931 9.4003599e-39 262 244
-0.06665998 0.667 -0.0046778931 1.4563315e-38 263 244
-0.065490507 0.667 -0.0046778931 1.3922266e-38 264 244
-0.046905171 0.704 -0.0049373866 8.28569e-39 282 244
-0.045476202 0.70099998 -0.0049163462 7.6403206e-39 283 244
-0.044183996 0.69999999 -0.0049093333 6.5361409e-39 284 244
-0.042833932 0.69800001 -0.0048953067 5.9829671e-39 285 244
-0.041610107 0.69800001 -0.0048953067 5.5219946e-39 286 244
-0.040328421 0.69700003 -0.0048882933 5.3376033e-39 287 244
-0.039106347 0.69700003 -0.0048882933 4.8773454e-39 288 244
-0.037829921 0.69599998 -0.0048812795 4.4163673e-39 289 244
-0.036504399 0.69400001 -0.0048672534 3.5880541e-39 290 244
-0.035287585 0.69400001 -0.0048672534 3.4036629e-39 291 244
-0.034021679 0.69300002 -0.00486024 3.1274459e-39 292 244
-0.03280662 0.69300002 -0.00486024 3.2196416e-39 293 244
-0.031500384 0.69099998 -0.0048462129 3.9564835e-39 294 244
-0.030244999 0.69 -0.0048391996 4.2330704e-39 295 244
-0.028951041 0.68800002 -0.0048251734 4.9673887e-39 296 244
-0.027704418 0.68699998 -0.0048181596 5.1521401e-39 297 244
-0.026499879 0.68699998 -0.0048181596 5.6131084e-39 298 244
-0.025295338 0.68699998 -0.0048181596 5.7056628e-39 299 244
-0.024055731 0.68599999 -0.0048111463 5.798573e-39 300 244
-0.022852944 0.68599999 -0.0048111463 6.0755187e-39 301 244
-0.021681719 0.68699998 -0.0048181596 5.7099745e-39 302 244
-0.020477179 0.68699998 -0.0048181596 5.8025289e-39 303 244
-0.019244585 0.68599999 -0.0048111463 6.4442984e-39 304 244
-0.018041799 0.68599999 -0.0048111463 6.4442984e-39 305 244
-0.016789921 0.68400002 -0.0047971201 5.8929253e-39 306 244
-0.01559064 0.68400002 -0.0047971201 5.6159797e-39 307 244
-0.01439136 0.68400002 -0.0047971201 5.8911274e-39 308 244
-0.01319208 0.68400002 -0.0047971201 6.0755187e-39 309 244
-0.0119928 0.68400002 -0.0047971201 5.983323e-39 310 244
-0.01079352 0.68400002 -0.0047971201 5.798573e-39 311 244
-0.0095942402 0.68400002 -0.0047971201 5.7060243e-39 312 244
-0.0083949603 0.68400002 -0.0047971201 5.7060243e-39 313 244
-0.0071956799 0.68400002 -0.0047971201 5.4315982e-39 314 244
-0.0059876335 0.68300003 -0.0047901068 5.2472055e-39 315 244
-0.0047901068 0.68300003 -0.0047901068 5.6131112e-39 316 244
-0.00359784 0.68400002 -0.0047971201 5.7053068e-39 317 244
-0.0023985601 0.68400002 -0.0047971201 5.430515e-39 318 244
-0.00119928 0.68400002 -0.0047971201 5.6149077e-39 319 244
0 0.68599999 -0.0048111463 5.6159825e-39 320 244
0.0012027866 0.68599999 -0.0048111463 5.8003737e-39 321 244
0.0024055731 0.68599999 -0.0048111463 6.0755187e-39 322 244
0.0036136196 0.68699998 -0.0048181596 5.8911274e-39 323 244
0.0048181596 0.68699998 -0.0048181596 5.797857e-39 324 244
0.0060226996 0.68699998 -0.0048181596 5.8900526e-39 325 244
0.0072272392 0.68699998 -0.0048181596 5.6149077e-39 326 244
0.0084440531 0.68800002 -0.0048251734 5.707462e-39 327 244
0.0096503468 0.68800002 -0.0048251734 5.6149105e-39 328 244
0.010856641 0.68800002 -0.0048251734 5.4305178e-39 329 244
0.012097999 0.69 -0.0048391996 5.5219974e-39 330 244
0.01336566 0.69300002 -0.00486024 5.7982255e-39 331 244
0.01460176 0.69400001 -0.0048672534 5.6149133e-39 332 244
0.015886955 0.69700003 -0.0048882933 5.9833356e-39 333 244
0.017133573 0.69800001 -0.0048953067 5.892219e-39 334 244
0.018409999 0.69999999 -0.0049093333 5.892219e-39 335 244
0.019665385 0.70099998 -0.0049163462 5.8929393e-39 336 244
0.020894472 0.70099998 -0.0049163462 6.1698849e-39 337 244
0.02218668 0.70300001 -0.0049303733 6.5386618e-39 338 244
0.023419274 0.70300001 -0.0049303733 6.8152487e-39 339 244
0.024686933 0.704 -0.0049373866 7.4588062e-39 340 244
0.02592128 0.704 -0.0049373866 7.3666106e-39 341 244
0.027232772 0.70599997 -0.0049514128 1.1604026e-38 342 244
-0.078707129 0.67000002 -0.0058736666 6.4508046e-39 253 245
-0.077532403 0.67000002 -0.0058736666 2.9390946e-39 254 245
-0.076357663 0.67000002 -0.0058736666 3.6766498e-39 255 245
-0.07518293 0.67000002 -0.0058736666 3.863562e-39 256 245
-0.074008204 0.67000002 -0.0058736666 3.6791708e-39 257 245
-0.072833464 0.67000002 -0.0058736666 3.5884171e-39 258 245
-0.071444817 0.66799998 -0.0058561331 3.8653641e-39 259 245
-0.070273593 0.66799998 -0.0058561331 3.6817113e-39 260 245
-0.069102369 0.66799998 -0.0058561331 2.667558e-39 261 245
-0.067931145 0.66799998 -0.0058561331 8.3865779e-39 262 245
-0.06665998 0.667 -0.0058473665 1.4379294e-38 263 245
-0.065490507 0.667 -0.0058473665 1.4015906e-38 264 245
-0.047038425 0.70599997 -0.0061892662 8.6555516e-39 282 245
-0.04560595 0.70300001 -0.0061629666 8.0101822e-39 283 245
-0.044247117 0.70099998 -0.0061454331 7.3637408e-39 284 245
-0.042956665 0.69999999 -0.0061366665 6.7183713e-39 285 245
-0.041610107 0.69800001 -0.006119133 6.1666381e-39 286 245
-0.040386278 0.69800001 -0.006119133 5.797857e-39 287 245
-0.039106347 0.69700003 -0.0061103669 5.0620926e-39 288 245
-0.037829921 0.69599998 -0.0061015999 4.69295e-39 289 245
-0.036504399 0.69400001 -0.0060840664 4.4152883e-39 290 245
-0.035287585 0.69400001 -0.0060840664 4.0468645e-39 291 245
-0.034021679 0.69300002 -0.0060753003 3.5869751e-39 292 245
-0.03280662 0.69300002 -0.0060753003 3.6791708e-39 293 245
-0.031500384 0.69099998 -0.0060577663 3.8653669e-39 294 245
-0.030288832 0.69099998 -0.0060577663 4.1415937e-39 295 245
-0.029035198 0.69 -0.0060489997 4.7847953e-39 296 245
-0.027744746 0.68800002 -0.0060314666 4.9691879e-39 297 245
-0.026538454 0.68800002 -0.0060314666 5.3376033e-39 298 245
-0.02533216 0.68800002 -0.0060314666 5.5219946e-39 299 245
-0.024090799 0.68699998 -0.0060226996 5.7985787e-39 300 245
-0.022886258 0.68699998 -0.0060226996 6.0751655e-39 301 245
-0.021713281 0.68800002 -0.0060314666 5.8010926e-39 302 245
-0.020506985 0.68800002 -0.0060314666 5.8932896e-39 303 245
-0.019272638 0.68699998 -0.0060226996 6.2599113e-39 304 245
-0.018068098 0.68699998 -0.0060226996 6.2599113e-39 305 245
-0.01686356 0.68699998 -0.0060226996 5.8932896e-39 306 245
-0.015636226 0.68599999 -0.0060139326 5.6170615e-39 307 245
-0.01443344 0.68599999 -0.0060139326 5.9833202e-39 308 245
-0.01319208 0.68400002 -0.0059964 6.2602673e-39 309 245
-0.0119928 0.68400002 -0.0059964 5.9851195e-39 310 245
-0.01079352 0.68400002 -0.0059964 5.4319457e-39 311 245
-0.0095942402 0.68400002 -0.0059964 5.8900526e-39 312 245
-0.0083949603 0.68400002 -0.0059964 5.9822482e-39 313 245
-0.0071956799 0.68400002 -0.0059964 5.7074592e-39 314 245
-0.0059964 0.68400002 -0.0059964 5.523068e-39 315 245
-0.0047971201 0.68400002 -0.0059964 5.7056628e-39 316 245
-0.00359784 0.68400002 -0.0059964 5.7056628e-39 317 245
-0.0024055731 0.68599999 -0.0060139326 5.5227148e-39 318 245
-0.0012027866 0.68599999 -0.0060139326 5.6149105e-39 319 245
0 0.68599999 -0.0060139326 5.4330359e-39 320 245
0.0012045399 0.68699998 -0.0060226996 5.4330359e-39 321 245
0.0024090798 0.68699998 -0.0060226996 5.9829699e-39 322 245
0.0036136196 0.68699998 -0.0060226996 5.8907743e-39 323 245
0.0048181596 0.68699998 -0.0060226996 5.8900554e-39 324 245
0.0060314666 0.68800002 -0.0060314666 5.7978598e-39 325 245
0.0072377604 0.68800002 -0.0060314666 5.5227148e-39 326 245
0.0084440531 0.68800002 -0.0060314666 5.6149105e-39 327 245
0.0096503468 0.68800002 -0.0060314666 5.7060299e-39 328 245
0.010888199 0.69 -0.0060489997 5.7060299e-39 329 245
0.012115533 0.69099998 -0.0060577663 5.5223617e-39 330 245
0.013384946 0.69400001 -0.0060840664 5.5223617e-39 331 245
0.014643839 0.69599998 -0.0061015999 5.706753e-39 332 245
0.015909746 0.69800001 -0.006119133 5.9833385e-39 333 245
0.017182667 0.69999999 -0.0061366665 5.8929393e-39 334 245
0.018436298 0.70099998 -0.0061454331 5.8929393e-39 335 245
0.019721493 0.70300001 -0.0061629666 5.8018227e-39 336 245
0.020954086 0.70300001 -0.0061629666 6.1706038e-39 337 245
0.022218239 0.704 -0.0061717331 6.3549992e-39 338 245
0.023452586 0.704 -0.0061717331 6.8156173e-39 339 245
0.024792133 0.70700002 -0.0061980332 7.2762269e-39 340 245
0.02603174 0.70700002 -0.0061980332 8.1059875e-39 341 245
0.027387066 0.70999998 -0.0062243328 1.2896203e-38 342 245
-0.078707129 0.67000002 -0.0070483997 8.9418873e-39 253 246
-0.077532403 0.67000002 -0.0070483997 3.5837381e-39 254 246
-0.076357663 0.67000002 -0.0070483997 4.2291076e-39 255 246
-0.07518293 0.67000002 -0.0070483997 4.4160169e-39 256 246
-0.074008204 0.67000002 -0.0070483997 4.2316257e-39 257 246
-0.072833464 0.67000002 -0.0070483997 3.7731657e-39 258 246
-0.071658738 0.67000002 -0.0070483997 3.8653613e-39 259 246
-0.070273593 0.66799998 -0.0070273597 4.3234682e-39 260 246
-0.069102369 0.66799998 -0.0070273597 2.2040519e-39 261 246
-0.067931145 0.66799998 -0.0070273597 6.2671546e-39 262 246
-0.066759922 0.66799998 -0.0070273597 1.3366218e-38 263 246
-0.065588683 0.66799998 -0.0070273597 1.3924074e-38 264 246
-0.047038425 0.70599997 -0.0074271196 8.8392366e-39 282 246
-0.045670826 0.704 -0.0074060797 8.3786172e-39 283 246
-0.04437336 0.70300001 -0.0073955595 7.0900405e-39 284 246
-0.043018032 0.70099998 -0.0073745195 6.629061e-39 285 246
-0.041729331 0.69999999 -0.0073639993 5.8925721e-39 286 246
-0.040386278 0.69800001 -0.0073429602 5.7081809e-39 287 246
-0.039106347 0.69700003 -0.00733244 4.8791433e-39 288 246
-0.037884273 0.69700003 -0.00733244 4.6025564e-39 289 246
-0.036609598 0.69599998 -0.0073219193 4.3245374e-39 290 246
-0.035287585 0.69400001 -0.0073008798 3.863918e-39 291 246
-0.034021679 0.69300002 -0.0072903596 3.3121903e-39 292 246
-0.03280662 0.69300002 -0.0072903596 3.4962215e-39 293 246
-0.031591557 0.69300002 -0.0072903596 3.7731657e-39 294 246
-0.030288832 0.69099998 -0.0072693196 4.2341424e-39 295 246
-0.029077278 0.69099998 -0.0072693196 4.7847953e-39 296 246
-0.027825398 0.69 -0.0072587994 5.0613836e-39 297 246
-0.026615599 0.69 -0.0072587994 5.4297989e-39 298 246
-0.025405798 0.69 -0.0072587994 5.7060271e-39 299 246
-0.024125867 0.68800002 -0.0072377604 5.6149105e-39 300 246
-0.022919573 0.68800002 -0.0072377604 5.7993017e-39 301 246
-0.021776399 0.69 -0.0072587994 5.7099774e-39 302 246
-0.020506985 0.68800002 -0.0072377604 5.6177803e-39 303 246
-0.019300694 0.68800002 -0.0072377604 6.5343388e-39 304 246
-0.018068098 0.68699998 -0.0072272392 6.5343388e-39 305 246
-0.01686356 0.68699998 -0.0072272392 6.0758844e-39 306 246
-0.015659019 0.68699998 -0.0072272392 5.7996577e-39 307 246
-0.01443344 0.68599999 -0.0072167199 5.8925693e-39 308 246
-0.01319208 0.68400002 -0.0071956799 5.9847664e-39 309 246
-0.0119928 0.68400002 -0.0071956799 6.1684318e-39 310 246
-0.010825079 0.68599999 -0.0072167199 6.0762347e-39 311 246
-0.0096222926 0.68599999 -0.0072167199 5.798573e-39 312 246
-0.0084195063 0.68599999 -0.0072167199 5.8911274e-39 313 246
-0.0072167199 0.68599999 -0.0072167199 5.7081809e-39 314 246
-0.0059964 0.68400002 -0.0071956799 5.6156265e-39 315 246
-0.0047971201 0.68400002 -0.0071956799 5.7053068e-39 316 246
-0.00359784 0.68400002 -0.0071956799 5.7053068e-39 317 246
-0.0024055731 0.68599999 -0.0072167199 5.3379662e-39 318 246
-0.0012027866 0.68599999 -0.0072167199 5.6149133e-39 319 246
0 0.68699998 -0.0072272392 5.6156321e-39 320 246
0.0012045399 0.68699998 -0.0072272392 5.7078278e-39 321 246
0.0024090798 0.68699998 -0.0072272392 6.0751655e-39 322 246
0.0036188802 0.68800002 -0.0072377604 5.8907743e-39 323 246
0.0048251734 0.68800002 -0.0072377604 5.7975039e-39 324 246
0.0060314666 0.68800002 -0.0072377604 5.7975039e-39 325 246
0.0072587994 0.69 -0.0072587994 5.7060299e-39 326 246
0.008480873 0.69099998 -0.0072693196 5.7982255e-39 327 246
0.0096924258 0.69099998 -0.0072693196 5.5227148e-39 328 246
0.010935539 0.69300002 -0.0072903596 5.4305178e-39 329 246
0.012150601 0.69300002 -0.0072903596 5.5219974e-39 330 246
0.013423519 0.69599998 -0.0073219193 5.7060299e-39 331 246
0.01466488 0.69700003 -0.00733244 5.706753e-39 332 246
0.015909746 0.69800001 -0.0073429602 5.9833385e-39 333 246
0.017182667 0.69999999 -0.0073639993 5.8925749e-39 334 246
0.018436298 0.70099998 -0.0073745195 6.0769676e-39 335 246
0.019721493 0.70300001 -0.0073955595 5.985488e-39 336 246
0.020983893 0.704 -0.0074060797 6.1698793e-39 337 246
0.022281358 0.70599997 -0.0074271196 6.7223342e-39 338 246
0.023519212 0.70599997 -0.0074271196 7.183311e-39 339 246
0.024792133 0.70700002 -0.0074376399 7.273343e-39 340 246
0.026068559 0.708 -0.0074481601 9.6700692e-39 341 246
0.027387066 0.70999998 -0.0074691991 1.4001829e-38 342 246
-0.078824602 0.671 -0.0082354061 1.0971633e-38 253 247
-0.077648118 0.671 -0.0082354061 4.5046126e-39 254 247
-0.076471634 0.671 -0.0082354061 4.3202214e-39 255 247
-0.075295143 0.671 -0.0082354061 5.2432497e-39 256 247
-0.074118659 0.671 -0.0082354061 4.8748273e-39 257 247
-0.072833464 0.67000002 -0.0082231332 4.3248933e-39 258 247
-0.071658738 0.67000002 -0.0082231332 4.4170889e-39 259 247
-0.070483997 0.67000002 -0.0082231332 4.0483106e-39 260 247
-0.069309272 0.67000002 -0.0082231332 1.9285454e-39 261 247
-0.067931145 0.66799998 -0.0081985854 4.78734e-39 262 247
-0.066759922 0.66799998 -0.0081985854 1.2808e-38 263 247
-0.045670826 0.704 -0.0086404262 8.7452445e-39 283 247
-0.04437336 0.70300001 -0.0086281532 7.9165572e-39 284 247
-0.043018032 0.70099998 -0.0086036054 7.2711878e-39 285 247
-0.041729331 0.69999999 -0.0085913334 6.4432264e-39 286 247
-0.040502001 0.69999999 -0.0085913334 5.9822482e-39 287 247
-0.039162453 0.69800001 -0.0085667865 5.4297989e-39 288 247
-0.037884273 0.69700003 -0.0085545136 4.8766252e-39 289 247
-0.036609598 0.69599998 -0.0085422397 4.5996795e-39 290 247
-0.035389278 0.69599998 -0.0085422397 4.2312557e-39 291 247
-0.034070771 0.69400001 -0.0085176928 3.5880513e-39 292 247
-0.032853961 0.69400001 -0.0085176928 3.5880513e-39 293 247
-0.031591557 0.69300002 -0.0085054198 3.9564835e-39 294 247
-0.0303765 0.69300002 -0.0085054198 4.2330704e-39 295 247
-0.029077278 0.69099998 -0.008480873 4.7858785e-39 296 247
-0.027865725 0.69099998 -0.008480873 5.1543009e-39 297 247
-0.026615599 0.69 -0.0084686 5.4294458e-39 298 247
-0.025405798 0.69 -0.0084686 5.5216414e-39 299 247
-0.024125867 0.68800002 -0.0084440531 5.6156293e-39 300 247
-0.022919573 0.68800002 -0.0084440531 5.8925749e-39 301 247
-0.021776399 0.69 -0.0084686 5.8010926e-39 302 247
-0.020566599 0.69 -0.0084686 5.6170615e-39 303 247
-0.019300694 0.68800002 -0.0084440531 5.982251e-39 304 247
-0.0180944 0.68800002 -0.0084440531 6.2584778e-39 305 247
-0.01686356 0.68699998 -0.0084317802 5.985488e-39 306 247
-0.015659019 0.68699998 -0.0084317802 5.8010954e-39 307 247
-0.014454478 0.68699998 -0.0084317802 6.1666325e-39 308 247
-0.013230653 0.68599999 -0.0084195063 6.4435795e-39 309 247
-0.012027865 0.68599999 -0.0084195063 6.261705e-39 310 247
-0.010825079 0.68599999 -0.0084195063 5.6163356e-39 311 247
-0.0096222926 0.68599999 -0.0084195063 5.9826042e-39 312 247
-0.0084195063 0.68599999 -0.0084195063 6.2588309e-39 313 247
-0.0072272392 0.68699998 -0.0084317802 5.8000108e-39 314 247
-0.0060139326 0.68599999 -0.0084195063 5.6152608e-39 315 247
-0.0048111463 0.68599999 -0.0084195063 5.981172e-39 316 247
-0.0036136196 0.68699998 -0.0084317802 5.888975e-39 317 247
-0.0024090798 0.68699998 -0.0084317802 5.429443e-39 318 247
-0.0012045399 0.68699998 -0.0084317802 5.7060299e-39 319 247
0 0.68699998 -0.0084317802 5.2486489e-39 320 247
0.0012062934 0.68800002 -0.0084440531 5.2486489e-39 321 247
0.0024125867 0.68800002 -0.0084440531 6.0751655e-39 322 247
0.0036188802 0.68800002 -0.0084440531 5.8907743e-39 323 247
0.0048251734 0.68800002 -0.0084440531 6.0733677e-39 324 247
0.0060489997 0.69 -0.0084686 5.981172e-39 325 247
0.0072587994 0.69 -0.0084686 5.522712e-39 326 247
0.0085054198 0.69300002 -0.0085054198 5.6149077e-39 327 247
0.0097204801 0.69300002 -0.0085054198 5.7060243e-39 328 247
0.01095132 0.69400001 -0.0085176928 5.7060243e-39 329 247
0.012168133 0.69400001 -0.0085176928 5.4301647e-39 330 247
0.013423519 0.69599998 -0.0085422397 5.5223617e-39 331 247
0.01466488 0.69700003 -0.0085545136 5.8900708e-39 332 247
0.015955333 0.69999999 -0.0085913334 5.9822665e-39 333 247
0.017207211 0.70099998 -0.0086036054 5.9844189e-39 334 247
0.018436298 0.70099998 -0.0086036054 5.9844189e-39 335 247
0.019721493 0.70300001 -0.0086281532 6.0769676e-39 336 247
0.020983893 0.704 -0.0086404262 6.44539e-39 337 247
0.022281358 0.70599997 -0.0086649731 6.7219867e-39 338 247
0.023519212 0.70599997 -0.0086649731 7.0904091e-39 339 247
0.024792133 0.70700002 -0.008677247 6.6308603e-39 340 247
0.02603174 0.70700002 -0.008677247 1.0042099e-38 341 247
0.027309919 0.708 -0.008689519 1.4372404e-38 342 247
-0.077648118 0.671 -0.0094118929 5.8886191e-39 254 248
-0.076471634 0.671 -0.0094118929 3.9525137e-39 255 248
-0.075295143 0.671 -0.0094118929 4.8755462e-39 256 248
-0.074118659 0.671 -0.0094118929 4.9677418e-39 257 248
-0.072942175 0.671 -0.0094118929 4.5085685e-39 258 248
-0.071658738 0.67000002 -0.0093978662 4.5085685e-39 259 248
-0.070483997 0.67000002 -0.0093978662 4.4160141e-39 260 248
-0.069309272 0.67000002 -0.0093978662 2.848694e-39 261 248
-0.068134531 0.67000002 -0.0093978662 3.4069251e-39 262 248
-0.066959806 0.67000002 -0.0093978662 1.004501e-38 263 248
-0.065785065 0.67000002 -0.0093978662 1.3187593e-38 264 248
-0.04580057 0.70599997 -0.0099028256 8.9296371e-39 283 248
-0.044436477 0.704 -0.0098747732 7.4577497e-39 284 248
-0.043140765 0.70300001 -0.0098607466 6.9045773e-39 285 248
-0.041788943 0.70099998 -0.0098326923 6.5357906e-39 286 248
-0.040502001 0.69999999 -0.0098186666 6.0748124e-39 287 248
-0.039162453 0.69800001 -0.0097906133 5.4301619e-39 288 248
-0.037884273 0.69700003 -0.0097765867 4.9695439e-39 289 248
-0.036662199 0.69700003 -0.0097765867 4.3245374e-39 290 248
-0.035389278 0.69599998 -0.0097625591 3.863918e-39 291 248
-0.034168959 0.69599998 -0.0097625591 3.4958585e-39 292 248
-0.032853961 0.69400001 -0.0097345067 3.4958585e-39 293 248
-0.031637147 0.69400001 -0.0097345067 3.8642823e-39 294 248
-0.0303765 0.69300002 -0.0097204801 4.2334236e-39 295 248
-0.029161438 0.69300002 -0.0097204801 4.9695439e-39 296 248
-0.027865725 0.69099998 -0.0096924258 5.3379662e-39 297 248
-0.026654173 0.69099998 -0.0096924258 5.7060271e-39 298 248
-0.025442619 0.69099998 -0.0096924258 5.7060271e-39 299 248
-0.024195999 0.69 -0.0096783992 5.7071061e-39 300 248
-0.022986198 0.69 -0.0096783992 5.7993017e-39 301 248
-0.021776399 0.69 -0.0096783992 5.8003765e-39 302 248
-0.020566599 0.69 -0.0096783992 5.8003765e-39 303 248
-0.019356798 0.69 -0.0096783992 6.2581149e-39 304 248
-0.0180944 0.68800002 -0.0096503468 6.5343416e-39 305 248
-0.016888106 0.68800002 -0.0096503468 6.1677171e-39 306 248
-0.015681813 0.68800002 -0.0096503468 6.1677171e-39 307 248
-0.014454478 0.68699998 -0.0096363192 6.0755187e-39 308 248
-0.013249939 0.68699998 -0.0096363192 6.2599113e-39 309 248
-0.012045399 0.68699998 -0.0096363192 5.9858384e-39 310 248
-0.010840859 0.68699998 -0.0096363192 5.6174146e-39 311 248
-0.0096363192 0.68699998 -0.0096363192 5.9826042e-39 312 248
-0.0084317802 0.68699998 -0.0096363192 5.9826042e-39 313 248
-0.0072272392 0.68699998 -0.0096363192 5.8003737e-39 314 248
-0.0060226996 0.68699998 -0.0096363192 5.6159825e-39 315 248
-0.0048181596 0.68699998 -0.0096363192 5.981172e-39 316 248
-0.0036136196 0.68699998 -0.0096363192 5.7049439e-39 317 248
-0.0024125867 0.68800002 -0.0096503468 5.3372474e-39 318 248
-0.0012062934 0.68800002 -0.0096503468 5.5219974e-39 319 248
0 0.68800002 -0.0096503468 5.4312423e-39 320 248
0.0012062934 0.68800002 -0.0096503468 5.7078278e-39 321 248
0.0024125867 0.68800002 -0.0096503468 6.0751655e-39 322 248
0.0036293997 0.69 -0.0096783992 5.9829699e-39 323 248
0.0048391996 0.69 -0.0096783992 6.0733677e-39 324 248
0.0060489997 0.69 -0.0096783992 5.981172e-39 325 248
0.0072693196 0.69099998 -0.0096924258 5.7060271e-39 326 248
0.0085054198 0.69300002 -0.0097204801 5.7982227e-39 327 248
0.0097204801 0.69300002 -0.0097204801 5.7982227e-39 328 248
0.01095132 0.69400001 -0.0097345067 5.5219946e-39 329 248
0.012168133 0.69400001 -0.0097345067 5.5216414e-39 330 248
0.013423519 0.69599998 -0.0097625591 5.705674e-39 331 248
0.01468592 0.69800001 -0.0097906133 5.706753e-39 332 248
0.015955333 0.69999999 -0.0098186666 5.9833385e-39 333 248
0.017207211 0.70099998 -0.0098326923 6.0755313e-39 334 248
0.018488899 0.70300001 -0.0098607466 6.0755313e-39 335 248
0.019749546 0.704 -0.0098747732 6.1680842e-39 336 248
0.020983893 0.704 -0.0098747732 6.4446711e-39 337 248
0.022281358 0.70599997 -0.0099028256 6.9056493e-39 338 248
0.023519212 0.70599997 -0.0099028256 6.8134536e-39 339 248
0.024792133 0.70700002 -0.0099168532 8.0951877e-39 340 248
0.02603174 0.70700002 -0.0099168532 1.3073752e-38 341 248
0.027309919 0.708 -0.0099308798 1.483338e-38 342 248
-0.077648118 0.671 -0.01058838 9.0268676e-39 254 249
-0.076471634 0.671 -0.01058838 4.5092818e-39 255 249
-0.075295143 0.671 -0.01058838 4.5982334e-39 256 249
-0.074118659 0.671 -0.01058838 5.2436028e-39 257 249
-0.072942175 0.671 -0.01058838 4.6922437e-39 258 249
-0.071765684 0.671 -0.01058838 4.5082126e-39 259 249
-0.070483997 0.67000002 -0.0105726 4.5082154e-39 260 249
-0.069309272 0.67000002 -0.0105726 3.7706503e-39 261 249
-0.068134531 0.67000002 -0.0105726 2.9445176e-39 262 249
-0.066959806 0.67000002 -0.0105726 6.9089297e-39 263 249
-0.065785065 0.67000002 -0.0105726 1.1896498e-38 264 249
-0.047571439 0.71399999 -0.011266919 9.3898894e-39 282 249
-0.046060063 0.70999998 -0.011203799 8.92927e-39 283 249
-0.044436477 0.704 -0.011109119 7.7328918e-39 284 249
-0.043140765 0.70300001 -0.01109334 7.2715549e-39 285 249
-0.041788943 0.70099998 -0.011061779 6.6283393e-39 286 249
-0.040559858 0.70099998 -0.011061779 6.2595582e-39 287 249
-0.039162453 0.69800001 -0.01101444 5.7985787e-39 288 249
-0.037938625 0.69800001 -0.01101444 5.2454049e-39 289 249
-0.036662199 0.69700003 -0.01099866 4.5085629e-39 290 249
-0.035440128 0.69700003 -0.01099866 4.139779e-39 291 249
-0.034168959 0.69599998 -0.010982879 3.5880513e-39 292 249
-0.032948639 0.69599998 -0.010982879 3.5880513e-39 293 249
-0.031637147 0.69400001 -0.01095132 3.8642851e-39 294 249
-0.030420333 0.69400001 -0.01095132 4.325622e-39 295 249
-0.029161438 0.69300002 -0.010935539 4.7873134e-39 296 249
-0.027946379 0.69300002 -0.010935539 4.9717047e-39 297 249
-0.026654173 0.69099998 -0.01090398 5.5227148e-39 298 249
-0.025442619 0.69099998 -0.01090398 5.5227148e-39 299 249
-0.024231065 0.69099998 -0.01090398 5.5245127e-39 300 249
-0.023019511 0.69099998 -0.01090398 5.5245127e-39 301 249
-0.021807959 0.69099998 -0.01090398 5.7996548e-39 302 249
-0.020596405 0.69099998 -0.01090398 5.7996548e-39 303 249
-0.019356798 0.69 -0.010888199 5.982251e-39 304 249
-0.018146999 0.69 -0.010888199 6.1662822e-39 305 249
-0.016888106 0.68800002 -0.010856641 6.0773207e-39 306 249
-0.015681813 0.68800002 -0.010856641 5.8925693e-39 307 249
-0.014475521 0.68800002 -0.010856641 6.1659136e-39 308 249
-0.013249939 0.68699998 -0.010840859 6.5346947e-39 309 249
-0.012045399 0.68699998 -0.010840859 5.9858384e-39 310 249
-0.010840859 0.68699998 -0.010840859 5.6174146e-39 311 249
-0.0096363192 0.68699998 -0.010840859 6.1666325e-39 312 249
-0.0084317802 0.68699998 -0.010840859 6.1666325e-39 313 249
-0.0072272392 0.68699998 -0.010840859 5.8007268e-39 314 249
-0.0060226996 0.68699998 -0.010840859 5.7085312e-39 315 249
-0.0048181596 0.68699998 -0.010840859 5.8900526e-39 316 249
-0.0036136196 0.68699998 -0.010840859 5.70566e-39 317 249
-0.0024125867 0.68800002 -0.010856641 5.429443e-39 318 249
-0.0012062934 0.68800002 -0.010856641 5.5219974e-39 319 249
0 0.68800002 -0.010856641 5.4312423e-39 320 249
0.0012097999 0.69 -0.010888199 5.7078278e-39 321 249
0.0024195998 0.69 -0.010888199 5.9829699e-39 322 249
0.0036293997 0.69 -0.010888199 5.8907743e-39 323 249
0.0048391996 0.69 -0.010888199 6.0733677e-39 324 249
0.0060577663 0.69099998 -0.01090398 5.981172e-39 325 249
0.0072693196 0.69099998 -0.01090398 5.522712e-39 326 249
0.0085176928 0.69400001 -0.01095132 5.6149077e-39 327 249
0.0097345067 0.69400001 -0.01095132 5.7060271e-39 328 249
0.01095132 0.69400001 -0.01095132 5.7060271e-39 329 249
0.0122032 0.69599998 -0.010982879 5.5216414e-39 330 249
0.013442807 0.69700003 -0.01099866 5.705674e-39 331 249
0.014727999 0.69999999 -0.011045999 5.706753e-39 332 249
0.015978126 0.70099998 -0.011061779 5.9833385e-39 333 249
0.017256306 0.70300001 -0.01109334 5.7993073e-39 334 249
0.018515198 0.704 -0.011109119 5.9833385e-39 335 249
0.019749546 0.704 -0.011109119 6.1677311e-39 336 249
0.021043506 0.70599997 -0.011140679 6.4446767e-39 337 249
0.022281358 0.70599997 -0.011140679 6.7219811e-39 338 249
0.023552528 0.70700002 -0.011156459 6.5375884e-39 339 249
0.024792133 0.70700002 -0.011156459 7.9143964e-39 340 249
0.026068559 0.708 -0.01117224 1.3722362e-38 341 249
0.027387066 0.70999998 -0.011203799 1.5110688e-38 342 249
-0.077648118 0.671 -0.011764866 1.2164037e-38 254 250
-0.076471634 0.671 -0.011764866 6.8170508e-39 255 250
-0.075407356 0.67199999 -0.011782399 4.5971558e-39 256 250
-0.074229114 0.67199999 -0.011782399 5.2425182e-39 257 250
-0.072942175 0.671 -0.011764866 5.0599402e-39 258 250
-0.071765684 0.671 -0.011764866 4.8751902e-39 259 250
-0.0705892 0.671 -0.011764866 4.6922465e-39 260 250
-0.069412716 0.671 -0.011764866 4.6922465e-39 261 250
-0.068134531 0.67000002 -0.011747333 3.0334749e-39 262 250
-0.066959806 0.67000002 -0.011747333 3.8628754e-39 263 250
-0.065785065 0.67000002 -0.011747333 9.7742011e-39 264 250
-0.047571439 0.71399999 -0.012518799 9.6657532e-39 282 250
-0.046060063 0.70999998 -0.012448666 9.1125795e-39 283 250
-0.044562716 0.70599997 -0.012378532 8.5601287e-39 284 250
-0.043202132 0.704 -0.012343466 7.9147593e-39 285 250
-0.041908171 0.70300001 -0.012325933 6.9042031e-39 286 250
-0.040559858 0.70099998 -0.012290866 6.535422e-39 287 250
-0.039274666 0.69999999 -0.012273333 5.8907715e-39 288 250
-0.037938625 0.69800001 -0.012238266 5.3375977e-39 289 250
-0.0367148 0.69800001 -0.012238266 4.5096349e-39 290 250
-0.035440128 0.69700003 -0.012220734 3.9564611e-39 291 250
-0.034168959 0.69599998 -0.0122032 3.6795239e-39 292 250
-0.032948639 0.69599998 -0.0122032 3.7717195e-39 293 250
-0.031637147 0.69400001 -0.012168133 3.68097e-39 294 250
-0.030420333 0.69400001 -0.012168133 4.2341424e-39 295 250
-0.029203519 0.69400001 -0.012168133 4.6032823e-39 296 250
-0.027946379 0.69300002 -0.012150601 4.9717047e-39 297 250
-0.02673132 0.69300002 -0.012150601 5.4315982e-39 298 250
-0.02551626 0.69300002 -0.012150601 5.4315982e-39 299 250
-0.024231065 0.69099998 -0.012115533 5.7081809e-39 300 250
-0.023019511 0.69099998 -0.012115533 5.8003765e-39 301 250
-0.021871079 0.69300002 -0.012150601 5.983686e-39 302 250
-0.020596405 0.69099998 -0.012115533 5.7996548e-39 303 250
-0.019384852 0.69099998 -0.012115533 5.7985787e-39 304 250
-0.018146999 0.69 -0.012097999 6.0751655e-39 305 250
-0.0169372 0.69 -0.012097999 6.2613519e-39 306 250
-0.015681813 0.68800002 -0.012062933 6.0773207e-39 307 250
-0.014475521 0.68800002 -0.012062933 5.8904057e-39 308 250
-0.013249939 0.68699998 -0.012045399 6.2588281e-39 309 250
-0.012045399 0.68699998 -0.012045399 6.078034e-39 310 250
-0.010840859 0.68699998 -0.012045399 5.8014457e-39 311 250
-0.0096363192 0.68699998 -0.012045399 6.1666325e-39 312 250
-0.0084317802 0.68699998 -0.012045399 6.1666325e-39 313 250
-0.0072272392 0.68699998 -0.012045399 5.8929225e-39 314 250
-0.0060314666 0.68800002 -0.012062933 5.8007268e-39 315 250
-0.0048251734 0.68800002 -0.012062933 5.8904085e-39 316 250
-0.0036188802 0.68800002 -0.012062933 5.7056571e-39 317 250
-0.0024125867 0.68800002 -0.012062933 5.3376033e-39 318 250
-0.0012062934 0.68800002 -0.012062933 5.5219946e-39 319 250
0 0.69 -0.012097999 5.3390466e-39 320 250
0.0012097999 0.69 -0.012097999 5.4312423e-39 321 250
0.0024231065 0.69099998 -0.012115533 5.7982227e-39 322 250
0.0036346598 0.69099998 -0.012115533 5.7060271e-39 323 250
0.0048462129 0.69099998 -0.012115533 5.7975039e-39 324 250
0.0060753003 0.69300002 -0.012150601 5.7975039e-39 325 250
0.0072903596 0.69300002 -0.012150601 5.7060271e-39 326 250
0.0085176928 0.69400001 -0.012168133 5.7982227e-39 327 250
0.0097345067 0.69400001 -0.012168133 5.7060271e-39 328 250
0.01095132 0.69400001 -0.012168133 5.7060271e-39 329 250
0.0122032 0.69599998 -0.0122032 5.5227176e-39 330 250
0.013442807 0.69700003 -0.012220734 5.6149133e-39 331 250
0.014727999 0.69999999 -0.012273333 5.7071089e-39 332 250
0.016023712 0.70300001 -0.012325933 5.7993045e-39 333 250
0.017256306 0.70300001 -0.012325933 5.9833385e-39 334 250
0.018515198 0.704 -0.012343466 5.9833385e-39 335 250
0.019805651 0.70599997 -0.012378532 5.8003891e-39 336 250
0.021043506 0.70599997 -0.012378532 6.2617274e-39 337 250
0.022312919 0.70700002 -0.012396066 6.7227028e-39 338 250
0.023552528 0.70700002 -0.012396066 6.6305071e-39 339 250
0.024792133 0.70700002 -0.012396066 8.1027435e-39 340 250
0.026068559 0.708 -0.0124136 1.3727037e-38 341 250
0.027387066 0.70999998 -0.012448666 1.538763e-38 342 250
-0.076813534 0.67400002 -0.012999214 9.6762083e-39 255 251
-0.075407356 0.67199999 -0.012960639 6.3463574e-39 256 251
-0.074229114 0.67199999 -0.012960639 6.0701307e-39 257 251
-0.073050871 0.67199999 -0.012960639 5.5198408e-39 258 251
-0.071765684 0.671 -0.012941353 5.3354495e-39 259 251
-0.0705892 0.671 -0.012941353 4.7844435e-39 260 251
-0.069412716 0.671 -0.012941353 4.8766392e-39 261 251
-0.068236224 0.671 -0.012941353 4.2302034e-39 262 251
-0.066959806 0.67000002 -0.012922067 3.1234957e-39 263 251
-0.065785065 0.67000002 -0.012922067 6.9150422e-39 264 251
-0.0502856 0.71700001 -0.013828539 1.5389448e-38 280 251
-0.048823316 0.71399999 -0.01377068 1.2992001e-38 281 251
-0.047571439 0.71399999 -0.01377068 9.7586747e-39 282 251
-0.046124939 0.71100003 -0.01371282 8.8367184e-39 283 251
-0.044688959 0.708 -0.013654959 8.3768193e-39 284 251
-0.043324865 0.70599997 -0.013616386 7.8236455e-39 285 251
-0.041967787 0.704 -0.013577812 6.9960428e-39 286 251
-0.040675577 0.70300001 -0.013558527 6.6276205e-39 287 251
-0.039330769 0.70099998 -0.013519952 5.707462e-39 288 251
-0.038047329 0.69999999 -0.013500666 5.3383194e-39 289 251
-0.0367148 0.69800001 -0.013462093 4.5096377e-39 290 251
-0.035440128 0.69700003 -0.013442807 3.9564639e-39 291 251
-0.034218054 0.69700003 -0.013442807 3.6795211e-39 292 251
-0.03299598 0.69700003 -0.013442807 3.6795211e-39 293 251
-0.031728316 0.69599998 -0.013423519 3.680247e-39 294 251
-0.030507999 0.69599998 -0.013423519 4.3256164e-39 295 251
-0.029203519 0.69400001 -0.013384946 4.7865945e-39 296 251
-0.027986705 0.69400001 -0.013384946 5.1553756e-39 297 251
-0.02673132 0.69300002 -0.01336566 5.6149105e-39 298 251
-0.02551626 0.69300002 -0.01336566 5.6149105e-39 299 251
-0.024231065 0.69099998 -0.013327086 5.7081781e-39 300 251
-0.023019511 0.69099998 -0.013327086 5.8925693e-39 301 251
-0.021871079 0.69300002 -0.01336566 5.8007296e-39 302 251
-0.020656019 0.69300002 -0.01336566 5.7081753e-39 303 251
-0.019384852 0.69099998 -0.013327086 5.7060243e-39 304 251
-0.0181733 0.69099998 -0.013327086 5.9829699e-39 305 251
-0.0169372 0.69 -0.0133078 6.3535503e-39 306 251
-0.015727401 0.69 -0.0133078 6.3535503e-39 307 251
-0.014475521 0.68800002 -0.013269227 5.798573e-39 308 251
-0.013269227 0.68800002 -0.013269227 5.8911274e-39 309 251
-0.012062933 0.68800002 -0.013269227 5.9858412e-39 310 251
-0.010856641 0.68800002 -0.013269227 5.8014485e-39 311 251
-0.0096503468 0.68800002 -0.013269227 6.1666353e-39 312 251
-0.0084440531 0.68800002 -0.013269227 6.1666353e-39 313 251
-0.0072377604 0.68800002 -0.013269227 5.9840419e-39 314 251
-0.0060314666 0.68800002 -0.013269227 5.8000108e-39 315 251
-0.0048251734 0.68800002 -0.013269227 5.797857e-39 316 251
-0.0036188802 0.68800002 -0.013269227 5.6134643e-39 317 251
-0.0024195998 0.69 -0.0133078 5.1539323e-39 318 251
-0.0012097999 0.69 -0.0133078 5.3383222e-39 319 251
0 0.69 -0.0133078 5.2468496e-39 320 251
0.0012115532 0.69099998 -0.013327086 5.2468496e-39 321 251
0.0024231065 0.69099998 -0.013327086 5.7053068e-39 322 251
0.0036451798 0.69300002 -0.01336566 5.7053068e-39 323 251
0.00486024 0.69300002 -0.01336566 5.7975067e-39 324 251
0.0060753003 0.69300002 -0.01336566 5.7053096e-39 325 251
0.0072903596 0.69300002 -0.01336566 5.7060271e-39 326 251
0.0085176928 0.69400001 -0.013384946 5.7982227e-39 327 251
0.0097345067 0.69400001 -0.013384946 5.6149077e-39 328 251
0.010982879 0.69599998 -0.013423519 5.522712e-39 329 251
0.012220734 0.69700003 -0.013442807 5.4305178e-39 330 251
0.013462093 0.69800001 -0.013462093 5.5227148e-39 331 251
0.014749039 0.70099998 -0.013519952 5.7982255e-39 332 251
0.016023712 0.70300001 -0.013558527 5.9826168e-39 333 251
0.017280852 0.704 -0.013577812 5.7078278e-39 334 251
0.018567799 0.70599997 -0.013616386 5.892219e-39 335 251
0.019805651 0.70599997 -0.013616386 5.8929421e-39 336 251
0.021073313 0.70700002 -0.013635674 6.169529e-39 337 251
0.022312919 0.70700002 -0.013635674 6.9985638e-39 338 251
0.023585839 0.708 -0.013654959 6.9985638e-39 339 251
0.024827199 0.708 -0.013654959 8.6551956e-39 340 251
0.026068559 0.708 -0.013654959 1.4463519e-38 341 251
0.027309919 0.708 -0.013654959 1.5572745e-38 342 251
0.02855128 0.708 -0.013654959 1.6218114e-38 343 251
-0.076813534 0.67400002 -0.01418096 1.2990213e-38 255 252
-0.07563179 0.67400002 -0.01418096 9.1075628e-39 256 252
-0.074229114 0.67199999 -0.01413888 7.909021e-39 257 252
-0.073050871 0.67199999 -0.01413888 5.8897023e-39 258 252
-0.071872637 0.67199999 -0.01413888 5.5205596e-39 259 252
-0.0705892 0.671 -0.01411784 5.1539379e-39 260 252
-0.069412716 0.671 -0.01411784 5.0613836e-39 261 252
-0.068236224 0.671 -0.01411784 4.7833701e-39 262 252
-0.06705974 0.671 -0.01411784 2.8472619e-39 263 252
-0.065883249 0.671 -0.01411784 4.5150803e-39 264 252
-0.0502856 0.71700001 -0.015085679 1.5757874e-38 280 252
-0.048823316 0.71399999 -0.015022559 1.3637374e-38 281 252
-0.047571439 0.71399999 -0.015022559 1.0036711e-38 282 252
-0.046124939 0.71100003 -0.014959441 8.7459717e-39 283 252
-0.044815198 0.70999998 -0.014938398 8.8367184e-39 284 252
-0.043324865 0.70599997 -0.014854239 8.0991534e-39 285 252
-0.042087011 0.70599997 -0.014854239 7.4559364e-39 286 252
-0.040675577 0.70300001 -0.014791119 6.810567e-39 287 252
-0.039330769 0.70099998 -0.014749039 6.1666353e-39 288 252
-0.038047329 0.69999999 -0.014727999 5.6134615e-39 289 252
-0.036819998 0.69999999 -0.014727999 4.9680921e-39 290 252
-0.035490975 0.69800001 -0.01468592 4.4149197e-39 291 252
-0.034267146 0.69800001 -0.01468592 3.8631935e-39 292 252
-0.03299598 0.69700003 -0.01466488 3.7709979e-39 293 252
-0.031728316 0.69599998 -0.014643839 3.588773e-39 294 252
-0.030507999 0.69599998 -0.014643839 3.9579157e-39 295 252
-0.029287677 0.69599998 -0.014643839 4.5107335e-39 296 252
-0.027986705 0.69400001 -0.01460176 4.8791559e-39 297 252
-0.026769891 0.69400001 -0.01460176 5.3401214e-39 298 252
-0.02551626 0.69300002 -0.014580719 5.5245127e-39 299 252
-0.024301201 0.69300002 -0.014580719 5.4333891e-39 300 252
-0.02308614 0.69300002 -0.014580719 5.5255847e-39 301 252
-0.021871079 0.69300002 -0.014580719 5.7074564e-39 302 252
-0.020656019 0.69300002 -0.014580719 5.7074564e-39 303 252
-0.019384852 0.69099998 -0.014538639 5.5227148e-39 304 252
-0.0181733 0.69099998 -0.014538639 5.7071061e-39 305 252
-0.016961746 0.69099998 -0.014538639 6.1698849e-39 306 252
-0.015727401 0.69 -0.014517599 5.9851349e-39 307 252
-0.014517599 0.69 -0.014517599 5.7978598e-39 308 252
-0.013269227 0.68800002 -0.014475521 5.8900554e-39 309 252
-0.012062933 0.68800002 -0.014475521 5.8925721e-39 310 252
-0.010856641 0.68800002 -0.014475521 5.8003765e-39 311 252
-0.0096503468 0.68800002 -0.014475521 6.3503105e-39 312 252
-0.0084440531 0.68800002 -0.014475521 6.3503105e-39 313 252
-0.0072587994 0.69 -0.014517599 5.8911274e-39 314 252
-0.0060314666 0.68800002 -0.014475521 5.798573e-39 315 252
-0.0048251734 0.68800002 -0.014475521 5.7056628e-39 316 252
-0.0036293997 0.69 -0.014517599 5.5209128e-39 317 252
-0.0024195998 0.69 -0.014517599 5.2450545e-39 318 252
-0.0012097999 0.69 -0.014517599 5.3372502e-39 319 252
0 0.69099998 -0.014538639 5.0621052e-39 320 252
0.0012115532 0.69099998 -0.014538639 5.1543009e-39 321 252
0.00243012 0.69300002 -0.014580719 5.4301619e-39 322 252
0.0036451798 0.69300002 -0.014580719 5.4301619e-39 323 252
0.00486024 0.69300002 -0.014580719 5.7060299e-39 324 252
0.0060840664 0.69400001 -0.01460176 5.5219974e-39 325 252
0.0073008798 0.69400001 -0.01460176 5.3394026e-39 326 252
0.0085422397 0.69599998 -0.014643839 5.4315982e-39 327 252
0.0097625591 0.69599998 -0.014643839 5.5227148e-39 328 252
0.01099866 0.69700003 -0.01466488 5.4305178e-39 329 252
0.012238266 0.69800001 -0.01468592 5.5227176e-39 330 252
0.013500666 0.69999999 -0.014727999 5.4301619e-39 331 252
0.014791119 0.70300001 -0.014791119 5.6149133e-39 332 252
0.016023712 0.70300001 -0.014791119 5.7993045e-39 333 252
0.017280852 0.704 -0.014812159 5.4341177e-39 334 252
0.018567799 0.70599997 -0.014854239 5.4341177e-39 335 252
0.019805651 0.70599997 -0.014854239 5.8014723e-39 336 252
0.021073313 0.70700002 -0.01487528 6.2624491e-39 337 252
0.022344479 0.708 -0.01489632 6.3567971e-39 338 252
0.023585839 0.708 -0.01489632 6.6330239e-39 339 252
0.024827199 0.708 -0.01489632 9.3902453e-39 340 252
0.026068559 0.708 -0.01489632 1.5382961e-38 341 252
0.027309919 0.708 -0.01489632 1.5481997e-38 342 252
0.033188846 0.82300001 -0.01731592 1.5758225e-38 343 252
-0.076927498 0.67500001 -0.0153855 1.3247366e-38 255 253
-0.07563179 0.67400002 -0.015362706 1.1039337e-38 256 253
-0.074450038 0.67400002 -0.015362706 9.9329893e-39 257 253
-0.073268294 0.67400002 -0.015362706 6.9935261e-39 258 253
-0.071872637 0.67199999 -0.01531712 6.7169378e-39 259 253
-0.070694394 0.67199999 -0.01531712 5.2446986e-39 260 253
-0.069516152 0.67199999 -0.01531712 5.4294486e-39 261 253
-0.068337917 0.67199999 -0.01531712 5.2447014e-39 262 253
-0.067159683 0.67199999 -0.01531712 4.599332e-39 263 253
-0.06598144 0.67199999 -0.01531712 2.4846101e-39 264 253
-0.0502856 0.71700001 -0.016342819 1.5942266e-38 280 253
-0.048960082 0.71600002 -0.016320027 1.4098353e-38 281 253
-0.047571439 0.71399999 -0.016274439 1.0314372e-38 282 253
-0.046254687 0.713 -0.016251646 8.8392422e-39 283 253
-0.044815198 0.70999998 -0.016183265 8.6526929e-39 284 253
-0.043386232 0.70700002 -0.016114887 8.1917162e-39 285 253
-0.042087011 0.70599997 -0.016092092 7.0882455e-39 286 253
-0.040733438 0.704 -0.016046507 6.8112985e-39 287 253
-0.039442986 0.70300001 -0.016023712 5.8904184e-39 288 253
-0.038101684 0.70099998 -0.015978126 5.4297989e-39 289 253
-0.036872596 0.70099998 -0.015978126 4.6018361e-39 290 253
-0.035592664 0.69999999 -0.015955333 3.9564667e-39 291 253
-0.034267146 0.69800001 -0.015909746 3.7709979e-39 292 253
