# .PCD v.7 - Point Cloud Data file format
FIELDS x y z rgb imX imY
SIZE 4 4 4 4 4 4
TYPE F F F F F F
COUNT 1 1 1 1 1 1
WIDTH 841
HEIGHT 1
VIEWPOINT 0 0 0 1 0 0 0
POINTS 841
DATA ascii
0.035987165 0.82099998 0.015834354 1.558069e-38 345 229
0.037335481 0.81900001 0.015795778 1.7881964e-38 346 229
0.038771462 0.81900001 0.015795778 1.8343302e-38 347 229
0.040305622 0.82099998 0.015834354 1.889179e-38 348 229
0.041745111 0.82099998 0.015834354 1.8614845e-38 349 229
0.043184597 0.82099998 0.015834354 1.7419544e-38 350 229
0.044624086 0.82099998 0.015834354 1.6497588e-38 351 229
0.046063572 0.82099998 0.015834354 1.5388366e-38 352 229
0.047503054 0.82099998 0.015834354 1.2899084e-38 353 229
0.048942544 0.82099998 0.015834354 9.5865126e-39 354 229
0.050382029 0.82099998 0.015834354 7.5582073e-39 355 229
0.051821519 0.82099998 0.015834354 5.7135927e-39 356 229
0.053390753 0.82300001 0.015872927 4.5150495e-39 357 229
0.054833744 0.82300001 0.015872927 3.9662114e-39 358 229
0.02584764 0.81900001 0.0143598 1.4014442e-38 338 230
0.027283618 0.81900001 0.0143598 1.3184681e-38 339 230
0.028789733 0.82099998 0.014394866 1.2357812e-38 340 230
0.030155579 0.81900001 0.0143598 1.2541843e-38 341 230
0.031591557 0.81900001 0.0143598 1.3831144e-38 342 230
0.033027537 0.81900001 0.0143598 1.4845294e-38 343 230
0.034463517 0.81900001 0.0143598 1.7050414e-38 344 230
0.035899501 0.81900001 0.0143598 1.7695783e-38 345 230
0.037335481 0.81900001 0.0143598 1.7879799e-38 346 230
0.038771462 0.81900001 0.0143598 1.7511018e-38 347 230
0.040207438 0.81900001 0.0143598 1.6775254e-38 348 230
0.041643418 0.81900001 0.0143598 1.6037689e-38 349 230
0.043184597 0.82099998 0.014394866 1.4750559e-38 350 230
0.044624086 0.82099998 0.014394866 1.3920799e-38 351 230
0.046063572 0.82099998 0.014394866 1.3275079e-38 352 230
0.047503054 0.82099998 0.014394866 1.2168732e-38 353 230
0.048942544 0.82099998 0.014394866 1.0970909e-38 354 230
0.050504766 0.82300001 0.014429933 1.0418094e-38 355 230
0.051947758 0.82300001 0.014429933 9.8652827e-39 356 230
0.022975679 0.81900001 0.01292382 1.5023919e-38 336 231
0.02441166 0.81900001 0.01292382 1.45633e-38 337 231
0.02584764 0.81900001 0.01292382 1.2633675e-38 338 231
0.027283618 0.81900001 0.01292382 1.2080502e-38 339 231
0.0287196 0.81900001 0.01292382 1.2539312e-38 340 231
0.030155579 0.81900001 0.01292382 1.3922246e-38 341 231
0.031591557 0.81900001 0.01292382 1.6314289e-38 342 231
0.033027537 0.81900001 0.01292382 1.7512831e-38 343 231
0.034463517 0.81900001 0.01292382 1.7971642e-38 344 231
0.035899501 0.81900001 0.01292382 1.7510665e-38 345 231
0.037335481 0.81900001 0.01292382 1.6865651e-38 346 231
0.038771462 0.81900001 0.01292382 1.6220282e-38 347 231
0.040207438 0.81900001 0.01292382 1.4933872e-38 348 231
0.041643418 0.81900001 0.01292382 1.4196307e-38 349 231
0.043184597 0.82099998 0.01295538 1.3092133e-38 350 231
0.044624086 0.82099998 0.01295538 1.2354568e-38 351 231
0.046063572 0.82099998 0.01295538 1.1618091e-38 352 231
0.047503054 0.82099998 0.01295538 1.1157473e-38 353 231
0.048942544 0.82099998 0.01295538 1.1431179e-38 354 231
0.01995644 0.81300002 0.01140368 1.4195238e-38 334 232
0.0213819 0.81300002 0.01140368 1.3642064e-38 335 232
0.022863466 0.815 0.011431733 1.2814467e-38 336 232
0.024352046 0.81699997 0.011459786 1.2630075e-38 337 232
0.025784519 0.81699997 0.011459786 1.2173417e-38 338 232
0.027216991 0.81699997 0.011459786 1.3556352e-38 339 232
0.028649466 0.81699997 0.011459786 1.6497605e-38 340 232
0.030155579 0.81900001 0.01148784 1.723517e-38 341 232
0.031591557 0.81900001 0.01148784 1.759855e-38 342 232
0.033027537 0.81900001 0.01148784 1.7229407e-38 343 232
0.034463517 0.81900001 0.01148784 1.5852591e-38 344 232
0.035899501 0.81900001 0.01148784 1.5391613e-38 345 232
0.037335481 0.81900001 0.01148784 1.4654767e-38 346 232
0.038771462 0.81900001 0.01148784 1.4009397e-38 347 232
0.040207438 0.81900001 0.01148784 1.2722624e-38 348 232
0.041643418 0.81900001 0.01148784 1.1985059e-38 349 232
0.043184597 0.82099998 0.011515893 1.1247867e-38 350 232
0.044624086 0.82099998 0.011515893 1.1247867e-38 351 232
0.046063572 0.82099998 0.011515893 1.1432984e-38 352 232
0.047503054 0.82099998 0.011515893 1.1340788e-38 353 232
0.049896359 0.83700001 0.011740319 1.1340788e-38 354 232
0.01853098 0.81300002 0.0099782199 1.4104843e-38 333 233
0.01995644 0.81300002 0.0099782199 1.3275095e-38 334 233
0.0213819 0.81300002 0.0099782199 1.2814116e-38 335 233
0.02280736 0.81300002 0.0099782199 1.2906667e-38 336 233
0.024292432 0.815 0.010002766 1.3275448e-38 337 233
0.025721399 0.815 0.010002766 1.4195959e-38 338 233
0.027216991 0.81699997 0.010027313 1.5117915e-38 339 233
0.028649466 0.81699997 0.010027313 1.7049339e-38 340 233
0.030081939 0.81699997 0.010027313 1.6864948e-38 341 233
0.03151441 0.81699997 0.010027313 1.6496161e-38 342 233
0.032946885 0.81699997 0.010027313 1.5850792e-38 343 233
0.034463517 0.81900001 0.01005186 1.4472902e-38 344 233
0.035899501 0.81900001 0.01005186 1.4195956e-38 345 233
0.037335481 0.81900001 0.01005186 1.3459117e-38 346 233
0.038771462 0.81900001 0.01005186 1.2998138e-38 347 233
0.040207438 0.81900001 0.01005186 1.1617728e-38 348 233
0.041643418 0.81900001 0.01005186 1.115639e-38 349 233
0.043184597 0.82099998 0.010076405 1.133863e-38 350 233
0.044732794 0.82300001 0.010100953 1.1431185e-38 351 233
0.046849065 0.83499998 0.010248233 1.1340788e-38 352 233
0.048313096 0.83499998 0.010248233 1.1340788e-38 353 233
0.01710552 0.81300002 0.0085527599 1.2263464e-38 332 234
0.01853098 0.81300002 0.0085527599 1.2263464e-38 333 234
0.01995644 0.81300002 0.0085527599 1.2447856e-38 334 234
0.0213819 0.81300002 0.0085527599 1.2724442e-38 335 234
0.02280736 0.81300002 0.0085527599 1.4195959e-38 336 234
0.024292432 0.815 0.0085737994 1.502572e-38 337 234
0.025721399 0.815 0.0085737994 1.6129181e-38 338 234
0.027150365 0.815 0.0085737994 1.5944431e-38 339 234
0.028649466 0.81699997 0.0085948398 1.5576007e-38 340 234
0.030081939 0.81699997 0.0085948398 1.5022473e-38 341 234
0.03151441 0.81699997 0.0085948398 1.4103764e-38 342 234
0.032946885 0.81699997 0.0085948398 1.3734981e-38 343 234
0.034379359 0.81699997 0.0085948398 1.2815193e-38 344 234
0.035899501 0.81900001 0.0086158793 1.244641e-38 345 234
0.037335481 0.81900001 0.0086158793 1.1891438e-38 346 234
0.038771462 0.81900001 0.0086158793 1.143046e-38 347 234
0.040207438 0.81900001 0.0086158793 1.1155671e-38 348 234
0.041643418 0.81900001 0.0086158793 1.1524454e-38 349 234
0.043184597 0.82099998 0.0086369189 1.1708126e-38 350 234
0.045385033 0.83499998 0.0087841991 1.1708126e-38 351 234
0.046849065 0.83499998 0.0087841991 1.1340062e-38 352 234
0.015641484 0.81099999 0.0071097664 1.2723367e-38 331 235
0.017063441 0.81099999 0.0071097664 1.2906685e-38 332 235
0.01853098 0.81300002 0.0071272999 1.2906685e-38 333 235
0.01995644 0.81300002 0.0071272999 1.3459486e-38 334 235
0.0213819 0.81300002 0.0071272999 1.3643878e-38 335 235
0.02280736 0.81300002 0.0071272999 1.4472899e-38 336 235
0.024292432 0.815 0.007144833 1.4933877e-38 337 235
0.025721399 0.815 0.007144833 1.4842032e-38 338 235
0.027150365 0.815 0.007144833 1.4565447e-38 339 235
0.028579332 0.815 0.007144833 1.4564013e-38 340 235
0.030081939 0.81699997 0.0071623665 1.4103395e-38 341 235
0.03151441 0.81699997 0.0071623665 1.3184331e-38 342 235
0.032946885 0.81699997 0.0071623665 1.281519e-38 343 235
0.034379359 0.81699997 0.0071623665 1.2261663e-38 344 235
0.035899501 0.81900001 0.0071799001 1.1893239e-38 345 235
0.037335481 0.81900001 0.0071799001 1.1523378e-38 346 235
0.038771462 0.81900001 0.0071799001 1.1338986e-38 347 235
0.040207438 0.81900001 0.0071799001 1.1523378e-38 348 235
0.041643418 0.81900001 0.0071799001 1.1431182e-38 349 235
0.014219533 0.81099999 0.0056878133 1.2446428e-38 330 236
0.015641484 0.81099999 0.0056878133 1.2630821e-38 331 236
0.017063441 0.81099999 0.0056878133 1.2998512e-38 332 236
0.01853098 0.81300002 0.0057018399 1.3459489e-38 333 236
0.01995644 0.81300002 0.0057018399 1.401301e-38 334 236
0.0213819 0.81300002 0.0057018399 1.4197401e-38 335 236
0.02280736 0.81300002 0.0057018399 1.4472899e-38 336 236
0.024292432 0.815 0.0057158666 1.4472899e-38 337 236
0.025721399 0.815 0.0057158666 1.4288508e-38 338 236
0.027150365 0.815 0.0057158666 1.382753e-38 339 236
0.028579332 0.815 0.0057158666 1.3275442e-38 340 236
0.030008299 0.815 0.0057158666 1.2814823e-38 341 236
0.03151441 0.81699997 0.0057298928 1.1986152e-38 342 236
0.033027537 0.81900001 0.0057439199 1.1525533e-38 343 236
0.034463517 0.81900001 0.0057439199 1.1340062e-38 344 236
0.035899501 0.81900001 0.0057439199 1.1247867e-38 345 236
0.037335481 0.81900001 0.0057439199 1.1523733e-38 346 236
0.038771462 0.81900001 0.0057439199 1.1523733e-38 347 236
0.040305622 0.82099998 0.0057579465 1.1338986e-38 348 236
0.0085317204 0.81099999 0.0042658602 1.1436599e-38 326 237
0.009953673 0.81099999 0.0042658602 1.0883426e-38 327 237
0.011375627 0.81099999 0.0042658602 1.1157489e-38 328 237
0.012766019 0.80900002 0.00425534 1.1434076e-38 329 237
0.014184467 0.80900002 0.00425534 1.2447859e-38 330 237
0.015641484 0.81099999 0.0042658602 1.2908836e-38 331 237
0.017063441 0.81099999 0.0042658602 1.3184694e-38 332 237
0.01853098 0.81300002 0.0042763799 1.3276891e-38 333 237
0.01995644 0.81300002 0.0042763799 1.3736783e-38 334 237
0.0213819 0.81300002 0.0042763799 1.3920814e-38 335 237
0.02280736 0.81300002 0.0042763799 1.373678e-38 336 237
0.02423282 0.81300002 0.0042763799 1.3552388e-38 337 237
0.02565828 0.81300002 0.0042763799 1.3092851e-38 338 237
0.027150365 0.815 0.0042868997 1.2539678e-38 339 237
0.028579332 0.815 0.0042868997 1.2261653e-38 340 237
0.030008299 0.815 0.0042868997 1.1708479e-38 341 237
0.03151441 0.81699997 0.0042974199 1.1524454e-38 342 237
0.033027537 0.81900001 0.0043079397 1.1340062e-38 343 237
0.034463517 0.81900001 0.0043079397 1.1523378e-38 344 237
0.035899501 0.81900001 0.0043079397 1.1431182e-38 345 237
0.037426651 0.82099998 0.0043184594 1.1523378e-38 346 237
0.0042448197 0.80699998 0.0028298798 1.3811226e-39 323 238
0.0056737866 0.80900002 0.0028368933 1.0096355e-41 324 238
0.0070922333 0.80900002 0.0028368933 4.4380061e-39 325 238
0.0085106799 0.80900002 0.0028368933 1.0054028e-38 326 238
0.0099291261 0.80900002 0.0028368933 1.0883788e-38 327 238
0.011347573 0.80900002 0.0028368933 1.1524454e-38 328 238
0.012766019 0.80900002 0.0028368933 1.1616649e-38 329 238
0.014184467 0.80900002 0.0028368933 1.2907385e-38 330 238
0.015602913 0.80900002 0.0028368933 1.3552755e-38 331 238
0.01702136 0.80900002 0.0028368933 1.3369087e-38 332 238
0.018485393 0.81099999 0.0028439066 1.3276891e-38 333 238
0.019907346 0.81099999 0.0028439066 1.3460558e-38 334 238
0.0213819 0.81300002 0.00285092 1.3460558e-38 335 238
0.02280736 0.81300002 0.00285092 1.3276524e-38 336 238
0.02423282 0.81300002 0.00285092 1.2999937e-38 337 238
0.02565828 0.81300002 0.00285092 1.2632229e-38 338 238
0.027150365 0.815 0.0028579333 1.1894305e-38 339 238
0.028579332 0.815 0.0028579333 1.1433331e-38 340 238
0.030081939 0.81699997 0.0028649464 1.1156743e-38 341 238
0.03151441 0.81699997 0.0028649464 1.1339339e-38 342 238
0.03310819 0.82099998 0.0028789733 1.1431535e-38 343 238
0.034547675 0.82099998 0.0028789733 1.1523378e-38 344 238
0.036074832 0.82300001 0.0028859866 1.1431182e-38 345 238
0.0014149399 0.80699998 0.0014149399 2.7662192e-39 321 239
0.0028298798 0.80699998 0.0014149399 2.1205051e-39 322 239
0.0042448197 0.80699998 0.0014149399 1.4751357e-39 323 239
0.0056737866 0.80900002 0.0014184467 3.267828e-42 324 239
0.0070922333 0.80900002 0.0014184467 1.9054016e-40 325 239
0.0085106799 0.80900002 0.0014184467 5.7276729e-39 326 239
0.0099291261 0.80900002 0.0014184467 1.1904421e-38 327 239
0.011347573 0.80900002 0.0014184467 1.4104136e-38 328 239
0.012766019 0.80900002 0.0014184467 1.3274376e-38 329 239
0.014184467 0.80900002 0.0014184467 1.2908818e-38 330 239
0.015602913 0.80900002 0.0014184467 1.3185044e-38 331 239
0.01702136 0.80900002 0.0014184467 1.3276524e-38 332 239
0.018485393 0.81099999 0.0014219533 1.3184328e-38 333 239
0.019907346 0.81099999 0.0014219533 1.3184331e-38 334 239
0.021329299 0.81099999 0.0014219533 1.281519e-38 335 239
0.022751253 0.81099999 0.0014219533 1.244641e-38 336 239
0.02423282 0.81300002 0.00142546 1.1985432e-38 337 239
0.02565828 0.81300002 0.00142546 1.1340062e-38 338 239
0.027150365 0.815 0.0014289666 1.097128e-38 339 239
0.028579332 0.815 0.0014289666 1.1523733e-38 340 239
0.030081939 0.81699997 0.0014324732 1.1523733e-38 341 239
0.031668708 0.82099998 0.0014394866 1.1431179e-38 342 239
0.033188846 0.82300001 0.0014429933 1.1523733e-38 343 239
0.034715999 0.82499999 0.0014465 1.1613775e-38 344 239
0 0.80500001 -0 2.8602323e-39 320 240
0.0014149399 0.80699998 -0 2.7680367e-39 321 240
0.0028298798 0.80699998 -0 2.3956767e-39 322 240
0.0042448197 0.80699998 -0 2.0272529e-39 323 240
0.0056597595 0.80699998 -0 1.5655489e-39 324 240
0.0070746993 0.80699998 -0 8.2762509e-40 325 240
0.0085106799 0.80900002 -0 1.584308e-41 326 240
0.0099291261 0.80900002 -0 8.6829526e-39 327 240
0.011347573 0.80900002 -0 1.4197421e-38 328 240
0.012766019 0.80900002 -0 1.3736443e-38 329 240
0.014219533 0.81099999 -0 1.3276527e-38 330 240
0.015641484 0.81099999 -0 1.3184331e-38 331 240
0.017063441 0.81099999 -0 1.2816634e-38 332 240
0.018485393 0.81099999 -0 1.2724439e-38 333 240
0.019907346 0.81099999 -0 1.2355662e-38 334 240
0.021329299 0.81099999 -0 1.2078716e-38 335 240
0.022751253 0.81099999 -0 1.1985084e-38 336 240
0.02423282 0.81300002 -0 1.1708139e-38 337 240
0.02565828 0.81300002 -0 1.097093e-38 338 240
0.027150365 0.815 -0 1.1155321e-38 339 240
0.028649466 0.81699997 -0 1.1431179e-38 340 240
0.030229218 0.82099998 -0 1.1431179e-38 341 240
0.031900145 0.82700002 -0 1.1523731e-38 342 240
0.033430804 0.829 -0 1.1615928e-38 343 240
-0.0042343 0.80500001 -0.0014114333 3.4098118e-39 317 241
-0.0028228667 0.80500001 -0.0014114333 2.8602379e-39 318 241
-0.0014114333 0.80500001 -0.0014114333 2.5832923e-39 319 241
0 0.80500001 -0.0014114333 2.9481176e-39 320 241
0.0014114333 0.80500001 -0.0014114333 2.5789763e-39 321 241
0.0028228667 0.80500001 -0.0014114333 2.5786064e-39 322 241
0.0042343 0.80500001 -0.0014114333 2.762999e-39 323 241
0.0056457333 0.80500001 -0.0014114333 2.7654962e-39 324 241
0.0070746993 0.80699998 -0.0014149399 3.1342801e-39 325 241
0.0084896395 0.80699998 -0.0014149399 9.7166036e-42 326 241
0.0099045793 0.80699998 -0.0014149399 3.9759308e-39 327 241
0.011319519 0.80699998 -0.0014149399 1.042209e-38 328 241
0.012766019 0.80900002 -0.0014184467 1.2542591e-38 329 241
0.014184467 0.80900002 -0.0014184467 1.3459489e-38 330 241
0.015641484 0.81099999 -0.0014219533 1.3090707e-38 331 241
0.017063441 0.81099999 -0.0014219533 1.2814837e-38 332 241
0.018485393 0.81099999 -0.0014219533 1.2446413e-38 333 241
0.019907346 0.81099999 -0.0014219533 1.2261663e-38 334 241
0.021329299 0.81099999 -0.0014219533 1.1340065e-38 335 241
0.022751253 0.81099999 -0.0014219533 1.0970208e-38 336 241
0.02423282 0.81300002 -0.00142546 1.1154599e-38 337 241
0.02565828 0.81300002 -0.00142546 1.1338986e-38 338 241
0.027150365 0.815 -0.0014289666 1.1431182e-38 339 241
0.0287196 0.81900001 -0.00143598 1.1431535e-38 340 241
0.030450139 0.82700002 -0.0014500066 1.1431535e-38 341 241
-0.0056457333 0.80500001 -0.0028228667 2.3070642e-39 316 242
-0.0042343 0.80500001 -0.0028228667 2.4910967e-39 317 242
-0.0028228667 0.80500001 -0.0028228667 2.6726167e-39 318 242
-0.0014114333 0.80500001 -0.0028228667 2.3960298e-39 319 242
0 0.80500001 -0.0028228667 2.6693755e-39 320 242
0.0014114333 0.80500001 -0.0028228667 2.7615711e-39 321 242
0.0028228667 0.80500001 -0.0028228667 2.6718754e-39 322 242
0.0042343 0.80500001 -0.0028228667 2.8562667e-39 323 242
0.0056457333 0.80500001 -0.0028228667 3.041011e-39 324 242
0.0070571667 0.80500001 -0.0028228667 3.041011e-39 325 242
0.0084896395 0.80699998 -0.0028298798 9.2377659e-40 326 242
0.0099045793 0.80699998 -0.0028298798 1.384396e-39 327 242
0.011319519 0.80699998 -0.0028298798 4.99191e-39 328 242
0.01273446 0.80699998 -0.0028298798 9.9701139e-39 329 242
0.014184467 0.80900002 -0.0028368933 1.2908127e-38 330 242
0.015641484 0.81099999 -0.0028439066 1.2355312e-38 331 242
0.017063441 0.81099999 -0.0028439066 1.1802487e-38 332 242
0.018485393 0.81099999 -0.0028439066 1.1618094e-38 333 242
0.019907346 0.81099999 -0.0028439066 1.1524101e-38 334 242
0.021329299 0.81099999 -0.0028439066 1.1247514e-38 335 242
0.02280736 0.81300002 -0.00285092 1.1337911e-38 336 242
0.02423282 0.81300002 -0.00285092 1.1430466e-38 337 242
0.02565828 0.81300002 -0.00285092 1.1523015e-38 338 242
-0.0070746993 0.80699998 -0.0042448197 2.1208722e-39 315 243
-0.0056597595 0.80699998 -0.0042448197 2.2130679e-39 316 243
-0.0042343 0.80500001 -0.0042343 2.1208722e-39 317 243
-0.0028228667 0.80500001 -0.0042343 2.4857045e-39 318 243
-0.0014114333 0.80500001 -0.0042343 2.3935089e-39 319 243
0 0.80500001 -0.0042343 2.6697202e-39 320 243
0.0014114333 0.80500001 -0.0042343 2.8544702e-39 321 243
0.0028228667 0.80500001 -0.0042343 2.7644214e-39 322 243
0.0042343 0.80500001 -0.0042343 2.856617e-39 323 243
0.0056457333 0.80500001 -0.0042343 3.039216e-39 324 243
0.0070571667 0.80500001 -0.0042343 2.8548233e-39 325 243
0.0084686 0.80500001 -0.0042343 2.5782561e-39 326 243
0.0098800333 0.80500001 -0.0042343 7.0064923e-45 327 243
0.011319519 0.80699998 -0.0042448197 8.4238357e-40 328 243
0.01273446 0.80699998 -0.0042448197 7.8488927e-39 329 243
0.014184467 0.80900002 -0.00425534 1.1251852e-38 330 243
0.015641484 0.81099999 -0.0042658602 1.1344048e-38 331 243
0.017063441 0.81099999 -0.0042658602 1.1156767e-38 332 243
0.018485393 0.81099999 -0.0042658602 1.0880179e-38 333 243
0.019907346 0.81099999 -0.0042658602 1.1245719e-38 334 243
0.0213819 0.81300002 -0.0042763799 1.1337914e-38 335 243
0.02280736 0.81300002 -0.0042763799 1.1521577e-38 336 243
0.02423282 0.81300002 -0.0042763799 1.1706327e-38 337 243
-0.0071097664 0.81099999 -0.0056878133 2.0283067e-39 315 244
-0.0056597595 0.80699998 -0.0056597595 2.2116189e-39 316 244
-0.0042343 0.80500001 -0.0056457333 2.1194233e-39 317 244
-0.0028228667 0.80500001 -0.0056457333 2.0261557e-39 318 244
-0.0014114333 0.80500001 -0.0056457333 2.2105469e-39 319 244
0 0.80500001 -0.0056457333 2.762269e-39 320 244
0.0014114333 0.80500001 -0.0056457333 3.039216e-39 321 244
0.0028228667 0.80500001 -0.0056457333 3.0395691e-39 322 244
0.0042343 0.80500001 -0.0056457333 2.9473735e-39 323 244
0.0056457333 0.80500001 -0.0056457333 2.8548233e-39 324 244
0.0070571667 0.80500001 -0.0056457333 2.6700733e-39 325 244
0.0084686 0.80500001 -0.0056457333 2.3942151e-39 326 244
0.0098800333 0.80500001 -0.0056457333 1.0112807e-39 327 244
0.011291467 0.80500001 -0.0056457333 5.0698978e-42 328 244
0.012702899 0.80500001 -0.0056457333 4.7996028e-39 329 244
0.014114333 0.80500001 -0.0056457333 8.6743402e-39 330 244
0.015641484 0.81099999 -0.0056878133 9.965079e-39 331 244
0.017063441 0.81099999 -0.0056878133 1.1154249e-38 332 244
0.018485393 0.81099999 -0.0056878133 1.0877661e-38 333 244
0.019907346 0.81099999 -0.0056878133 1.0970208e-38 334 244
0.0213819 0.81300002 -0.0057018399 1.1154599e-38 335 244
0.02280736 0.81300002 -0.0057018399 1.1338983e-38 336 244
-0.0071097664 0.81099999 -0.0071097664 1.5680488e-39 315 245
-0.0056737866 0.80900002 -0.0070922333 1.8431937e-39 316 245
-0.0042343 0.80500001 -0.0070571667 1.8431937e-39 317 245
-0.0028228667 0.80500001 -0.0070571667 1.8431937e-39 318 245
-0.0014114333 0.80500001 -0.0070571667 2.1194205e-39 319 245
0 0.80500001 -0.0070571667 2.5789595e-39 320 245
0.0014114333 0.80500001 -0.0070571667 2.6711551e-39 321 245
0.0028228667 0.80500001 -0.0070571667 2.6718726e-39 322 245
0.0042343 0.80500001 -0.0070571667 2.5796756e-39 323 245
0.0056457333 0.80500001 -0.0070571667 2.4867639e-39 324 245
0.0070571667 0.80500001 -0.0070571667 2.3020139e-39 325 245
0.0084686 0.80500001 -0.0070571667 1.9346859e-39 326 245
0.0098800333 0.80500001 -0.0070571667 1.7502946e-39 327 245
0.011263412 0.80299997 -0.0070396326 9.5830598e-41 328 245
0.012671339 0.80299997 -0.0070396326 1.2940137e-39 329 245
0.014079265 0.80299997 -0.0070396326 4.9908268e-39 330 245
0.015487193 0.80299997 -0.0070396326 8.4942621e-39 331 245
-0.0056737866 0.80900002 -0.0085106799 1.7509939e-39 316 246
-0.0042343 0.80500001 -0.0084686 1.7509939e-39 317 246
-0.0028228667 0.80500001 -0.0084686 1.8428406e-39 318 246
-0.0014114333 0.80500001 -0.0084686 1.8428406e-39 319 246
0 0.80500001 -0.0084686 2.6693601e-39 320 246
0.0014114333 0.80500001 -0.0084686 2.7615557e-39 321 246
0.0028158531 0.80299997 -0.0084475596 2.4860422e-39 322 246
0.0042237798 0.80299997 -0.0084475596 2.3938466e-39 323 246
0.0056317062 0.80299997 -0.0084475596 2.0265088e-39 324 246
0.0070396326 0.80299997 -0.0084475596 2.0265088e-39 325 246
0.0084475596 0.80299997 -0.0084475596 1.7510079e-39 326 246
0.0098554865 0.80299997 -0.0084475596 1.7510079e-39 327 246
0.011263412 0.80299997 -0.0084475596 7.3938533e-40 328 246
0.012671339 0.80299997 -0.0084475596 1.1014206e-42 329 246
0.014079265 0.80299997 -0.0084475596 2.8692399e-39 330 246
0.015487193 0.80299997 -0.0084475596 7.8474438e-39 331 246
-0.0056737866 0.80900002 -0.0099291261 1.5658964e-39 316 247
-0.0042343 0.80500001 -0.0098800333 1.658092e-39 317 247
-0.0028228667 0.80500001 -0.0098800333 1.750289e-39 318 247
-0.0014114333 0.80500001 -0.0098800333 1.750289e-39 319 247
0 0.80500001 -0.0098800333 2.2087449e-39 320 247
0.0014114333 0.80500001 -0.0098800333 2.3934962e-39 321 247
0.0028158531 0.80299997 -0.0098554865 2.1183485e-39 322 247
0.0042237798 0.80299997 -0.0098554865 2.0261529e-39 323 247
0.0056317062 0.80299997 -0.0098554865 1.9339558e-39 324 247
0.0070396326 0.80299997 -0.0098554865 2.1183485e-39 325 247
0.0084475596 0.80299997 -0.0098554865 1.9350362e-39 326 247
0.0098554865 0.80299997 -0.0098554865 1.8428406e-39 327 247
0.011263412 0.80299997 -0.0098554865 1.2903857e-39 328 247
0.012671339 0.80299997 -0.0098554865 2.8025969e-45 329 247
0.014079265 0.80299997 -0.0098554865 2.8609512e-39 330 247
-0.0056737866 0.80900002 -0.011347573 1.6566501e-39 316 248
-0.0042343 0.80500001 -0.011291467 1.7488457e-39 317 248
-0.0028228667 0.80500001 -0.011291467 1.934309e-39 318 248
-0.0014114333 0.80500001 -0.011291467 1.934309e-39 319 248
0 0.80500001 -0.011291467 2.2094539e-39 320 248
0.0014114333 0.80500001 -0.011291467 2.3016509e-39 321 248
0.0028158531 0.80299997 -0.011263412 2.3016509e-39 322 248
0.0042237798 0.80299997 -0.011263412 2.3938466e-39 323 248
0.0056317062 0.80299997 -0.011263412 2.3945682e-39 324 248
0.0070396326 0.80299997 -0.011263412 2.3945682e-39 325 248
0.0084475596 0.80299997 -0.011263412 2.2116189e-39 326 248
0.0098554865 0.80299997 -0.011263412 1.9353922e-39 327 248
0.011263412 0.80299997 -0.011263412 2.1169024e-39 328 248
0.012671339 0.80299997 -0.011263412 1.1953062e-39 329 248
0.014079265 0.80299997 -0.011263412 3.4112383e-39 330 248
-0.0070746993 0.80699998 -0.01273446 1.2885836e-39 315 249
-0.0056597595 0.80699998 -0.01273446 1.2885878e-39 316 249
-0.0042343 0.80500001 -0.012702899 1.4729791e-39 317 249
-0.0028228667 0.80500001 -0.012702899 1.8413945e-39 318 249
-0.0014114333 0.80500001 -0.012702899 1.9335901e-39 319 249
0 0.80500001 -0.012702899 2.6686356e-39 320 249
0.0014114333 0.80500001 -0.012702899 2.9452211e-39 321 249
0.0028228667 0.80500001 -0.012702899 2.6715055e-39 322 249
0.0042343 0.80500001 -0.012702899 2.9480923e-39 323 249
0.0056317062 0.80299997 -0.012671339 3.2228814e-39 324 249
0.0070396326 0.80299997 -0.012671339 3.1306857e-39 325 249
0.0084475596 0.80299997 -0.012671339 2.7622718e-39 326 249
0.0098554865 0.80299997 -0.012671339 2.486045e-39 327 249
0.011263412 0.80299997 -0.012671339 2.3020167e-39 328 249
0.012671339 0.80299997 -0.012671339 1.8410385e-39 329 249
-0.0070571667 0.80500001 -0.014114333 1.0134317e-39 315 250
-0.0056457333 0.80500001 -0.014114333 1.196388e-39 316 250
-0.0042343 0.80500001 -0.014114333 1.2885836e-39 317 250
-0.0028228667 0.80500001 -0.014114333 1.7491988e-39 318 250
-0.0014079266 0.80299997 -0.014079265 1.9335901e-39 319 250
0 0.80299997 -0.014079265 3.0374139e-39 320 250
0.0014079266 0.80299997 -0.014079265 3.4983921e-39 321 250
0.0028228667 0.80500001 -0.014114333 3.9597247e-39 322 250
0.0042343 0.80500001 -0.014114333 4.1441146e-39 323 250
0.0056317062 0.80299997 -0.014079265 3.7760523e-39 324 250
0.0070396326 0.80299997 -0.014079265 3.3150742e-39 325 250
0.0084475596 0.80299997 -0.014079265 2.8548233e-39 326 250
0.0098554865 0.80299997 -0.014079265 2.8548233e-39 327 250
0.011263412 0.80299997 -0.014079265 2.7640738e-39 328 250
0.012671339 0.80299997 -0.014079265 2.8562695e-39 329 250
-0.0070571667 0.80500001 -0.015525767 9.208773e-40 315 251
-0.0056457333 0.80500001 -0.015525767 9.208801e-40 316 251
-0.0042343 0.80500001 -0.015525767 1.0130757e-39 317 251
-0.0028228667 0.80500001 -0.015525767 1.4733322e-39 318 251
-0.0014079266 0.80299997 -0.015487193 2.026506e-39 319 251
0 0.80299997 -0.015487193 3.8639348e-39 320 251
0.0014079266 0.80299997 -0.015487193 4.9702823e-39 321 251
0.0028158531 0.80299997 -0.015487193 5.1564687e-39 322 251
0.0042237798 0.80299997 -0.015487193 4.9720774e-39 323 251
0.0056317062 0.80299997 -0.015487193 4.0501267e-39 324 251
0.0070396326 0.80299997 -0.015487193 3.4047573e-39 325 251
0.0084370393 0.80199999 -0.015467905 2.945947e-39 326 251
0.0098432126 0.80199999 -0.015467905 3.3143707e-39 327 251
0.011249386 0.80199999 -0.015467905 4.1477271e-39 328 251
-0.038014017 0.80299997 -0.016895119 8.5684104e-39 293 252
-0.036606088 0.80299997 -0.016895119 2.8548177e-39 294 252
-0.035198163 0.80299997 -0.016895119 2.7550649e-40 295 252
-0.0070396326 0.80299997 -0.016895119 9.208801e-40 315 252
-0.0056317062 0.80299997 -0.016895119 9.208801e-40 316 252
-0.0042237798 0.80299997 -0.016895119 1.1052714e-39 317 252
-0.0028158531 0.80299997 -0.016895119 1.473335e-39 318 252
-0.0014079266 0.80299997 -0.016895119 1.933953e-39 319 252
0 0.80000001 -0.016832 3.1299823e-39 320 252
0.0014026667 0.80000001 -0.016832 3.959743e-39 321 252
0.0028123464 0.80199999 -0.016874079 4.1448531e-39 322 252
0.0042185197 0.80199999 -0.016874079 3.7764307e-39 323 252
0.0056317062 0.80299997 -0.016895119 3.3143735e-39 324 252
0.0070396326 0.80299997 -0.016895119 2.6690041e-39 325 252
0.0084370393 0.80199999 -0.016874079 2.2119664e-39 326 252
0.0098432126 0.80199999 -0.016874079 4.1480747e-39 327 252
-0.039421946 0.80299997 -0.018303044 6.6200983e-39 292 253
-0.038014017 0.80299997 -0.018303044 3.1224069e-39 293 253
-0.036606088 0.80299997 -0.018303044 5.5102419e-40 294 253
-0.035198163 0.80299997 -0.018303044 1.7477737e-39 295 253
-0.033495679 0.796 -0.018143492 1.6548564e-39 296 253
-0.032019373 0.79400003 -0.018097907 1.6548564e-39 297 253
-0.030627226 0.79400003 -0.018097907 1.1956691e-39 298 253
-0.029235078 0.79400003 -0.018097907 1.1034735e-39 299 253
-0.027772799 0.792 -0.018052319 9.2016124e-40 300 253
-0.026317533 0.79000002 -0.018006733 9.2016124e-40 301 253
-0.024932399 0.79000002 -0.018006733 9.208801e-40 302 253
-0.0070308661 0.80199999 -0.018280253 8.2976347e-40 315 253
-0.0056106667 0.80000001 -0.018234666 1.1052756e-39 316 253
-0.0042079999 0.80000001 -0.018234666 1.1974712e-39 317 253
-0.0028123464 0.80199999 -0.018280253 1.5658964e-39 318 253
-0.0014026667 0.80000001 -0.018234666 1.750289e-39 319 253
0 0.80000001 -0.018234666 3.0370664e-39 320 253
0.0014026667 0.80000001 -0.018234666 3.0370664e-39 321 253
0.0028123464 0.80199999 -0.018280253 3.6795631e-39 322 253
0.0042185197 0.80199999 -0.018280253 3.4951705e-39 323 253
0.0056317062 0.80299997 -0.018303044 2.7619214e-39 324 253
0.0070396326 0.80299997 -0.018303044 2.3009447e-39 325 253
0.0084475596 0.80299997 -0.018303044 2.1179828e-39 326 253
-0.040829871 0.80299997 -0.019710973 3.6863861e-39 291 254
-0.039421946 0.80299997 -0.019710973 2.0218229e-39 292 254
-0.038014017 0.80299997 -0.019710973 4.5917748e-40 293 254
-0.036560506 0.80199999 -0.019686425 1.3786367e-39 294 254
-0.035154331 0.80199999 -0.019686425 1.7474206e-39 295 254
-0.033495679 0.796 -0.019539146 1.1971181e-39 296 254
-0.032019373 0.79400003 -0.019490054 1.0127254e-39 297 254
-0.030627226 0.79400003 -0.019490054 9.2016124e-40 298 254
-0.029235078 0.79400003 -0.019490054 8.2796561e-40 299 254
-0.027772799 0.792 -0.01944096 5.5281785e-40 300 254
-0.026317533 0.79000002 -0.019391866 6.4537221e-40 301 254
-0.024900839 0.78899997 -0.019367319 7.3756504e-40 302 254
-0.023457846 0.787 -0.019318225 9.219563e-40 303 254
-0.022077972 0.787 -0.019318225 1.2882207e-39 304 254
-0.011249386 0.80199999 -0.019686425 8.2832854e-40 312 254
-0.0098432126 0.80199999 -0.019686425 8.2832854e-40 313 254
-0.0083949603 0.79799998 -0.019588239 9.1980811e-40 314 254
-0.0069957995 0.79799998 -0.019588239 1.0120037e-39 315 254
-0.0056106667 0.80000001 -0.019637333 1.3807835e-39 316 254
-0.0042079999 0.80000001 -0.019637333 1.6577291e-39 317 254
-0.0028053334 0.80000001 -0.019637333 1.5673285e-39 318 254
-0.0014026667 0.80000001 -0.019637333 1.5673285e-39 319 254
0 0.80000001 -0.019637333 1.7495744e-39 320 254
0.0014026667 0.80000001 -0.019637333 1.9336069e-39 321 254
0.0028123464 0.80199999 -0.019686425 1.7499415e-39 322 254
0.0042185197 0.80199999 -0.019686425 2.1183639e-39 323 254
-0.039421946 0.80299997 -0.0211189 4.6242569e-40 292 255
-0.038014017 0.80299997 -0.0211189 7.3901398e-40 293 255
-0.036560506 0.80199999 -0.021092599 1.2875144e-39 294 255
-0.034978997 0.79799998 -0.020987399 1.2875144e-39 295 255
-0.033495679 0.796 -0.0209348 9.208829e-40 296 255
-0.032019373 0.79400003 -0.0208822 9.208829e-40 297 255
-0.030627226 0.79400003 -0.0208822 8.2868167e-40 298 255
-0.029161438 0.792 -0.020829599 8.2868167e-40 299 255
-0.027772799 0.792 -0.020829599 4.6205435e-40 300 255
-0.026317533 0.79000002 -0.020777 6.4608547e-40 301 255
-0.024900839 0.78899997 -0.0207507 8.301166e-40 302 255
-0.023457846 0.787 -0.0206981 1.1063448e-39 303 255
-0.022077972 0.787 -0.0206981 1.1056245e-39 304 255
-0.0207507 0.78899997 -0.0207507 9.2123323e-40 305 255
-0.011249386 0.80199999 -0.021092599 9.2016124e-40 312 255
-0.0098432126 0.80199999 -0.021092599 1.0123569e-39 313 255
-0.0083949603 0.79799998 -0.020987399 1.2878648e-39 314 255
-0.0069957995 0.79799998 -0.020987399 1.3804191e-39 315 255
-0.0056106667 0.80000001 -0.02104 1.4740511e-39 316 255
-0.0042079999 0.80000001 -0.02104 1.5662467e-39 317 255
-0.0028053334 0.80000001 -0.02104 1.7506436e-39 318 255
-0.0014026667 0.80000001 -0.02104 1.7506436e-39 319 255
0 0.80000001 -0.02104 1.8428434e-39 320 255
0.0014026667 0.80000001 -0.02104 1.935039e-39 321 255
0.0028123464 0.80199999 -0.021092599 2.1201492e-39 322 255
0.0042185197 0.80199999 -0.021092599 2.5811273e-39 323 255
-0.03937285 0.80199999 -0.022498772 9.2161298e-40 292 256
-0.03777732 0.79799998 -0.022386558 8.2905722e-40 293 256
-0.036378156 0.79799998 -0.022386558 9.2052978e-40 294 256
-0.03489133 0.796 -0.022330454 8.2833415e-40 295 256
-0.033495679 0.796 -0.022330454 6.4501628e-40 296 256
-0.032019373 0.79400003 -0.022274347 6.4501628e-40 297 256
-0.030627226 0.79400003 -0.022274347 7.3756504e-40 298 256
-0.029161438 0.792 -0.022218239 7.3756504e-40 299 256
-0.027772799 0.792 -0.022218239 8.301138e-40 300 256
-0.026317533 0.79000002 -0.022162134 8.301138e-40 301 256
-0.024900839 0.78899997 -0.022134079 8.3083266e-40 302 256
-0.023517458 0.78899997 -0.022134079 9.2302969e-40 303 256
-0.022134079 0.78899997 -0.022134079 8.301138e-40 304 256
-0.0207507 0.78899997 -0.022134079 7.3791817e-40 305 256
-0.019391866 0.79000002 -0.022162134 6.4536661e-40 306 256
-0.018052319 0.792 -0.022218239 7.3792097e-40 307 256
-0.012592439 0.79799998 -0.022386558 7.3756504e-40 311 256
-0.011193279 0.79799998 -0.022386558 1.0134289e-39 312 256
-0.0098186666 0.80000001 -0.022442667 1.1056245e-39 313 256
-0.0084159998 0.80000001 -0.022442667 1.1981774e-39 314 256
-0.007013333 0.80000001 -0.022442667 1.4744042e-39 315 256
-0.0056106667 0.80000001 -0.022442667 1.3832904e-39 316 256
-0.0042079999 0.80000001 -0.022442667 1.5676816e-39 317 256
-0.0028053334 0.80000001 -0.022442667 1.9339558e-39 318 256
-0.0014026667 0.80000001 -0.022442667 2.1183485e-39 319 256
0 0.80000001 -0.022442667 2.2116217e-39 320 256
0.0014026667 0.80000001 -0.022442667 2.48821e-39 321 256
0.0028053334 0.80000001 -0.022442667 2.6740418e-39 322 256
-0.03937285 0.80199999 -0.023904946 9.2052697e-40 292 257
-0.037871998 0.80000001 -0.023845334 8.2833134e-40 293 257
-0.036378156 0.79799998 -0.02378572 1.0112779e-39 294 257
-0.03489133 0.796 -0.023726106 1.0112779e-39 295 257
-0.033495679 0.796 -0.023726106 6.4465054e-40 296 257
-0.032100026 0.796 -0.023726106 8.2868167e-40 297 257
-0.030627226 0.79400003 -0.023666494 7.3756504e-40 298 257
-0.029161438 0.792 -0.02360688 8.2976067e-40 299 257
-0.027702667 0.79000002 -0.023547266 1.1063448e-39 300 257
-0.026284218 0.78899997 -0.023517458 9.2231223e-40 301 257
-0.024900839 0.78899997 -0.023517458 9.230325e-40 302 257
-0.023517458 0.78899997 -0.023517458 8.3083546e-40 303 257
-0.022134079 0.78899997 -0.023517458 6.4608547e-40 304 257
-0.0207507 0.78899997 -0.023517458 4.6205435e-40 305 257
-0.019391866 0.79000002 -0.023547266 6.4608547e-40 306 257
-0.018052319 0.792 -0.02360688 7.3863983e-40 307 257
-0.016705759 0.79400003 -0.023666494 8.2976067e-40 308 257
-0.015352187 0.796 -0.023726106 8.2976067e-40 309 257
-0.013956533 0.796 -0.023726106 8.2976067e-40 310 257
-0.012592439 0.79799998 -0.02378572 9.219563e-40 311 257
-0.011193279 0.79799998 -0.02378572 9.230325e-40 312 257
-0.0097941197 0.79799998 -0.02378572 1.0152281e-39 313 257
-0.0084159998 0.80000001 -0.023845334 1.4744042e-39 314 257
-0.007013333 0.80000001 -0.023845334 1.6587955e-39 315 257
-0.0056106667 0.80000001 -0.023845334 1.750275e-39 316 257
-0.0042079999 0.80000001 -0.023845334 2.0265032e-39 317 257
-0.0028053334 0.80000001 -0.023845334 1.9361082e-39 318 257
-0.0014061732 0.80199999 -0.023904946 2.2126951e-39 319 257
0 0.80199999 -0.023904946 2.7658689e-39 320 257
-0.039274666 0.80000001 -0.025248 9.2015843e-40 292 258
-0.037871998 0.80000001 -0.025248 8.279628e-40 293 258
-0.036378156 0.79799998 -0.025184877 6.4464774e-40 294 258
-0.034978997 0.79799998 -0.025184877 9.2123323e-40 295 258
-0.033495679 0.796 -0.02512176 4.6205435e-40 296 258
-0.032100026 0.796 -0.02512176 7.3863983e-40 297 258
-0.030627226 0.79400003 -0.02505864 8.301166e-40 298 258
-0.029235078 0.79400003 -0.02505864 8.301166e-40 299 258
-0.027702667 0.79000002 -0.024932399 1.0134289e-39 300 258
-0.026284218 0.78899997 -0.024900839 1.0134289e-39 301 258
-0.024900839 0.78899997 -0.024900839 8.2976067e-40 302 258
-0.023517458 0.78899997 -0.024900839 7.3756504e-40 303 258
-0.022134079 0.78899997 -0.024900839 4.6205435e-40 304 258
-0.0207507 0.78899997 -0.024900839 7.3863983e-40 305 258
-0.019391866 0.79000002 -0.024932399 7.3828391e-40 306 258
-0.018052319 0.792 -0.024995519 8.3047953e-40 307 258
-0.016705759 0.79400003 -0.02505864 8.3047953e-40 308 258
-0.015352187 0.796 -0.02512176 8.3047953e-40 309 258
-0.013956533 0.796 -0.02512176 9.230325e-40 310 258
-0.012592439 0.79799998 -0.025184877 1.0152281e-39 311 258
-0.011193279 0.79799998 -0.025184877 1.1988963e-39 312 258
-0.0097941197 0.79799998 -0.025184877 1.1988963e-39 313 258
-0.0084159998 0.80000001 -0.025248 1.5666026e-39 314 258
-0.007013333 0.80000001 -0.025248 1.7509939e-39 315 258
-0.0056106667 0.80000001 -0.025248 1.751717e-39 316 258
-0.0042079999 0.80000001 -0.025248 1.8439126e-39 317 258
-0.0028123464 0.80199999 -0.02531112 1.937553e-39 318 258
-0.0014079266 0.80299997 -0.025342679 2.3985311e-39 319 258
-0.039274666 0.80000001 -0.026650665 8.2831873e-40 292 259
-0.037871998 0.80000001 -0.026650665 9.2051436e-40 293 259
-0.036469333 0.80000001 -0.026650665 8.290348e-40 294 259
-0.035066664 0.80000001 -0.026650665 1.0134261e-39 295 259
-0.033579841 0.79799998 -0.026584039 9.2230943e-40 296 259
-0.032100026 0.796 -0.026517414 8.301138e-40 297 259
-0.030627226 0.79400003 -0.026450787 1.0134289e-39 298 259
-0.029235078 0.79400003 -0.026450787 1.0134289e-39 299 259
-0.027702667 0.79000002 -0.026317533 1.0123569e-39 300 259
-0.026284218 0.78899997 -0.026284218 1.0123569e-39 301 259
-0.024900839 0.78899997 -0.026284218 6.4608547e-40 302 259
-0.023517458 0.78899997 -0.026284218 7.3863983e-40 303 259
-0.022134079 0.78899997 -0.026284218 4.6312914e-40 304 259
-0.0207507 0.78899997 -0.026284218 5.5532477e-40 305 259
-0.019391866 0.79000002 -0.026317533 8.3047953e-40 306 259
-0.018052319 0.792 -0.02638416 8.3047953e-40 307 259
-0.016705759 0.79400003 -0.026450787 1.1978243e-39 308 259
-0.015352187 0.796 -0.026517414 1.29002e-39 309 259
-0.013991599 0.79799998 -0.026584039 1.2900171e-39 310 259
-0.012592439 0.79799998 -0.026584039 1.474407e-39 311 259
-0.011193279 0.79799998 -0.026584039 1.6566445e-39 312 259
-0.0097941197 0.79799998 -0.026584039 1.7491988e-39 313 259
-0.0084159998 0.80000001 -0.026650665 1.475486e-39 314 259
-0.007013333 0.80000001 -0.026650665 1.9361054e-39 315 259
-0.0056106667 0.80000001 -0.026650665 2.2119664e-39 316 259
-0.037966676 0.80199999 -0.028123464 8.2868167e-40 293 260
-0.036378156 0.79799998 -0.027983198 9.2015843e-40 294 260
-0.034978997 0.79799998 -0.027983198 1.1967439e-39 295 260
-0.033495679 0.796 -0.027913066 1.0130757e-39 296 260
-0.032100026 0.796 -0.027913066 1.1052714e-39 297 260
-0.030704373 0.796 -0.027913066 1.0130757e-39 298 260
-0.029235078 0.79400003 -0.027842935 1.0130757e-39 299 260
-0.027772799 0.792 -0.027772799 9.208801e-40 300 260
-0.026284218 0.78899997 -0.027667599 9.208801e-40 301 260
-0.024900839 0.78899997 -0.027667599 5.5497445e-40 302 260
-0.023517458 0.78899997 -0.027667599 5.5497445e-40 303 260
-0.022134079 0.78899997 -0.027667599 4.6242289e-40 304 260
-0.0207507 0.78899997 -0.027667599 4.6242289e-40 305 260
-0.019391866 0.79000002 -0.027702667 1.1049196e-39 306 260
-0.018052319 0.792 -0.027772799 1.2896696e-39 307 260
-0.016705759 0.79400003 -0.027842935 1.1981873e-39 308 260
-0.015352187 0.796 -0.027913066 1.1981873e-39 309 260
-0.013991599 0.79799998 -0.027983198 1.4729791e-39 310 260
-0.012592439 0.79799998 -0.027983198 1.4729791e-39 311 260
-0.011193279 0.79799998 -0.027983198 1.5655334e-39 312 260
-0.0097941197 0.79799998 -0.027983198 1.7499247e-39 313 260
-0.0083949603 0.79799998 -0.027983198 1.9353894e-39 314 260
-0.0069957995 0.79799998 -0.027983198 2.4885631e-39 315 260
-0.036378156 0.79799998 -0.029382357 1.0123569e-39 294 261
-0.03489133 0.796 -0.029308718 1.0123569e-39 295 261
-0.033495679 0.796 -0.029308718 1.1956719e-39 296 261
-0.032100026 0.796 -0.029308718 1.2878676e-39 297 261
-0.030704373 0.796 -0.029308718 1.0123597e-39 298 261
-0.029235078 0.79400003 -0.029235078 1.0123597e-39 299 261
-0.027772799 0.792 -0.029161438 1.0123597e-39 300 261
-0.026284218 0.78899997 -0.02905098 1.0123597e-39 301 261
-0.024900839 0.78899997 -0.02905098 7.3793078e-40 302 261
-0.023457846 0.787 -0.02897734 6.4573515e-40 303 261
-0.022077972 0.787 -0.02897734 8.2976627e-40 304 261
-0.020777 0.79000002 -0.029087799 1.1059944e-39 305 261
-0.019391866 0.79000002 -0.029087799 1.1070706e-39 306 261
-0.018097907 0.79400003 -0.029235078 1.1070706e-39 307 261
-0.01674784 0.796 -0.029308718 1.4740539e-39 308 261
-0.015390759 0.79799998 -0.029382357 1.4740539e-39 309 261
-0.013991599 0.79799998 -0.029382357 1.5655334e-39 310 261
-0.012592439 0.79799998 -0.029382357 1.6577291e-39 311 261
-0.036286984 0.796 -0.030704373 1.0134317e-39 294 262
-0.03489133 0.796 -0.030704373 9.208773e-40 295 262
-0.033411518 0.79400003 -0.030627226 1.1956691e-39 296 262
-0.032019373 0.79400003 -0.030627226 1.2878648e-39 297 262
-0.030627226 0.79400003 -0.030627226 1.196388e-39 298 262
-0.029235078 0.79400003 -0.030627226 1.0123569e-39 299 262
-0.027772799 0.792 -0.030550079 1.0127128e-39 300 262
-0.026317533 0.79000002 -0.030472934 1.0127128e-39 301 262
-0.024900839 0.78899997 -0.030434359 9.208829e-40 302 262
-0.023398234 0.78500003 -0.030280067 1.1052756e-39 303 262
-0.022021867 0.78500003 -0.030280067 9.2232624e-40 304 262
-0.020777 0.79000002 -0.030472934 1.0145219e-39 305 262
-0.019391866 0.79000002 -0.030472934 1.1077923e-39 306 262
-0.018097907 0.79400003 -0.030627226 1.0155967e-39 307 262
-0.01674784 0.796 -0.030704373 1.5655334e-39 308 262
-0.015352187 0.796 -0.030704373 1.6577291e-39 309 262
-0.013956533 0.796 -0.030704373 1.7509967e-39 310 262
-0.036286984 0.796 -0.032100026 1.0130757e-39 294 263
-0.03489133 0.796 -0.032100026 9.208801e-40 295 263
-0.033411518 0.79400003 -0.032019373 1.0123569e-39 296 263
-0.032019373 0.79400003 -0.032019373 1.196388e-39 297 263
-0.030627226 0.79400003 -0.032019373 1.0127128e-39 298 263
-0.029235078 0.79400003 -0.032019373 9.2015843e-40 299 263
-0.027772799 0.792 -0.031938717 1.0134317e-39 300 263
-0.026317533 0.79000002 -0.031858064 1.0134317e-39 301 263
-0.024900839 0.78899997 -0.031817738 1.1052714e-39 302 263
-0.023398234 0.78500003 -0.031656433 1.2900228e-39 303 263
-0.022021867 0.78500003 -0.031656433 1.1981901e-39 304 263
-0.019490054 0.79400003 -0.032019373 1.4737008e-39 306 263
-0.018097907 0.79400003 -0.032019373 1.5658964e-39 307 263
-0.036286984 0.796 -0.033495679 9.208829e-40 294 264
-0.03489133 0.796 -0.033495679 9.208829e-40 295 264
-0.033411518 0.79400003 -0.033411518 9.208829e-40 296 264
-0.032019373 0.79400003 -0.033411518 9.208829e-40 297 264
-0.030627226 0.79400003 -0.033411518 1.0123569e-39 298 264
-0.029235078 0.79400003 -0.033411518 1.0123569e-39 299 264
-0.038734637 0.78899997 -0.034584496 9.208801e-40 292 265
-0.037351258 0.78899997 -0.034584496 8.2868447e-40 293 265
-0.035967879 0.78899997 -0.034584496 9.208801e-40 294 265
-0.034803666 0.79400003 -0.034803666 1.0130757e-39 295 265
-0.033411518 0.79400003 -0.034803666 1.0130785e-39 296 265
-0.032019373 0.79400003 -0.034803666 9.208829e-40 297 265
-0.030627226 0.79400003 -0.034803666 1.196388e-39 298 265
-0.040016327 0.787 -0.035876706 1.0127128e-39 291 266
-0.03863645 0.787 -0.035876706 9.2016124e-40 292 266
-0.03725658 0.787 -0.035876706 9.2016124e-40 293 266
-0.035876706 0.787 -0.035876706 9.2016404e-40 294 266
-0.034584496 0.78899997 -0.035967879 9.2016404e-40 295 266
-0.033201117 0.78899997 -0.035967879 1.3793401e-39 296 266
-0.031817738 0.78899997 -0.035967879 1.5637314e-39 297 266
-0.040016327 0.787 -0.03725658 1.0123597e-39 291 267
-0.03863645 0.787 -0.03725658 9.208801e-40 292 267
-0.03725658 0.787 -0.03725658 8.2868447e-40 293 267
-0.035876706 0.787 -0.03725658 1.1038294e-39 294 267
-0.034584496 0.78899997 -0.037351258 1.2882207e-39 295 267
-0.033201117 0.78899997 -0.037351258 1.2889396e-39 296 267
-0.031817738 0.78899997 -0.037351258 1.4733322e-39 297 267
-0.030472934 0.79000002 -0.037398599 1.1074238e-39 298 267
-0.05568587 0.79400003 -0.038980108 8.2868447e-40 280 268
-0.054293722 0.79400003 -0.038980108 8.2868447e-40 281 268
-0.044268157 0.78899997 -0.038734637 9.208829e-40 288 268
-0.042776071 0.787 -0.03863645 9.208829e-40 289 268
-0.041396201 0.787 -0.03863645 9.208801e-40 290 268
-0.040016327 0.787 -0.03863645 1.0130757e-39 291 268
-0.03863645 0.787 -0.03863645 9.2015843e-40 292 268
-0.03725658 0.787 -0.03863645 1.0127128e-39 293 268
-0.035876706 0.787 -0.03863645 1.6562787e-39 294 268
-0.034584496 0.78899997 -0.038734637 1.7484744e-39 295 268
-0.033201117 0.78899997 -0.038734637 1.7491932e-39 296 268
-0.031817738 0.78899997 -0.038734637 1.8413889e-39 297 268
-0.030472934 0.79000002 -0.038783733 1.3832904e-39 298 268
-0.057078011 0.79400003 -0.040372252 8.279628e-40 279 269
-0.05568587 0.79400003 -0.040372252 6.4537221e-40 280 269
-0.054293722 0.79400003 -0.040372252 7.3756784e-40 281 269
-0.044155944 0.787 -0.040016327 8.2832854e-40 288 269
-0.042776071 0.787 -0.040016327 9.208829e-40 289 269
-0.041396201 0.787 -0.040016327 1.0123569e-39 290 269
-0.040016327 0.787 -0.040016327 1.0123569e-39 291 269
-0.03863645 0.787 -0.040016327 1.1967439e-39 292 269
-0.03725658 0.787 -0.040016327 1.4733322e-39 293 269
-0.035876706 0.787 -0.040016327 1.751347e-39 294 269
-0.034496833 0.787 -0.040016327 1.751347e-39 295 269
-0.033201117 0.78899997 -0.040118016 1.9339432e-39 296 269
-0.031817738 0.78899997 -0.040118016 1.8413889e-39 297 269
-0.030434359 0.78899997 -0.040118016 1.5662495e-39 298 269
-0.070999481 0.79400003 -0.041764401 4.6062222e-40 269 270
-0.057078011 0.79400003 -0.041764401 5.5317098e-40 279 270
-0.055545598 0.792 -0.041659199 5.5282065e-40 280 270
-0.054156959 0.792 -0.041659199 7.3721191e-40 281 270
-0.05276832 0.792 -0.041659199 7.3721471e-40 282 270
-0.051379677 0.792 -0.041659199 7.3721471e-40 283 270
-0.049991038 0.792 -0.041659199 4.6170402e-40 284 270
-0.048418298 0.78899997 -0.041501399 6.4573515e-40 285 270
-0.047034916 0.78899997 -0.041501399 7.3756784e-40 286 270
-0.045651536 0.78899997 -0.041501399 6.4537221e-40 287 270
-0.044155944 0.787 -0.041396201 9.208829e-40 288 270
-0.042776071 0.787 -0.041396201 1.0130785e-39 289 270
-0.041396201 0.787 -0.041396201 1.1052756e-39 290 270
-0.040016327 0.787 -0.041396201 1.1974712e-39 291 270
-0.03863645 0.787 -0.041396201 1.1081454e-39 292 270
-0.03725658 0.787 -0.041396201 1.2003411e-39 293 270
-0.035876706 0.787 -0.041396201 2.1190519e-39 294 270
-0.034496833 0.787 -0.041396201 2.1190519e-39 295 270
-0.033201117 0.78899997 -0.041501399 2.1183359e-39 296 270
-0.031817738 0.78899997 -0.041501399 1.9339432e-39 297 270
-0.072573967 0.796 -0.043265253 8.4077908e-45 268 271
-0.070999481 0.79400003 -0.043156546 8.2941034e-40 269 271
-0.069607332 0.79400003 -0.043156546 4.6170122e-40 270 271
-0.068215191 0.79400003 -0.043156546 3.6950559e-40 271 271
-0.056934237 0.792 -0.043047838 6.4465054e-40 279 271
-0.055545598 0.792 -0.043047838 5.5282345e-40 280 271
-0.054156959 0.792 -0.043047838 6.4501908e-40 281 271
-0.05276832 0.792 -0.043047838 6.4501908e-40 282 271
-0.051185057 0.78899997 -0.042884778 6.4501908e-40 283 271
-0.049801677 0.78899997 -0.042884778 6.4536941e-40 284 271
-0.048295565 0.787 -0.042776071 7.3756504e-40 285 271
-0.046796467 0.78500003 -0.042667367 6.4537221e-40 286 271
-0.045420099 0.78500003 -0.042667367 7.3756784e-40 287 271
-0.044043735 0.78500003 -0.042667367 1.1963908e-39 288 271
-0.042776071 0.787 -0.042776071 1.2885878e-39 289 271
-0.041396201 0.787 -0.042776071 1.6580794e-39 290 271
-0.040016327 0.787 -0.042776071 1.9343062e-39 291 271
-0.03863645 0.787 -0.042776071 1.7520673e-39 292 271
-0.03725658 0.787 -0.042776071 1.8442629e-39 293 271
-0.035876706 0.787 -0.042776071 1.9357425e-39 294 271
-0.034496833 0.787 -0.042776071 1.9357425e-39 295 271
-0.033201117 0.78899997 -0.042884778 2.302367e-39 296 271
-0.031817738 0.78899997 -0.042884778 2.302367e-39 297 271
-0.073969625 0.796 -0.044660907 1.4693904e-39 267 272
-0.072391629 0.79400003 -0.044548694 5.5281785e-40 268 272
-0.070999481 0.79400003 -0.044548694 5.5281785e-40 269 272
-0.069607332 0.79400003 -0.044548694 3.6985872e-40 270 272
-0.068215191 0.79400003 -0.044548694 3.6985872e-40 271 272
-0.056718577 0.78899997 -0.044268157 7.3576998e-40 279 272
-0.055335198 0.78899997 -0.044268157 4.6062502e-40 280 272
-0.053951818 0.78899997 -0.044268157 6.4501628e-40 281 272
-0.052568436 0.78899997 -0.044268157 6.4429742e-40 282 272
-0.051055312 0.787 -0.044155944 8.2832854e-40 283 272
-0.049675439 0.787 -0.044155944 4.6170122e-40 284 272
-0.048295565 0.787 -0.044155944 4.6170122e-40 285 272
-0.046796467 0.78500003 -0.044043735 9.208829e-40 286 272
-0.045420099 0.78500003 -0.044043735 1.0130785e-39 287 272
-0.044043735 0.78500003 -0.044043735 1.473335e-39 288 272
-0.042776071 0.787 -0.044155944 1.5655306e-39 289 272
-0.041396201 0.787 -0.044155944 1.8435469e-39 290 272
-0.040016327 0.787 -0.044155944 2.1197736e-39 291 272
-0.03863645 0.787 -0.044155944 1.9357425e-39 292 272
-0.03725658 0.787 -0.044155944 1.7509911e-39 293 272
-0.035876706 0.787 -0.044155944 2.0265088e-39 294 272
-0.034496833 0.787 -0.044155944 1.933953e-39 295 272
-0.033201117 0.78899997 -0.044268157 1.9339558e-39 296 272
-0.031817738 0.78899997 -0.044268157 2.1183485e-39 297 272
-0.030781519 0.79799998 -0.044773117 3.0439033e-39 298 272
-0.029382357 0.79799998 -0.044773117 5.440631e-39 299 272
