# .PCD v.7 - Point Cloud Data file format
FIELDS x y z rgb imX imY
SIZE 4 4 4 4 4 4
TYPE F F F F F F
COUNT 1 1 1 1 1 1
WIDTH 483
HEIGHT 1
VIEWPOINT 0 0 0 1 0 0 0
POINTS 483
DATA ascii
0.0092540924 0.75400001 -0.034372345 1.4461664e-38 327 266
0.010576107 0.75400001 -0.034372345 1.5477299e-38 328 266
0.01189812 0.75400001 -0.034372345 1.6399615e-38 329 266
0.0039292197 0.74699998 -0.035362978 1.1875836e-38 323 267
0.0052319462 0.74599999 -0.03531564 1.2059507e-38 324 267
0.0065399334 0.74599999 -0.03531564 1.2704867e-38 325 267
0.0078584393 0.74699998 -0.035362978 1.2525893e-38 326 267
0.0091681797 0.74699998 -0.035362978 1.3355654e-38 327 267
0.010477919 0.74699998 -0.035362978 1.4184731e-38 328 267
0.011787659 0.74699998 -0.035362978 1.5291077e-38 329 267
0.013097399 0.74699998 -0.035362978 1.5571299e-38 330 267
0.014407139 0.74699998 -0.035362978 1.6308865e-38 331 267
-0.00130448 0.74400002 -0.036525439 1.3445348e-38 319 268
0 0.74400002 -0.036525439 1.2980755e-38 320 268
0.00130448 0.74400002 -0.036525439 1.2796363e-38 321 268
0.00260896 0.74400002 -0.036525439 1.3166571e-38 322 268
0.0039134403 0.74400002 -0.036525439 1.3259127e-38 323 268
0.0052179201 0.74400002 -0.036525439 1.289036e-38 324 268
0.0065223998 0.74400002 -0.036525439 1.3166588e-38 325 268
0.0078268806 0.74400002 -0.036525439 1.2801404e-38 326 268
0.0091313599 0.74400002 -0.036525439 1.2893599e-38 327 268
0.010463892 0.74599999 -0.036623627 1.2892881e-38 328 268
0.011740319 0.74400002 -0.036525439 1.3446054e-38 329 268
0.0130448 0.74400002 -0.036525439 1.3636241e-38 330 268
0.014310705 0.74199998 -0.036427252 1.5111373e-38 331 268
0.015611678 0.74199998 -0.036427252 1.5848618e-38 332 268
0.016912652 0.74199998 -0.036427252 1.6309957e-38 333 268
0.018213626 0.74199998 -0.036427252 1.6033017e-38 334 268
-0.014252847 0.73900002 -0.037575684 1.5479453e-38 309 269
-0.012957133 0.73900002 -0.037575684 1.5199977e-38 310 269
-0.01166142 0.73900002 -0.037575684 1.4462053e-38 311 269
-0.010393759 0.741 -0.037677377 1.4367677e-38 312 269
-0.0090945391 0.741 -0.037677377 1.3353165e-38 313 269
-0.0077953199 0.741 -0.037677377 1.3075474e-38 314 269
-0.0065048663 0.74199998 -0.037728224 1.2430105e-38 315 269
-0.0052038929 0.74199998 -0.037728224 1.2336094e-38 316 269
-0.0039134403 0.74400002 -0.037829921 1.2520125e-38 317 269
-0.00260896 0.74400002 -0.037829921 1.2981476e-38 318 269
-0.00130448 0.74400002 -0.037829921 1.3258423e-38 319 269
0 0.74400002 -0.037829921 1.3809439e-38 320 269
0.00130448 0.74400002 -0.037829921 1.4086385e-38 321 269
0.00260896 0.74400002 -0.037829921 1.372082e-38 322 269
0.0039134403 0.74400002 -0.037829921 1.372082e-38 323 269
0.0052179201 0.74400002 -0.037829921 1.325949e-38 324 269
0.0065223998 0.74400002 -0.037829921 1.2891066e-38 325 269
0.0078268806 0.74400002 -0.037829921 1.2430821e-38 326 269
0.0091313599 0.74400002 -0.037829921 1.2338625e-38 327 269
0.01043584 0.74400002 -0.037829921 1.1969122e-38 328 269
0.011740319 0.74400002 -0.037829921 1.1508144e-38 329 269
0.013009733 0.74199998 -0.037728224 1.2064209e-38 330 269
0.014310705 0.74199998 -0.037728224 1.4276904e-38 331 269
0.015611678 0.74199998 -0.037728224 1.5201422e-38 332 269
0.016912652 0.74199998 -0.037728224 1.6307769e-38 333 269
0.018213626 0.74199998 -0.037728224 1.6215962e-38 334 269
0.0195146 0.74199998 -0.037728224 1.6215962e-38 335 269
-0.01554856 0.73900002 -0.0388714 1.4182916e-38 308 270
-0.014252847 0.73900002 -0.0388714 1.3537546e-38 309 270
-0.012939599 0.73799998 -0.038818799 1.3350982e-38 310 270
-0.011645639 0.73799998 -0.038818799 1.3166591e-38 311 270
-0.010351679 0.73799998 -0.038818799 1.3075824e-38 312 270
-0.0090699932 0.73900002 -0.0388714 1.2706682e-38 313 270
-0.0077742799 0.73900002 -0.0388714 1.298111e-38 314 270
-0.0064960998 0.741 -0.038976599 1.2888915e-38 315 270
-0.0051968796 0.741 -0.038976599 1.2798517e-38 316 270
-0.0039029196 0.74199998 -0.0390292 1.3166941e-38 317 270
-0.0026019465 0.74199998 -0.0390292 1.3351688e-38 318 270
-0.0013009732 0.74199998 -0.0390292 1.3536079e-38 319 270
0 0.74199998 -0.0390292 1.4548063e-38 320 270
0.00130448 0.74400002 -0.039134398 1.4640259e-38 321 270
0.00260896 0.74400002 -0.039134398 1.4180352e-38 322 270
0.0039134403 0.74400002 -0.039134398 1.3350589e-38 323 270
0.0052038929 0.74199998 -0.0390292 1.178616e-38 324 270
0.0065048663 0.74199998 -0.0390292 1.178616e-38 325 270
0.0078058392 0.74199998 -0.0390292 1.1877296e-38 326 270
0.009106813 0.74199998 -0.0390292 1.1785101e-38 327 270
0.010407786 0.74199998 -0.0390292 1.1786176e-38 328 270
0.01170876 0.74199998 -0.0390292 1.1970568e-38 329 270
0.013009733 0.74199998 -0.0390292 1.3074022e-38 330 270
0.014310705 0.74199998 -0.0390292 1.4272565e-38 331 270
0.015611678 0.74199998 -0.0390292 1.455134e-38 332 270
0.016912652 0.74199998 -0.0390292 1.5934274e-38 333 270
0.018213626 0.74199998 -0.0390292 1.5569498e-38 334 270
-0.016844273 0.73900002 -0.040167112 1.2246805e-38 307 271
-0.015527519 0.73799998 -0.040112756 1.2520125e-38 308 271
-0.014233559 0.73799998 -0.040112756 1.2612321e-38 309 271
-0.012939599 0.73799998 -0.040112756 1.2980379e-38 310 271
-0.01161408 0.736 -0.040004052 1.3072575e-38 311 271
-0.010323626 0.736 -0.040004052 1.3166571e-38 312 271
-0.0090577193 0.73799998 -0.040112756 1.3259127e-38 313 271
-0.0077637597 0.73799998 -0.040112756 1.3258771e-38 314 271
-0.0064697997 0.73799998 -0.040112756 1.3442802e-38 315 271
-0.0051758396 0.73799998 -0.040112756 1.3995243e-38 316 271
-0.0038976599 0.741 -0.04027582 1.4271471e-38 317 271
-0.0025984398 0.741 -0.04027582 1.4181055e-38 318 271
-0.0013009732 0.74199998 -0.040330172 1.4549836e-38 319 271
0 0.74199998 -0.040330172 1.491753e-38 320 271
0.0013009732 0.74199998 -0.040330172 1.5009725e-38 321 271
0.0026019465 0.74199998 -0.040330172 1.464096e-38 322 271
0.0039029196 0.74199998 -0.040330172 1.3811199e-38 323 271
0.0051968796 0.741 -0.04027582 1.2060949e-38 324 271
0.0064960998 0.741 -0.04027582 1.2153145e-38 325 271
0.0077953199 0.741 -0.04027582 1.2152795e-38 326 271
0.0090945391 0.741 -0.04027582 1.2336826e-38 327 271
0.010393759 0.741 -0.04027582 1.2614476e-38 328 271
0.01169298 0.741 -0.04027582 1.3167291e-38 329 271
0.0129922 0.741 -0.04027582 1.4179259e-38 330 271
0.01429142 0.741 -0.04027582 1.436365e-38 331 271
0.015611678 0.74199998 -0.040330172 1.4271823e-38 332 271
0.016912652 0.74199998 -0.040330172 1.519378e-38 333 271
0.018213626 0.74199998 -0.040330172 1.4737902e-38 334 271
0.0195146 0.74199998 -0.040330172 1.5660217e-38 335 271
-0.016844273 0.73900002 -0.041462827 1.2801423e-38 307 272
-0.015527519 0.73799998 -0.041406717 1.3351332e-38 308 272
-0.014194986 0.736 -0.041294504 1.3720113e-38 309 272
-0.012904533 0.736 -0.041294504 1.3997411e-38 310 272
-0.01161408 0.736 -0.041294504 1.3997411e-38 311 272
-0.010323626 0.736 -0.041294504 1.4272919e-38 312 272
-0.0090331733 0.736 -0.041294504 1.445731e-38 313 272
-0.0077637597 0.73799998 -0.041406717 1.4733894e-38 314 272
-0.0064697997 0.73799998 -0.041406717 1.4918285e-38 315 272
-0.0051758396 0.73799998 -0.041406717 1.5377446e-38 316 272
-0.00388714 0.73900002 -0.041462827 1.528525e-38 317 272
-0.0025984398 0.741 -0.041575037 1.5561096e-38 318 272
-0.0013009732 0.74199998 -0.041631144 1.5561096e-38 319 272
0 0.741 -0.041575037 1.4734575e-38 320 272
0.0012992199 0.741 -0.041575037 1.4642381e-38 321 272
0.0025984398 0.741 -0.041575037 1.5284517e-38 322 272
0.00388714 0.73900002 -0.041462827 1.4823182e-38 323 272
0.0051828534 0.73900002 -0.041462827 1.3626455e-38 324 272
0.0064785667 0.73900002 -0.041462827 1.3442422e-38 325 272
0.0077637597 0.73799998 -0.041406717 1.3626455e-38 326 272
0.0090577193 0.73799998 -0.041406717 1.3903042e-38 327 272
0.010365707 0.73900002 -0.041462827 1.4271454e-38 328 272
0.01166142 0.73900002 -0.041462827 1.4455847e-38 329 272
0.012957133 0.73900002 -0.041462827 1.4365081e-38 330 272
0.01429142 0.741 -0.041575037 1.4272886e-38 331 272
0.01559064 0.741 -0.041575037 1.4639511e-38 332 272
0.016889861 0.741 -0.041575037 1.4547317e-38 333 272
0.018189078 0.741 -0.041575037 1.3720113e-38 334 272
0.019488299 0.741 -0.041575037 1.528744e-38 335 272
0.020787518 0.741 -0.041575037 1.5110672e-38 336 272
-0.016821479 0.73799998 -0.042700678 1.3541159e-38 307 273
-0.015485439 0.736 -0.042584959 1.4364395e-38 308 273
-0.014194986 0.736 -0.042584959 1.4364395e-38 309 273
-0.012904533 0.736 -0.042584959 1.5009372e-38 310 273
-0.01161408 0.736 -0.042584959 1.5009372e-38 311 273
-0.010323626 0.736 -0.042584959 1.4917528e-38 312 273
-0.0090331733 0.736 -0.042584959 1.510192e-38 313 273
-0.0077427197 0.736 -0.042584959 1.4827487e-38 314 273
-0.0064522666 0.736 -0.042584959 1.4827487e-38 315 273
-0.0051758396 0.73799998 -0.042700678 1.501044e-38 316 273
-0.0038818798 0.73799998 -0.042700678 1.4918246e-38 317 273
-0.0025914267 0.73900002 -0.042758539 1.5101558e-38 318 273
-0.0012992199 0.741 -0.042874258 1.4825334e-38 319 273
0 0.741 -0.042874258 1.4916452e-38 320 273
0.0012957134 0.73900002 -0.042758539 1.4916452e-38 321 273
0.0025914267 0.73900002 -0.042758539 1.4823182e-38 322 273
0.0038818798 0.73799998 -0.042700678 1.4730988e-38 323 273
0.0051758396 0.73799998 -0.042700678 1.4730629e-38 324 273
0.0064697997 0.73799998 -0.042700678 1.4454405e-38 325 273
0.0077637597 0.73799998 -0.042700678 1.4179975e-38 326 273
0.0090577193 0.73799998 -0.042700678 1.4179975e-38 327 273
0.010351679 0.73799998 -0.042700678 1.4272528e-38 328 273
0.01166142 0.73900002 -0.042758539 1.4180333e-38 329 273
0.012957133 0.73900002 -0.042758539 1.4179616e-38 330 273
0.014252847 0.73900002 -0.042758539 1.4179616e-38 331 273
0.01559064 0.741 -0.042874258 1.408778e-38 332 273
0.016889861 0.741 -0.042874258 1.408778e-38 333 273
0.018189078 0.741 -0.042874258 1.3166197e-38 334 273
0.019488299 0.741 -0.042874258 1.4365099e-38 335 273
0.020787518 0.741 -0.042874258 1.5110643e-38 336 273
-0.020478934 0.73000002 -0.043517731 9.7633411e-39 304 274
-0.019356798 0.736 -0.043875411 9.6711454e-39 305 274
-0.018066347 0.736 -0.043875411 1.0501594e-38 306 274
-0.016775893 0.736 -0.043875411 1.2160755e-38 307 274
-0.015485439 0.736 -0.043875411 1.5289258e-38 308 274
-0.014194986 0.736 -0.043875411 1.5474008e-38 309 274
-0.012869466 0.73400003 -0.043756187 1.5563645e-38 310 274
-0.011582521 0.73400003 -0.043756187 1.5378893e-38 311 274
-0.010295574 0.73400003 -0.043756187 1.5102994e-38 312 274
-0.0090331733 0.736 -0.043875411 1.4642022e-38 313 274
-0.0077427197 0.736 -0.043875411 1.4916093e-38 314 274
-0.0064522666 0.736 -0.043875411 1.463987e-38 315 274
-0.005161813 0.736 -0.043875411 1.5005777e-38 316 274
-0.0038713599 0.736 -0.043875411 1.5097971e-38 317 274
-0.0025809065 0.736 -0.043875411 1.5006494e-38 318 274
-0.0012939599 0.73799998 -0.043994635 1.4822464e-38 319 274
0 0.73799998 -0.043994635 1.4822464e-38 320 274
0.0012939599 0.73799998 -0.043994635 1.4822464e-38 321 274
0.0025879198 0.73799998 -0.043994635 1.4823182e-38 322 274
0.0038818798 0.73799998 -0.043994635 1.4823182e-38 323 274
0.0051758396 0.73799998 -0.043994635 1.4548034e-38 324 274
0.0064697997 0.73799998 -0.043994635 1.4548034e-38 325 274
0.0077637597 0.73799998 -0.043994635 1.445584e-38 326 274
0.0090577193 0.73799998 -0.043994635 1.445584e-38 327 274
0.010351679 0.73799998 -0.043994635 1.4087063e-38 328 274
0.011645639 0.73799998 -0.043994635 1.3994869e-38 329 274
0.012957133 0.73900002 -0.044054255 1.4085269e-38 330 274
0.014252847 0.73900002 -0.044054255 1.4085269e-38 331 274
0.01554856 0.73900002 -0.044054255 1.4085269e-38 332 274
0.016889861 0.741 -0.044173479 1.3900522e-38 333 274
0.018189078 0.741 -0.044173479 1.334628e-38 334 274
0.019488299 0.741 -0.044173479 1.4913956e-38 335 274
0.020787518 0.741 -0.044173479 1.5202478e-38 336 274
-0.021758866 0.73000002 -0.044797666 7.0961768e-39 303 275
-0.020478934 0.73000002 -0.044797666 7.8311985e-39 304 275
-0.019199001 0.73000002 -0.044797666 7.6468072e-39 305 275
-0.017943613 0.73100001 -0.044859033 8.2932304e-39 306 275
-0.016661927 0.73100001 -0.044859033 8.7545673e-39 307 275
-0.01538024 0.73100001 -0.044859033 1.2157496e-38 308 275
-0.014137126 0.73299998 -0.044981763 1.3264204e-38 309 275
-0.012851933 0.73299998 -0.044981763 1.4183224e-38 310 275
-0.011566739 0.73299998 -0.044981763 1.3906279e-38 311 275
-0.010281546 0.73299998 -0.044981763 1.4548034e-38 312 275
-0.0089963535 0.73299998 -0.044981763 1.445584e-38 313 275
-0.0077111595 0.73299998 -0.044981763 1.4730629e-38 314 275
-0.0064259665 0.73299998 -0.044981763 1.4638076e-38 315 275
-0.005140773 0.73299998 -0.044981763 1.4729911e-38 316 275
-0.0038555798 0.73299998 -0.044981763 1.4729911e-38 317 275
-0.0025738934 0.73400003 -0.045043133 1.4547675e-38 318 275
-0.0012904532 0.736 -0.045165867 1.4455122e-38 319 275
0 0.736 -0.045165867 1.4362928e-38 320 275
0.0012904532 0.736 -0.045165867 1.4362928e-38 321 275
0.0025809065 0.736 -0.045165867 1.4362928e-38 322 275
0.0038713599 0.736 -0.045165867 1.4362928e-38 323 275
0.005161813 0.736 -0.045165867 1.4270375e-38 324 275
0.0064522666 0.736 -0.045165867 1.4178181e-38 325 275
0.0077427197 0.736 -0.045165867 1.3902316e-38 326 275
0.0090331733 0.736 -0.045165867 1.3810121e-38 327 275
0.010351679 0.73799998 -0.0452886 1.3442062e-38 328 275
0.011645639 0.73799998 -0.0452886 1.3442062e-38 329 275
0.012957133 0.73900002 -0.045349967 1.3349868e-38 330 275
0.014252847 0.73900002 -0.045349967 1.3442062e-38 331 275
0.01554856 0.73900002 -0.045349967 1.3441345e-38 332 275
0.016889861 0.741 -0.045472696 1.334915e-38 333 275
0.018189078 0.741 -0.045472696 1.2887103e-38 334 275
0.019488299 0.741 -0.045472696 1.4454419e-38 335 275
0.020787518 0.741 -0.045472696 1.5017728e-38 336 275
-0.021758866 0.73000002 -0.046077598 5.0678856e-39 303 276
-0.020478934 0.73000002 -0.046077598 5.1604371e-39 304 276
-0.019199001 0.73000002 -0.046077598 5.5288609e-39 305 276
-0.017919067 0.73000002 -0.046077598 5.6231921e-39 306 276
-0.016639132 0.73000002 -0.046077598 5.6231921e-39 307 276
-0.01538024 0.73100001 -0.046140719 7.8282894e-39 308 276
-0.014098554 0.73100001 -0.046140719 9.2112239e-39 309 276
-0.012816866 0.73100001 -0.046140719 1.1420615e-38 310 276
-0.01153518 0.73100001 -0.046140719 1.1973788e-38 311 276
-0.010253493 0.73100001 -0.046140719 1.3811198e-38 312 276
-0.0089718066 0.73100001 -0.046140719 1.3995227e-38 313 276
-0.00769012 0.73100001 -0.046140719 1.4454405e-38 314 276
-0.0064259665 0.73299998 -0.046266954 1.4454405e-38 315 276
-0.005140773 0.73299998 -0.046266954 1.4638435e-38 316 276
-0.0038555798 0.73299998 -0.046266954 1.4638435e-38 317 276
-0.0025703865 0.73299998 -0.046266954 1.4362928e-38 318 276
-0.0012869467 0.73400003 -0.046330083 1.4270734e-38 319 276
0 0.73400003 -0.046330083 1.4179616e-38 320 276
0.0012869467 0.73400003 -0.046330083 1.3994869e-38 321 276
0.0025738934 0.73400003 -0.046330083 1.3994151e-38 322 276
0.0038608401 0.73400003 -0.046330083 1.3901957e-38 323 276
0.005161813 0.736 -0.046456318 1.3716851e-38 324 276
0.0064522666 0.736 -0.046456318 1.3532463e-38 325 276
0.0077427197 0.736 -0.046456318 1.2888538e-38 326 276
0.0090331733 0.736 -0.046456318 1.2704149e-38 327 276
0.010351679 0.73799998 -0.046582557 1.2613031e-38 328 276
0.011645639 0.73799998 -0.046582557 1.298145e-38 329 276
0.012957133 0.73900002 -0.046645679 1.3165479e-38 330 276
0.014252847 0.73900002 -0.046645679 1.3349509e-38 331 276
0.01554856 0.73900002 -0.046645679 1.334915e-38 332 276
0.016889861 0.741 -0.046771921 1.334915e-38 333 276
0.018189078 0.741 -0.046771921 1.2979297e-38 334 276
0.019488299 0.741 -0.046771921 1.4454063e-38 335 276
0.020815572 0.74199998 -0.046835039 1.5017731e-38 336 276
-0.021758866 0.73000002 -0.047357533 4.6072662e-39 303 277
-0.020478934 0.73000002 -0.047357533 5.0671695e-39 304 277
-0.019199001 0.73000002 -0.047357533 5.3433963e-39 305 277
-0.017919067 0.73000002 -0.047357533 5.4355793e-39 306 277
-0.016639132 0.73000002 -0.047357533 4.8824055e-39 307 277
-0.0153592 0.73000002 -0.047357533 4.4199574e-39 308 277
-0.014079267 0.73000002 -0.047357533 4.696903e-39 309 277
-0.012799333 0.73000002 -0.047357533 7.0939333e-39 310 277
-0.011519399 0.73000002 -0.047357533 1.0136381e-38 311 277
-0.010239467 0.73000002 -0.047357533 1.4364373e-38 312 277
-0.0089718066 0.73100001 -0.047422405 1.399559e-38 313 277
-0.00769012 0.73100001 -0.047422405 1.4179257e-38 314 277
-0.006408433 0.73100001 -0.047422405 1.4087063e-38 315 277
-0.0051267464 0.73100001 -0.047422405 1.4178181e-38 316 277
-0.00384506 0.73100001 -0.047422405 1.3994151e-38 317 277
-0.0025703865 0.73299998 -0.04755215 1.3901598e-38 318 277
-0.0012851933 0.73299998 -0.04755215 1.3809404e-38 319 277
0 0.73400003 -0.047617026 1.334915e-38 320 277
0.0012869467 0.73400003 -0.047617026 1.3256956e-38 321 277
0.0025738934 0.73400003 -0.047617026 1.2796344e-38 322 277
0.0038608401 0.73400003 -0.047617026 1.2704149e-38 323 277
0.005161813 0.736 -0.047746774 1.2519761e-38 324 277
0.0064522666 0.736 -0.047746774 1.2519761e-38 325 277
0.0077427197 0.736 -0.047746774 1.2519761e-38 326 277
0.0090331733 0.736 -0.047746774 1.2335373e-38 327 277
0.010351679 0.73799998 -0.047876518 1.2521196e-38 328 277
0.011645639 0.73799998 -0.047876518 1.2705943e-38 329 277
0.012957133 0.73900002 -0.047941394 1.2981808e-38 330 277
0.014252847 0.73900002 -0.047941394 1.2981808e-38 331 277
0.01559064 0.741 -0.048071139 1.3073285e-38 332 277
0.016889861 0.741 -0.048071139 1.3073285e-38 333 277
0.018189078 0.741 -0.048071139 1.2702715e-38 334 277
0.019488299 0.741 -0.048071139 1.4085638e-38 335 277
0.020815572 0.74199998 -0.048136011 1.5017728e-38 336 277
-0.021758866 0.73000002 -0.048637468 4.7909287e-39 303 278
-0.020478934 0.73000002 -0.048637468 5.0657178e-39 304 278
-0.019199001 0.73000002 -0.048637468 4.9735221e-39 305 278
-0.017869972 0.72799999 -0.048504211 4.7877058e-39 306 278
-0.016593546 0.72799999 -0.048504211 4.234532e-39 307 278
-0.01531712 0.72799999 -0.048504211 3.1303354e-39 308 278
-0.014040692 0.72799999 -0.048504211 2.7615529e-39 309 278
-0.012764266 0.72799999 -0.048504211 3.4097515e-39 310 278
-0.01148784 0.72799999 -0.048504211 7.5585395e-39 311 278
-0.010239467 0.73000002 -0.048637468 1.3997405e-38 312 278
-0.0089595336 0.73000002 -0.048637468 1.344459e-38 313 278
-0.0076795998 0.73000002 -0.048637468 1.3995227e-38 314 278
-0.006408433 0.73100001 -0.048704091 1.3718645e-38 315 278
-0.0051267464 0.73100001 -0.048704091 1.3534256e-38 316 278
-0.00384506 0.73100001 -0.048704091 1.3349868e-38 317 278
-0.0025703865 0.73299998 -0.048837345 1.3165838e-38 318 278
-0.0012851933 0.73299998 -0.048837345 1.3073285e-38 319 278
0 0.73400003 -0.048903972 1.2704149e-38 320 278
0.0012869467 0.73400003 -0.048903972 1.2427926e-38 321 278
0.0025738934 0.73400003 -0.048903972 1.224282e-38 322 278
0.0038608401 0.73400003 -0.048903972 1.224282e-38 323 278
0.0051477868 0.73400003 -0.048903972 1.224282e-38 324 278
0.0064522666 0.736 -0.049037226 1.2335014e-38 325 278
0.0077427197 0.736 -0.049037226 1.2151702e-38 326 278
0.0090331733 0.736 -0.049037226 1.2151702e-38 327 278
0.010351679 0.73799998 -0.049170475 1.2337884e-38 328 278
0.01166142 0.73900002 -0.049237106 1.2430078e-38 329 278
0.012957133 0.73900002 -0.049237106 1.2980732e-38 330 278
0.014252847 0.73900002 -0.049237106 1.2888538e-38 331 278
0.01559064 0.741 -0.049370356 1.2980732e-38 332 278
0.016889861 0.741 -0.049370356 1.2980732e-38 333 278
0.018213626 0.74199998 -0.049436983 1.2517967e-38 334 278
0.0195146 0.74199998 -0.049436983 1.3900891e-38 335 278
0.020815572 0.74199998 -0.049436983 1.5017009e-38 336 278
-0.020478934 0.73000002 -0.0499174 5.1557526e-39 304 279
-0.019199001 0.73000002 -0.0499174 4.9710026e-39 305 279
-0.017869972 0.72799999 -0.049780637 4.4199854e-39 306 279
-0.016593546 0.72799999 -0.049780637 4.0508442e-39 307 279
-0.01531712 0.72799999 -0.049780637 3.6827833e-39 308 279
-0.014040692 0.72799999 -0.049780637 3.2221653e-39 309 279
-0.012764266 0.72799999 -0.049780637 1.8456782e-39 310 279
-0.01148784 0.72799999 -0.049780637 5.5331195e-39 311 279
-0.010211413 0.72799999 -0.049780637 1.2246415e-38 312 279
-0.0089595336 0.73000002 -0.0499174 1.2061665e-38 313 279
-0.0076795998 0.73000002 -0.0499174 1.288782e-38 314 279
-0.006408433 0.73100001 -0.049985781 1.2518685e-38 315 279
-0.0051267464 0.73100001 -0.049985781 1.2151702e-38 316 279
-0.00384506 0.73100001 -0.049985781 1.2059507e-38 317 279
-0.0025703865 0.73299998 -0.050122537 1.2149908e-38 318 279
-0.0012851933 0.73299998 -0.050122537 1.2057355e-38 319 279
0 0.73400003 -0.050190922 1.1782566e-38 320 279
0.0012869467 0.73400003 -0.050190922 1.2059507e-38 321 279
0.0025738934 0.73400003 -0.050190922 1.224282e-38 322 279
0.0038608401 0.73400003 -0.050190922 1.2335014e-38 323 279
0.0051477868 0.73400003 -0.050190922 1.2335731e-38 324 279
0.0064522666 0.736 -0.050327681 1.2335731e-38 325 279
0.0077427197 0.736 -0.050327681 1.2244972e-38 326 279
0.0090577193 0.73799998 -0.050464436 1.2244972e-38 327 279
0.010365707 0.73900002 -0.050532822 1.2337166e-38 328 279
0.01166142 0.73900002 -0.050532822 1.2521196e-38 329 279
0.0129922 0.741 -0.050669577 1.2980015e-38 330 279
0.01429142 0.741 -0.050669577 1.3164403e-38 331 279
0.01559064 0.741 -0.050669577 1.2981091e-38 332 279
0.016912652 0.74199998 -0.050737958 1.3073285e-38 333 279
0.018213626 0.74199998 -0.050737958 1.2703073e-38 334 279
0.0195146 0.74199998 -0.050737958 1.4086004e-38 335 279
-0.017845426 0.727 -0.050986931 4.3281401e-39 306 280
-0.016570752 0.727 -0.050986931 4.0511945e-39 307 280
-0.015296079 0.727 -0.050986931 3.1321277e-39 308 280
-0.014021406 0.727 -0.050986931 3.039932e-39 309 280
-0.012746733 0.727 -0.050986931 2.8547925e-39 310 280
-0.01148784 0.72799999 -0.051057063 5.7128444e-39 311 280
-0.010211413 0.72799999 -0.051057063 1.1049684e-38 312 280
-0.0089595336 0.73000002 -0.051197331 1.0957488e-38 313 280
-0.0076795998 0.73000002 -0.051197331 1.1967672e-38 314 280
-0.0063996664 0.73000002 -0.051197331 1.1967672e-38 315 280
-0.0051197335 0.73000002 -0.051197331 1.2059507e-38 316 280
-0.00384506 0.73100001 -0.051267464 1.1966954e-38 317 280
-0.0025703865 0.73299998 -0.051407732 1.2059507e-38 318 280
-0.0012851933 0.73299998 -0.051407732 1.2059507e-38 319 280
0 0.73400003 -0.051477864 1.2151702e-38 320 280
0.0012869467 0.73400003 -0.051477864 1.2151702e-38 321 280
0.0025738934 0.73400003 -0.051477864 1.233609e-38 322 280
0.0038608401 0.73400003 -0.051477864 1.2428284e-38 323 280
0.005161813 0.736 -0.051618133 1.2520478e-38 324 280
0.0064522666 0.736 -0.051618133 1.2520478e-38 325 280
0.0077637597 0.73799998 -0.051758397 1.2520478e-38 326 280
0.0090577193 0.73799998 -0.051758397 1.2520478e-38 327 280
0.010365707 0.73900002 -0.051828533 1.2796344e-38 328 280
0.01169298 0.741 -0.051968798 1.2888538e-38 329 280
0.0129922 0.741 -0.051968798 1.2980732e-38 330 280
0.014310705 0.74199998 -0.05203893 1.3073285e-38 331 280
0.015611678 0.74199998 -0.05203893 1.2797779e-38 332 280
0.016912652 0.74199998 -0.05203893 1.2797779e-38 333 280
-0.017845426 0.727 -0.052261602 3.9651155e-39 306 281
-0.016525166 0.72500002 -0.052117832 2.858768e-39 307 281
-0.015254001 0.72500002 -0.052117832 3.2239576e-39 308 281
-0.014021406 0.727 -0.052261602 3.1317619e-39 309 281
-0.012746733 0.727 -0.052261602 2.7636745e-39 310 281
-0.01148784 0.72799999 -0.052333489 5.3451409e-39 311 281
-0.010211413 0.72799999 -0.052333489 1.012881e-38 312 281
-0.0089595336 0.73000002 -0.052477267 1.0497233e-38 313 281
-0.0076795998 0.73000002 -0.052477267 1.1692165e-38 314 281
-0.0063996664 0.73000002 -0.052477267 1.1692165e-38 315 281
-0.0051197335 0.73000002 -0.052477267 1.2060225e-38 316 281
-0.00384506 0.73100001 -0.052549154 1.2152419e-38 317 281
-0.0025703865 0.73299998 -0.052692924 1.2244972e-38 318 281
-0.0012851933 0.73299998 -0.052692924 1.2244972e-38 319 281
0 0.73400003 -0.052764814 1.2153136e-38 320 281
0.0012869467 0.73400003 -0.052764814 1.2153136e-38 321 281
0.0025738934 0.73400003 -0.052764814 1.2520478e-38 322 281
0.0038713599 0.736 -0.052908584 1.2613031e-38 323 281
0.005161813 0.736 -0.052908584 1.2705226e-38 324 281
0.0064522666 0.736 -0.052908584 1.2705226e-38 325 281
0.0077637597 0.73799998 -0.053052358 1.2705226e-38 326 281
0.0090699932 0.73900002 -0.053124249 1.2705226e-38 327 281
0.010393759 0.741 -0.053268019 1.2888538e-38 328 281
-0.017845426 0.727 -0.053536277 4.603648e-39 306 282
-0.016525166 0.72500002 -0.053388998 4.3270611e-39 307 282
-0.015254001 0.72500002 -0.053388998 3.1321179e-39 308 282
-0.014021406 0.727 -0.053536277 3.1321179e-39 309 282
-0.012746733 0.727 -0.053536277 2.3052144e-39 310 282
-0.01148784 0.72799999 -0.053609919 4.9788793e-39 311 282
-0.010211413 0.72799999 -0.053609919 1.0955337e-38 312 282
-0.0089595336 0.73000002 -0.053757198 1.1140087e-38 313 282
-0.0076795998 0.73000002 -0.053757198 1.1692883e-38 314 282
-0.0063996664 0.73000002 -0.053757198 1.1877271e-38 315 282
-0.0051197335 0.73000002 -0.053757198 1.2152419e-38 316 282
-0.00384506 0.73100001 -0.053830836 1.2244972e-38 317 282
-0.0025703865 0.73299998 -0.053978115 1.2520478e-38 318 282
-0.0012851933 0.73299998 -0.053978115 1.2613031e-38 319 282
0 0.73400003 -0.054051761 1.2796344e-38 320 282
0.0012869467 0.73400003 -0.054051761 1.2704149e-38 321 282
0.0025738934 0.73400003 -0.054051761 1.2796344e-38 322 282
0.0038713599 0.736 -0.05419904 1.2888538e-38 323 282
0.005161813 0.736 -0.05419904 1.2705226e-38 324 282
0.0064697997 0.73799998 -0.054346316 1.279742e-38 325 282
-0.016525166 0.72500002 -0.054660168 4.5100062e-39 307 283
-0.015254001 0.72500002 -0.054660168 3.3154301e-39 308 283
-0.014021406 0.727 -0.054810952 3.2232345e-39 309 283
-0.012746733 0.727 -0.054810952 2.3963325e-39 310 283
-0.01148784 0.72799999 -0.054886345 5.0699931e-39 311 283
-0.010211413 0.72799999 -0.054886345 1.1415948e-38 312 283
-0.0089595336 0.73000002 -0.055037133 1.1692537e-38 313 283
-0.0076795998 0.73000002 -0.055037133 1.1969824e-38 314 283
-0.006408433 0.73100001 -0.055112526 1.2062018e-38 315 283
-0.0051267464 0.73100001 -0.055112526 1.2337525e-38 316 283
-0.0038555798 0.73299998 -0.055263311 1.2521555e-38 317 283
-0.0025703865 0.73299998 -0.055263311 1.2705226e-38 318 283
-0.0012869467 0.73400003 -0.055338707 1.2705226e-38 319 283
0 0.73400003 -0.055338707 1.2705226e-38 320 283
0.0012869467 0.73400003 -0.055338707 1.2705226e-38 321 283
0.0025738934 0.73400003 -0.055338707 1.2705226e-38 322 283
0.0038713599 0.736 -0.055489492 1.2705226e-38 323 283
0.005161813 0.736 -0.055489492 1.2613031e-38 324 283
-0.014021406 0.727 -0.056085624 3.1310389e-39 309 284
-0.012746733 0.727 -0.056085624 2.0286318e-39 310 284
-0.01148784 0.72799999 -0.056162767 4.9792324e-39 311 284
-0.010211413 0.72799999 -0.056162767 1.1417029e-38 312 284
-0.0089595336 0.73000002 -0.056317069 1.1693256e-38 313 284
-0.0076795998 0.73000002 -0.056317069 1.2338601e-38 314 284
-0.006408433 0.73100001 -0.056394216 1.2338601e-38 315 284
-0.0051267464 0.73100001 -0.056394216 1.2613031e-38 316 284
-0.0038555798 0.73299998 -0.056548502 1.2705226e-38 317 284
-0.0025703865 0.73299998 -0.056548502 1.2705226e-38 318 284
-0.0012869467 0.73400003 -0.056625653 1.2613031e-38 319 284
0 0.73400003 -0.056625653 1.2796344e-38 320 284
0.0012869467 0.73400003 -0.056625653 1.2519761e-38 321 284
-0.012764266 0.72799999 -0.057439197 2.9448343e-39 310 285
-0.01148784 0.72799999 -0.057439197 5.8950721e-39 311 285
-0.010239467 0.73000002 -0.057597004 1.1509943e-38 312 285
-0.0089595336 0.73000002 -0.057597004 1.178617e-38 313 285
-0.0076795998 0.73000002 -0.057597004 1.2154571e-38 314 285
-0.006408433 0.73100001 -0.057675898 1.2154571e-38 315 285
-0.0051267464 0.73100001 -0.057675898 1.2613031e-38 316 285
-0.012764266 0.72799999 -0.058715623 4.6014606e-39 310 286
-0.01148784 0.72799999 -0.058715623 6.5375506e-39 311 286
