# .PCD v.7 - Point Cloud Data file format
FIELDS x y z rgb imX imY
SIZE 4 4 4 4 4 4
TYPE F F F F F F
COUNT 1 1 1 1 1 1
WIDTH 838
HEIGHT 1
VIEWPOINT 0 0 0 1 0 0 0
POINTS 838
DATA ascii
-0.052691177 0.68300003 -0.023950534 4.6983772e-39 276 260
-0.051493648 0.68300003 -0.023950534 4.7909315e-39 277 260
-0.050369758 0.68400002 -0.0239856 4.5154209e-39 278 260
-0.049314249 0.68599999 -0.024055731 4.5154209e-39 279 260
-0.048111461 0.68599999 -0.024055731 4.5154209e-39 280 260
-0.046977058 0.68699998 -0.024090799 4.5154209e-39 281 260
-0.045772515 0.68699998 -0.024090799 4.4228693e-39 282 260
-0.0447626 0.69 -0.024195999 4.5150649e-39 283 260
-0.043615919 0.69099998 -0.024231065 4.1477243e-39 284 260
-0.042404365 0.69099998 -0.024231065 4.1477243e-39 285 260
-0.041192811 0.69099998 -0.024231065 4.3303177e-39 286 260
-0.04009698 0.69300002 -0.024301201 4.3303177e-39 287 260
-0.038938027 0.69400001 -0.024336265 4.0555259e-39 288 260
-0.037829921 0.69599998 -0.0244064 4.0555259e-39 289 260
-0.036662199 0.69700003 -0.024441468 3.9644121e-39 290 260
-0.035490975 0.69800001 -0.024476532 4.0566077e-39 291 260
-0.034365334 0.69999999 -0.024546666 3.9651338e-39 292 260
-0.033137999 0.69999999 -0.024546666 3.9651338e-39 293 260
-0.031956252 0.70099998 -0.024581732 4.1488089e-39 294 260
-0.030814834 0.70300001 -0.024651866 4.1488089e-39 295 260
-0.029582238 0.70300001 -0.024651866 4.6079864e-39 296 260
-0.028389972 0.704 -0.024686933 4.6079864e-39 297 260
-0.027232772 0.70599997 -0.024757065 4.5157866e-39 298 260
-0.026068559 0.708 -0.024827199 4.6079836e-39 299 260
-0.024897331 0.70999998 -0.024897331 4.5161397e-39 300 260
-0.023685781 0.71100003 -0.024932399 4.6083368e-39 301 260
-0.022439159 0.71100003 -0.024932399 4.5161397e-39 302 260
-0.021252153 0.713 -0.025002534 4.5161397e-39 303 260
-0.020030079 0.71399999 -0.025037598 4.3317527e-39 304 260
-0.0188308 0.71600002 -0.025107734 4.239557e-39 305 260
-0.017575413 0.71600002 -0.025107734 4.1473614e-39 306 260
-0.016320027 0.71600002 -0.025107734 4.1473614e-39 307 260
-0.01506464 0.71600002 -0.025107734 4.1473586e-39 308 260
-0.013828539 0.71700001 -0.0251428 4.1473586e-39 309 260
-0.0125714 0.71700001 -0.0251428 4.055879e-39 310 260
-0.01134582 0.71899998 -0.025212931 4.055879e-39 311 260
-0.010085173 0.71899998 -0.025212931 4.0558818e-39 312 260
-0.0088367993 0.72000003 -0.025248 4.0558818e-39 313 260
-0.0075954394 0.722 -0.025318133 4.3310268e-39 314 260
-0.0063295332 0.722 -0.025318133 4.3310268e-39 315 260
-0.0050706398 0.72299999 -0.025353199 4.1473586e-39 316 260
-0.0038029798 0.72299999 -0.025353199 4.055163e-39 317 260
-0.0025423334 0.72500002 -0.025423333 4.0544469e-39 318 260
-0.0012711667 0.72500002 -0.025423333 4.238478e-39 319 260
0 0.72500002 -0.025423333 3.8714948e-39 320 260
0.0012711667 0.72500002 -0.025423333 3.8714948e-39 321 260
0.0025493465 0.727 -0.025493465 3.8725696e-39 322 260
0.0038240198 0.727 -0.025493465 3.780374e-39 323 260
0.0051057064 0.72799999 -0.025528532 3.780374e-39 324 260
0.0063821329 0.72799999 -0.025528532 3.6878196e-39 325 260
0.0076795998 0.73000002 -0.025598666 3.8704144e-39 326 260
0.0089595336 0.73000002 -0.025598666 3.9626114e-39 327 260
0.010239467 0.73000002 -0.025598666 3.9618911e-39 328 260
0.011519399 0.73000002 -0.025598666 4.0544469e-39 329 260
0.012816866 0.73100001 -0.025633732 3.6871021e-39 330 260
0.014098554 0.73100001 -0.025633732 3.7792992e-39 331 260
0.015422319 0.73299998 -0.025703866 3.961894e-39 332 260
0.016707512 0.73299998 -0.025703866 3.7775027e-39 333 260
0.018017253 0.73400003 -0.025738932 3.7775027e-39 334 260
0.019304199 0.73400003 -0.025738932 3.6849483e-39 335 260
0.020647252 0.736 -0.025809066 3.5927555e-39 336 260
0.021937706 0.736 -0.025809066 3.4087244e-39 337 260
0.023291279 0.73799998 -0.025879199 3.0413796e-39 338 260
0.024585238 0.73799998 -0.025879199 3.0413796e-39 339 260
0.025914267 0.73900002 -0.025914267 3.1339325e-39 340 260
0.027209979 0.73900002 -0.025914267 3.1339325e-39 341 260
0.028582839 0.741 -0.025984399 3.4087216e-39 342 260
0.029882059 0.741 -0.025984399 3.3165245e-39 343 260
0.031223357 0.74199998 -0.026019465 3.3165273e-39 344 260
0.032524332 0.74199998 -0.026019465 3.223973e-39 345 260
0.033825304 0.74199998 -0.026019465 3.0410167e-39 346 260
0.03512628 0.74199998 -0.026019465 2.9484623e-39 347 260
0.036525439 0.74400002 -0.026089599 2.8573415e-39 348 260
0.03793161 0.74599999 -0.026159734 2.7651458e-39 349 260
0.039239597 0.74599999 -0.026159734 2.8562695e-39 350 260
0.040601939 0.74699998 -0.026194798 2.8562695e-39 351 260
0.041911677 0.74699998 -0.026194798 2.7644396e-39 352 260
0.04333714 0.74900001 -0.026264934 2.5804084e-39 353 260
0.044650383 0.74900001 -0.026264934 2.5804056e-39 354 260
0.046024997 0.75 -0.0263 2.7644368e-39 355 260
0.047339998 0.75 -0.0263 2.8562667e-39 356 260
0.048784744 0.75199997 -0.02637013 2.764071e-39 357 260
0.050236505 0.75400001 -0.026440267 2.5811119e-39 358 260
0.051558517 0.75400001 -0.026440267 2.4889163e-39 359 260
0.052950665 0.755 -0.026475333 2.3970808e-39 360 260
0.054274432 0.755 -0.026475333 2.3970808e-39 361 260
0.055598196 0.755 -0.026475333 2.5807616e-39 362 260
0.056921966 0.755 -0.026475333 2.7647927e-39 363 260
0.058245733 0.755 -0.026475333 3.0431789e-39 364 260
0.059727304 0.75700003 -0.026545467 3.41196e-39 365 260
0.061215881 0.759 -0.026615599 3.4101593e-39 366 260
0.062546656 0.759 -0.026615599 3.1339325e-39 367 260
0.063877434 0.759 -0.026615599 3.1317774e-39 368 260
0.065208219 0.759 -0.026615599 2.1179856e-39 369 260
0.066714332 0.76099998 -0.026685731 3.2236072e-39 370 260
0.068048611 0.76099998 -0.026685731 8.6627893e-39 371 260
0.069200553 0.759 -0.026615599 1.7420636e-38 372 260
0.070531338 0.759 -0.026615599 1.9725887e-38 373 260
-0.092388391 0.667 -0.024558939 5.3397655e-39 241 261
-0.091218919 0.667 -0.024558939 4.9738753e-39 242 261
-0.090049446 0.667 -0.024558939 5.3430179e-39 243 261
-0.088879973 0.667 -0.024558939 5.1604343e-39 244 261
-0.087578997 0.66600001 -0.02452212 5.25263e-39 245 261
-0.086411275 0.66600001 -0.02452212 5.4366513e-39 246 261
-0.08524356 0.66600001 -0.02452212 5.4366513e-39 247 261
-0.084075838 0.66600001 -0.02452212 5.5274022e-39 248 261
-0.082908116 0.66600001 -0.02452212 5.3430123e-39 249 261
-0.081863128 0.667 -0.024558939 5.0682261e-39 250 261
-0.080693655 0.667 -0.024558939 4.9756717e-39 251 261
-0.079524182 0.667 -0.024558939 4.8831258e-39 252 261
-0.078472182 0.66799998 -0.02459576 4.7909287e-39 253 261
-0.077532403 0.67000002 -0.024669399 4.7909315e-39 254 261
-0.076357663 0.67000002 -0.024669399 4.6983772e-39 255 261
-0.07518293 0.67000002 -0.024669399 4.5157866e-39 256 261
-0.074008204 0.67000002 -0.024669399 4.3317555e-39 257 261
-0.072833464 0.67000002 -0.024669399 4.2399256e-39 258 261
-0.071765684 0.671 -0.024706218 4.0551756e-39 259 261
-0.0705892 0.671 -0.024706218 3.7807495e-39 260 261
-0.069412716 0.671 -0.024706218 3.7807495e-39 261 261
-0.068337917 0.67199999 -0.024743039 2.2134336e-39 262 261
-0.067359567 0.67400002 -0.024816679 1.107086e-39 263 261
-0.066275999 0.67500001 -0.0248535 9.6791188e-39 264 261
-0.065188929 0.676 -0.024890319 1.5210496e-38 265 261
-0.064003684 0.676 -0.024890319 1.5480214e-38 266 261
-0.063004278 0.67799997 -0.024963958 1.0132509e-38 267 261
-0.061906695 0.67900002 -0.025000781 3.8628432e-39 268 261
-0.060716182 0.67900002 -0.025000781 4.5082126e-39 269 261
-0.059613332 0.68000001 -0.025037598 4.6976583e-39 270 261
-0.058421064 0.68000001 -0.025037598 4.7902127e-39 271 261
-0.057228796 0.68000001 -0.025037598 4.2402731e-39 272 261
-0.056036532 0.68000001 -0.025037598 4.1480775e-39 273 261
-0.054844268 0.68000001 -0.025037598 4.239557e-39 274 261
-0.053809796 0.68199998 -0.025111238 4.3317527e-39 275 261
-0.052614026 0.68199998 -0.025111238 4.4228721e-39 276 261
-0.051493648 0.68300003 -0.02514806 4.4228721e-39 277 261
-0.05029612 0.68300003 -0.02514806 4.2392011e-39 278 261
-0.049314249 0.68599999 -0.025258519 4.2392011e-39 279 261
-0.048111461 0.68599999 -0.025258519 4.1477243e-39 280 261
-0.046977058 0.68699998 -0.025295338 4.1477243e-39 281 261
-0.045772515 0.68699998 -0.025295338 4.0555315e-39 282 261
-0.044632856 0.68800002 -0.02533216 4.1477271e-39 283 261
-0.043552797 0.69 -0.025405798 4.1477243e-39 284 261
-0.042342998 0.69 -0.025405798 4.0555287e-39 285 261
-0.041192811 0.69099998 -0.025442619 4.0555287e-39 286 261
-0.039981257 0.69099998 -0.025442619 4.0555287e-39 287 261
-0.03888192 0.69300002 -0.02551626 4.0555287e-39 288 261
-0.037829921 0.69599998 -0.025626717 4.0555287e-39 289 261
-0.036662199 0.69700003 -0.025663542 3.9644121e-39 290 261
-0.035440128 0.69700003 -0.025663542 3.9644121e-39 291 261
-0.034267146 0.69800001 -0.025700359 3.7807439e-39 292 261
-0.033043321 0.69800001 -0.025700359 3.7807439e-39 293 261
-0.031910665 0.69999999 -0.025773998 4.147374e-39 294 261
-0.030814834 0.70300001 -0.025884461 4.147374e-39 295 261
-0.029582238 0.70300001 -0.025884461 4.2395696e-39 296 261
-0.028389972 0.704 -0.02592128 4.3317653e-39 297 261
-0.027232772 0.70599997 -0.025994917 4.3321184e-39 298 261
-0.026068559 0.708 -0.026068559 4.2399228e-39 299 261
-0.024897331 0.70999998 -0.026142199 4.0569636e-39 300 261
-0.023652466 0.70999998 -0.026142199 4.0569636e-39 301 261
-0.022407599 0.70999998 -0.026142199 4.1477243e-39 302 261
-0.021192541 0.71100003 -0.026179021 4.1477243e-39 303 261
-0.020002026 0.713 -0.026252659 4.1470083e-39 304 261
-0.018778199 0.71399999 -0.026289478 4.1470083e-39 305 261
-0.017526319 0.71399999 -0.026289478 4.0555287e-39 306 261
-0.016320027 0.71600002 -0.026363119 4.0555287e-39 307 261
-0.01506464 0.71600002 -0.026363119 4.1473614e-39 308 261
-0.013809253 0.71600002 -0.026363119 4.0551658e-39 309 261
-0.0125714 0.71700001 -0.02639994 3.8714976e-39 310 261
-0.01131426 0.71700001 -0.02639994 3.8714976e-39 311 261
-0.010085173 0.71899998 -0.02647358 3.8714976e-39 312 261
-0.0088245263 0.71899998 -0.02647358 3.8714976e-39 313 261
-0.0075743999 0.72000003 -0.026510401 3.9626114e-39 314 261
-0.0063295332 0.722 -0.026584039 3.9626114e-39 315 261
-0.0050636264 0.722 -0.026584039 3.9626142e-39 316 261
-0.0038029798 0.72299999 -0.026620859 4.0548098e-39 317 261
-0.0025353199 0.72299999 -0.026620859 4.0548098e-39 318 261
-0.0012676599 0.72299999 -0.026620859 4.0548098e-39 319 261
0 0.72500002 -0.026694499 4.1473614e-39 320 261
0.0012711667 0.72500002 -0.026694499 4.1473614e-39 321 261
0.0025423334 0.72500002 -0.026694499 3.6878252e-39 322 261
0.0038240198 0.727 -0.026768139 3.5034339e-39 323 261
0.0051057064 0.72799999 -0.026804959 3.5945534e-39 324 261
0.0063821329 0.72799999 -0.026804959 3.5945534e-39 325 261
0.0076585598 0.72799999 -0.026804959 3.5945562e-39 326 261
0.0089595336 0.73000002 -0.026878599 3.5020018e-39 327 261
0.010239467 0.73000002 -0.026878599 3.4112411e-39 328 261
0.011519399 0.73000002 -0.026878599 3.5034367e-39 329 261
0.012799333 0.73000002 -0.026878599 3.6871049e-39 330 261
0.014079267 0.73000002 -0.026878599 3.6871049e-39 331 261
0.01538024 0.73100001 -0.026915418 3.4112383e-39 332 261
0.016707512 0.73299998 -0.026989058 3.3190427e-39 333 261
0.018017253 0.73400003 -0.02702588 3.5927527e-39 334 261
0.019304199 0.73400003 -0.02702588 3.4087216e-39 335 261
0.020647252 0.736 -0.02709952 3.2246918e-39 336 261
0.021937706 0.736 -0.02709952 2.9484651e-39 337 261
0.023291279 0.73799998 -0.027173158 2.6733201e-39 338 261
0.024585238 0.73799998 -0.027173158 2.5811245e-39 339 261
0.025914267 0.73900002 -0.027209979 2.5818434e-39 340 261
0.027209979 0.73900002 -0.027209979 2.5818434e-39 341 261
0.028582839 0.741 -0.027283618 2.8566352e-39 342 261
0.029882059 0.741 -0.027283618 2.8566352e-39 343 261
0.031223357 0.74199998 -0.027320439 2.8569911e-39 344 261
0.032524332 0.74199998 -0.027320439 2.8569911e-39 345 261
0.033825304 0.74199998 -0.027320439 2.8562723e-39 346 261
0.035220962 0.74400002 -0.027394081 2.7637179e-39 347 261
0.036525439 0.74400002 -0.027394081 3.0395817e-39 348 261
0.03793161 0.74599999 -0.027467718 3.0395817e-39 349 261
0.039239597 0.74599999 -0.027467718 2.5804056e-39 350 261
0.040601939 0.74699998 -0.027504537 2.48821e-39 351 261
0.041911677 0.74699998 -0.027504537 2.48821e-39 352 261
0.04333714 0.74900001 -0.027578179 2.5804056e-39 353 261
0.044650383 0.74900001 -0.027578179 2.5807616e-39 354 261
0.046024997 0.75 -0.027615 2.7647927e-39 355 261
0.047339998 0.75 -0.027615 2.764071e-39 356 261
0.048784744 0.75199997 -0.027688639 2.6718754e-39 357 261
0.050236505 0.75400001 -0.027762281 2.6722285e-39 358 261
0.051558517 0.75400001 -0.027762281 2.6722285e-39 359 261
0.052950665 0.755 -0.027799098 2.2130482e-39 360 261
0.054274432 0.755 -0.027799098 2.3970808e-39 361 261
0.055598196 0.755 -0.027799098 4.4203512e-39 362 261
0.056921966 0.755 -0.027799098 5.2501132e-39 363 261
0.058245733 0.755 -0.027799098 6.9975072e-39 364 261
0.059569497 0.755 -0.027799098 6.6290848e-39 365 261
0.061215881 0.759 -0.027946379 5.1568246e-39 366 261
0.062546656 0.759 -0.027946379 4.6036508e-39 367 261
0.063877434 0.759 -0.027946379 3.8689795e-39 368 261
0.065208219 0.759 -0.027946379 3.4076412e-39 369 261
0.066538997 0.759 -0.027946379 1.7513638e-39 370 261
-0.092249878 0.66600001 -0.02568984 6.6294085e-39 241 262
-0.091082163 0.66600001 -0.02568984 5.0621024e-39 242 262
-0.089914441 0.66600001 -0.02568984 5.3390494e-39 243 262
-0.088746719 0.66600001 -0.02568984 5.5259771e-39 244 262
-0.087578997 0.66600001 -0.02568984 5.6181727e-39 245 262
-0.086411275 0.66600001 -0.02568984 5.0685918e-39 246 262
-0.08524356 0.66600001 -0.02568984 5.0685918e-39 247 262
-0.084075838 0.66600001 -0.02568984 5.2511824e-39 248 262
-0.082908116 0.66600001 -0.02568984 5.0667912e-39 249 262
-0.081740394 0.66600001 -0.02568984 4.7909259e-39 250 262
-0.08057268 0.66600001 -0.02568984 4.6987303e-39 251 262
-0.079524182 0.667 -0.025728412 4.6976583e-39 252 262
-0.078354709 0.667 -0.025728412 4.6054627e-39 253 262
-0.077185236 0.667 -0.025728412 4.3299548e-39 254 262
-0.076015763 0.667 -0.025728412 4.3299548e-39 255 262
-0.074958503 0.66799998 -0.025766984 4.0548098e-39 256 262
-0.074008204 0.67000002 -0.025844134 4.0548098e-39 257 262
-0.072833464 0.67000002 -0.025844134 3.9622611e-39 258 262
-0.071765684 0.671 -0.025882706 3.8700641e-39 259 262
-0.0705892 0.671 -0.025882706 3.6871161e-39 260 262
-0.069412716 0.671 -0.025882706 3.7796705e-39 261 262
-0.068337917 0.67199999 -0.025921278 2.7658885e-39 262 262
-0.067159683 0.67199999 -0.025921278 8.2978029e-40 263 262
-0.066177815 0.67400002 -0.025998428 6.5473513e-39 264 262
-0.065188929 0.676 -0.026075572 1.3646415e-38 265 262
-0.064003684 0.676 -0.026075572 1.7786922e-38 266 262
-0.062818423 0.676 -0.026075572 1.3269338e-38 267 262
-0.061815511 0.67799997 -0.026152719 4.87557e-39 268 262
-0.060716182 0.67900002 -0.026191294 4.2302006e-39 269 262
-0.059525665 0.67900002 -0.026191294 4.4221504e-39 270 262
-0.058335152 0.67900002 -0.026191294 4.5143461e-39 271 262
-0.057144642 0.67900002 -0.026191294 4.0551658e-39 272 262
-0.056036532 0.68000001 -0.026229866 4.0551658e-39 273 262
-0.054844268 0.68000001 -0.026229866 3.8725696e-39 274 262
-0.053652 0.68000001 -0.026229866 3.8725696e-39 275 262
-0.052614026 0.68199998 -0.026307013 4.1473614e-39 276 262
-0.051418249 0.68199998 -0.026307013 4.1473614e-39 277 262
-0.05029612 0.68300003 -0.026345588 4.2381221e-39 278 262
-0.049170479 0.68400002 -0.02638416 4.3303177e-39 279 262
-0.0479712 0.68400002 -0.02638416 4.1470083e-39 280 262
-0.046908677 0.68599999 -0.026461305 4.1470083e-39 281 262
-0.045705888 0.68599999 -0.026461305 3.8722193e-39 282 262
-0.044567976 0.68699998 -0.026499879 3.8722193e-39 283 262
-0.043426562 0.68800002 -0.026538454 3.8715004e-39 284 262
-0.042220265 0.68800002 -0.026538454 3.8715004e-39 285 262
-0.041133199 0.69 -0.026615599 4.0548127e-39 286 262
-0.039981257 0.69099998 -0.026654173 4.1470083e-39 287 262
-0.03888192 0.69300002 -0.02673132 3.8714976e-39 288 262
-0.037721213 0.69400001 -0.026769891 3.8714976e-39 289 262
-0.036609598 0.69599998 -0.026847038 3.8715004e-39 290 262
-0.035440128 0.69700003 -0.026885614 3.8715004e-39 291 262
-0.034267146 0.69800001 -0.026924185 4.0551756e-39 292 262
-0.033043321 0.69800001 -0.026924185 3.8711445e-39 293 262
-0.031910665 0.69999999 -0.027001332 4.0551756e-39 294 262
-0.030727165 0.70099998 -0.027039904 4.0551756e-39 295 262
-0.029582238 0.70300001 -0.027117053 4.0551784e-39 296 262
-0.028349647 0.70300001 -0.027117053 4.0551784e-39 297 262
-0.027155625 0.704 -0.027155625 4.1470083e-39 298 262
-0.02603174 0.70700002 -0.027271347 4.1470083e-39 299 262
-0.024827199 0.708 -0.027309919 4.1470055e-39 300 262
-0.023585839 0.708 -0.027309919 4.1470055e-39 301 262
-0.022407599 0.70999998 -0.027387066 4.1470055e-39 302 262
-0.021162732 0.70999998 -0.027387066 4.1470055e-39 303 262
-0.020002026 0.713 -0.027502786 4.1470055e-39 304 262
-0.018751899 0.713 -0.027502786 4.1470055e-39 305 262
-0.017526319 0.71399999 -0.02754136 4.0555287e-39 306 262
-0.016274439 0.71399999 -0.02754136 4.0555287e-39 307 262
-0.015022559 0.71399999 -0.02754136 4.0548098e-39 308 262
-0.013809253 0.71600002 -0.027618507 3.9626142e-39 309 262
-0.012553867 0.71600002 -0.027618507 4.0540938e-39 310 262
-0.01131426 0.71700001 -0.027657079 3.9618968e-39 311 262
-0.01005712 0.71700001 -0.027657079 3.8700641e-39 312 262
-0.0088245263 0.71899998 -0.027734226 3.8700641e-39 313 262
-0.0075638802 0.71899998 -0.027734226 3.8700641e-39 314 262
-0.0063120001 0.72000003 -0.027772799 3.6860329e-39 315 262
-0.0050636264 0.722 -0.027849946 3.5945562e-39 316 262
-0.0037977197 0.722 -0.027849946 3.6867518e-39 317 262
-0.0025353199 0.72299999 -0.02788852 3.9622611e-39 318 262
-0.0012676599 0.72299999 -0.02788852 3.9622611e-39 319 262
0 0.72299999 -0.02788852 4.0548127e-39 320 262
0.0012676599 0.72299999 -0.02788852 3.962617e-39 321 262
0.0025353199 0.72299999 -0.02788852 3.6863959e-39 322 262
0.0038240198 0.727 -0.028042812 3.5020046e-39 323 262
0.0050986931 0.727 -0.028042812 3.5012857e-39 324 262
0.0063821329 0.72799999 -0.028081384 3.5012857e-39 325 262
0.0076585598 0.72799999 -0.028081384 3.409809e-39 326 262
0.0089349858 0.72799999 -0.028081384 3.2257779e-39 327 262
0.010239467 0.73000002 -0.028158534 3.5020018e-39 328 262
0.011519399 0.73000002 -0.028158534 3.5020018e-39 329 262
0.012799333 0.73000002 -0.028158534 3.5938345e-39 330 262
0.014079267 0.73000002 -0.028158534 3.5016389e-39 331 262
0.01538024 0.73100001 -0.028197108 3.4101621e-39 332 262
0.016707512 0.73299998 -0.028274251 3.226131e-39 333 262
0.017992707 0.73299998 -0.028274251 3.317242e-39 334 262
0.019304199 0.73400003 -0.028312827 3.225045e-39 335 262
0.020647252 0.736 -0.028389972 3.0410167e-39 336 262
0.021937706 0.736 -0.028389972 2.8562667e-39 337 262
0.023291279 0.73799998 -0.028467119 2.7647927e-39 338 262
0.024585238 0.73799998 -0.028467119 2.7647927e-39 339 262
0.025914267 0.73900002 -0.028505694 2.7647927e-39 340 262
0.027209979 0.73900002 -0.028505694 2.7647927e-39 341 262
0.028582839 0.741 -0.028582839 2.8562695e-39 342 262
0.029882059 0.741 -0.028582839 2.9484651e-39 343 262
0.031223357 0.74199998 -0.028621411 2.9484679e-39 344 262
0.032524332 0.74199998 -0.028621411 2.8562723e-39 345 262
0.033825304 0.74199998 -0.028621411 2.8559163e-39 346 262
0.035220962 0.74400002 -0.02869856 2.8559163e-39 347 262
0.036525439 0.74400002 -0.02869856 2.8562695e-39 348 262
0.03793161 0.74599999 -0.028775707 2.7640738e-39 349 262
0.039292198 0.74699998 -0.028814279 2.7640738e-39 350 262
0.040601939 0.74699998 -0.028814279 2.7640738e-39 351 262
0.041911677 0.74699998 -0.028814279 2.7640738e-39 352 262
0.04333714 0.74900001 -0.028891427 2.7640738e-39 353 262
0.044650383 0.74900001 -0.028891427 2.4892792e-39 354 262
0.046024997 0.75 -0.028929999 2.4892792e-39 355 262
0.047339998 0.75 -0.028929999 2.9477392e-39 356 262
0.048784744 0.75199997 -0.029007144 2.7637081e-39 357 262
0.050236505 0.75400001 -0.029084291 2.7637081e-39 358 262
0.051558517 0.75400001 -0.029084291 2.6711523e-39 359 262
0.052950665 0.755 -0.029122867 2.3959976e-39 360 262
0.054274432 0.755 -0.029122867 3.2253981e-39 361 262
0.055598196 0.755 -0.029122867 7.2751703e-39 362 262
0.056921966 0.755 -0.029122867 8.1052897e-39 363 262
0.058245733 0.755 -0.029122867 8.2860838e-39 364 262
0.059569497 0.755 -0.029122867 7.5485188e-39 365 262
0.061054576 0.75700003 -0.029200014 5.2497391e-39 366 262
0.062546656 0.759 -0.029277159 4.880958e-39 367 262
0.063877434 0.759 -0.029277159 3.9622471e-39 368 262
0.065208219 0.759 -0.029277159 3.7774971e-39 369 262
-0.092249878 0.66600001 -0.026857559 9.5800288e-39 241 263
-0.091082163 0.66600001 -0.026857559 7.0903937e-39 242 263
-0.089914441 0.66600001 -0.026857559 5.7074592e-39 243 263
-0.088746719 0.66600001 -0.026857559 4.6976485e-39 244 263
-0.087578997 0.66600001 -0.026857559 5.2504636e-39 245 263
-0.086411275 0.66600001 -0.026857559 4.6998163e-39 246 263
-0.084987566 0.66399997 -0.026776904 4.6072606e-39 247 263
-0.083823353 0.66399997 -0.026776904 4.6980143e-39 248 263
-0.082908116 0.66600001 -0.026857559 4.6980143e-39 249 263
-0.081740394 0.66600001 -0.026857559 4.6054655e-39 250 263
-0.08057268 0.66600001 -0.026857559 4.4210742e-39 251 263
-0.079404958 0.66600001 -0.026857559 4.2366886e-39 252 263
-0.078237243 0.66600001 -0.026857559 4.0519386e-39 253 263
-0.077185236 0.667 -0.026897885 3.5012857e-39 254 263
-0.076015763 0.667 -0.026897885 3.5012857e-39 255 263
-0.07484629 0.667 -0.026897885 3.4098062e-39 256 263
-0.073787279 0.66799998 -0.026938211 3.4098062e-39 257 263
-0.072833464 0.67000002 -0.027018867 3.5020046e-39 258 263
-0.071658738 0.67000002 -0.027018867 3.5020046e-39 259 263
-0.0705892 0.671 -0.027059194 3.4108852e-39 260 263
-0.069412716 0.671 -0.027059194 3.6874721e-39 261 263
-0.068236224 0.671 -0.027059194 3.685677e-39 262 263
-0.06705974 0.671 -0.027059194 2.3949382e-39 263 263
-0.06598144 0.67199999 -0.027099518 3.6910846e-39 264 263
-0.065092497 0.67500001 -0.027220501 1.0421366e-38 265 263
-0.063909002 0.67500001 -0.027220501 1.6317201e-38 266 263
-0.062725499 0.67500001 -0.027220501 1.4288898e-38 267 263
-0.061633173 0.676 -0.027260827 6.1688255e-39 268 263
-0.060626756 0.67799997 -0.027341479 3.9561304e-39 269 263
-0.059525665 0.67900002 -0.027381808 4.2370361e-39 270 263
-0.058335152 0.67900002 -0.027381808 4.5132643e-39 271 263
-0.057144642 0.67900002 -0.027381808 3.6871049e-39 272 263
-0.055954125 0.67900002 -0.027381808 3.6871049e-39 273 263
-0.054844268 0.68000001 -0.027422134 3.6878252e-39 274 263
-0.053652 0.68000001 -0.027422134 3.6878252e-39 275 263
-0.052459732 0.68000001 -0.027422134 3.8714976e-39 276 263
-0.051418249 0.68199998 -0.027502786 3.8714976e-39 277 263
-0.050222475 0.68199998 -0.027502786 4.237406e-39 278 263
-0.049098592 0.68300003 -0.027543113 4.3296017e-39 279 263
-0.047901068 0.68300003 -0.027543113 3.9622611e-39 280 263
-0.046771921 0.68400002 -0.027583439 4.0544567e-39 281 263
-0.045572639 0.68400002 -0.027583439 4.0544567e-39 282 263
-0.044503104 0.68599999 -0.027664091 3.9622611e-39 283 263
-0.043363437 0.68699998 -0.027704418 3.9622611e-39 284 263
-0.042158898 0.68699998 -0.027704418 3.9622611e-39 285 263
-0.041013971 0.68800002 -0.027744746 3.9622611e-39 286 263
-0.0399234 0.69 -0.027825398 4.0544567e-39 287 263
-0.038769703 0.69099998 -0.027865725 3.9622611e-39 288 263
-0.037666857 0.69300002 -0.027946379 3.9622611e-39 289 263
-0.036504399 0.69400001 -0.027986705 3.9622639e-39 290 263
-0.035440128 0.69700003 -0.028107686 3.9622639e-39 291 263
-0.034218054 0.69700003 -0.028107686 3.8711473e-39 292 263
-0.033043321 0.69800001 -0.028148014 3.7789516e-39 293 263
-0.031819493 0.69800001 -0.028148014 3.8711445e-39 294 263
-0.030727165 0.70099998 -0.028268991 3.7789488e-39 295 263
-0.029582238 0.70300001 -0.028349647 3.7789516e-39 296 263
-0.028349647 0.70300001 -0.028349647 3.7789516e-39 297 263
-0.027155625 0.704 -0.028389972 4.0544567e-39 298 263
-0.025994917 0.70599997 -0.028470624 4.0544567e-39 299 263
-0.024792133 0.70700002 -0.028510952 3.8714976e-39 300 263
-0.023585839 0.708 -0.02855128 3.8714976e-39 301 263
-0.022344479 0.708 -0.02855128 3.7800208e-39 302 263
-0.021162732 0.70999998 -0.028631933 3.7800208e-39 303 263
-0.01994592 0.71100003 -0.028672259 4.0540938e-39 304 263
-0.018751899 0.713 -0.028752912 4.2381249e-39 305 263
-0.017501773 0.713 -0.028752912 4.1470055e-39 306 263
-0.016274439 0.71399999 -0.028793238 4.1470055e-39 307 263
-0.015022559 0.71399999 -0.028793238 4.0544469e-39 308 263
-0.013809253 0.71600002 -0.028873893 4.0544469e-39 309 263
-0.012553867 0.71600002 -0.028873893 3.8704172e-39 310 263
-0.01131426 0.71700001 -0.028914221 3.6863861e-39 311 263
-0.01005712 0.71700001 -0.028914221 3.5938373e-39 312 263
-0.0087999795 0.71700001 -0.028914221 3.5938373e-39 313 263
-0.0075638802 0.71899998 -0.028994869 3.5020046e-39 314 263
-0.0063120001 0.72000003 -0.029035201 3.409809e-39 315 263
-0.0050496003 0.72000003 -0.029035201 3.5012857e-39 316 263
-0.0037872 0.72000003 -0.029035201 3.5934814e-39 317 263
-0.0025318132 0.722 -0.029115854 3.6860329e-39 318 263
-0.0012659066 0.722 -0.029115854 3.8700641e-39 319 263
0 0.722 -0.029115854 3.9615436e-39 320 263
0.0012659066 0.722 -0.029115854 3.869348e-39 321 263
0.0025353199 0.72299999 -0.029156178 3.5020074e-39 322 263
0.0038135003 0.72500002 -0.029236834 3.4098118e-39 323 263
0.0050846669 0.72500002 -0.029236834 3.4090901e-39 324 263
0.0063821329 0.72799999 -0.029357811 3.4090901e-39 325 263
0.0076585598 0.72799999 -0.029357811 3.4090901e-39 326 263
0.0089349858 0.72799999 -0.029357811 3.3168945e-39 327 263
0.010239467 0.73000002 -0.029438468 3.1343011e-39 328 263
0.011519399 0.73000002 -0.029438468 3.0417467e-39 329 263
0.012799333 0.73000002 -0.029438468 3.4083712e-39 330 263
0.014079267 0.73000002 -0.029438468 3.4083712e-39 331 263
0.01538024 0.73100001 -0.029478792 3.2246947e-39 332 263
0.016707512 0.73299998 -0.029559445 3.2246947e-39 333 263
0.017992707 0.73299998 -0.029559445 3.2250478e-39 334 263
0.019304199 0.73400003 -0.029599773 3.0410167e-39 335 263
0.020647252 0.736 -0.029680425 3.1321333e-39 336 263
0.021937706 0.736 -0.029680425 3.0399377e-39 337 263
0.023291279 0.73799998 -0.029761078 2.7647899e-39 338 263
0.024585238 0.73799998 -0.029761078 2.7647899e-39 339 263
0.025914267 0.73900002 -0.029801406 2.8562667e-39 340 263
0.027209979 0.73900002 -0.029801406 2.8562667e-39 341 263
0.028582839 0.741 -0.029882059 3.0399377e-39 342 263
0.029882059 0.741 -0.029882059 3.1321333e-39 343 263
0.031223357 0.74199998 -0.029922385 3.1317774e-39 344 263
0.032524332 0.74199998 -0.029922385 3.0395817e-39 345 263
0.033825304 0.74199998 -0.029922385 2.9473889e-39 346 263
0.035220962 0.74400002 -0.030003037 2.9473889e-39 347 263
0.036525439 0.74400002 -0.030003037 2.7640738e-39 348 263
0.03793161 0.74599999 -0.03008369 2.7640738e-39 349 263
0.039292198 0.74699998 -0.030124018 2.763355e-39 350 263
0.040601939 0.74699998 -0.030124018 2.763355e-39 351 263
0.041911677 0.74699998 -0.030124018 2.6718782e-39 352 263
0.04333714 0.74900001 -0.030204674 2.7640738e-39 353 263
0.044709999 0.75 -0.030244999 2.489282e-39 354 263
0.046024997 0.75 -0.030244999 2.489282e-39 355 263
0.047466237 0.75199997 -0.030325651 2.6718754e-39 356 263
0.048784744 0.75199997 -0.030325651 2.6718754e-39 357 263
0.050236505 0.75400001 -0.030406307 2.6711551e-39 358 263
0.051558517 0.75400001 -0.030406307 2.6711551e-39 359 263
0.052950665 0.755 -0.030446632 2.5796784e-39 360 263
0.054274432 0.755 -0.030446632 4.1470055e-39 361 263
0.055598196 0.755 -0.030446632 6.8185165e-39 362 263
0.056921966 0.755 -0.030446632 5.4355821e-39 363 263
0.058168583 0.75400001 -0.030406307 4.9710026e-39 364 263
0.059490599 0.75400001 -0.030406307 4.8788056e-39 365 263
0.061054576 0.75700003 -0.030527288 4.4207015e-39 366 263
0.062381849 0.75700003 -0.030527288 4.5128985e-39 367 263
-0.091082163 0.66600001 -0.028025279 1.0960798e-38 242 264
-0.089914441 0.66600001 -0.028025279 8.1945706e-39 243 264
-0.088746719 0.66600001 -0.028025279 4.6061535e-39 244 264
-0.087578997 0.66600001 -0.028025279 4.8823803e-39 245 264
-0.086411275 0.66600001 -0.028025279 4.5132643e-39 246 264
-0.084987566 0.66399997 -0.027941117 4.5132643e-39 247 264
-0.083823353 0.66399997 -0.027941117 4.6958605e-39 248 264
-0.08265914 0.66399997 -0.027941117 4.6036634e-39 249 264
-0.081494927 0.66399997 -0.027941117 4.3278024e-39 250 264
-0.080330715 0.66399997 -0.027941117 4.1434111e-39 251 264
-0.079404958 0.66600001 -0.028025279 3.9590269e-39 252 264
-0.078237243 0.66600001 -0.028025279 3.8668313e-39 253 264
-0.077069521 0.66600001 -0.028025279 3.4994837e-39 254 264
-0.076015763 0.667 -0.028067358 3.4994837e-39 255 264
-0.07484629 0.667 -0.028067358 3.4998396e-39 256 264
-0.073787279 0.66799998 -0.028109439 3.5920366e-39 257 264
-0.072616048 0.66799998 -0.028109439 3.4094404e-39 258 264
-0.071658738 0.67000002 -0.028193599 3.5016361e-39 259 264
-0.070483997 0.67000002 -0.028193599 3.4115942e-39 260 264
-0.069412716 0.671 -0.028235679 3.6878224e-39 261 264
-0.068236224 0.671 -0.028235679 3.8711445e-39 262 264
-0.06705974 0.671 -0.028235679 3.2257751e-39 263 264
-0.06598144 0.67199999 -0.02827776 1.0192064e-39 264 264
-0.064996064 0.67400002 -0.02836192 5.8137393e-39 265 264
-0.063909002 0.67500001 -0.028404001 1.539704e-38 266 264
-0.062725499 0.67500001 -0.028404001 1.5212649e-38 267 264
-0.061633173 0.676 -0.028446076 7.9234096e-39 268 264
-0.06044792 0.676 -0.028446076 3.6827707e-39 269 264
-0.059437994 0.67799997 -0.028530238 3.1328367e-39 270 264
-0.058249239 0.67799997 -0.028530238 3.7782061e-39 271 264
-0.057144642 0.67900002 -0.028572321 3.6863861e-39 272 264
-0.055954125 0.67900002 -0.028572321 3.6863861e-39 273 264
-0.054763615 0.67900002 -0.028572321 3.5945534e-39 274 264
-0.053652 0.68000001 -0.028614398 3.5945534e-39 275 264
-0.052459732 0.68000001 -0.028614398 3.686749e-39 276 264
-0.051418249 0.68199998 -0.02869856 3.686749e-39 277 264
-0.050222475 0.68199998 -0.02869856 3.9615408e-39 278 264
-0.049026705 0.68199998 -0.02869856 3.9615408e-39 279 264
-0.047901068 0.68300003 -0.028740639 3.8700669e-39 280 264
-0.046771921 0.68400002 -0.02878272 3.8700669e-39 281 264
-0.045572639 0.68400002 -0.02878272 3.8700641e-39 282 264
-0.044503104 0.68599999 -0.02886688 3.8700641e-39 283 264
-0.043363437 0.68699998 -0.028908957 3.8700613e-39 284 264
-0.042158898 0.68699998 -0.028908957 3.962617e-39 285 264
-0.040954359 0.68699998 -0.028908957 3.778946e-39 286 264
-0.039807681 0.68800002 -0.028951041 3.686749e-39 287 264
-0.038713597 0.69 -0.029035198 3.8700641e-39 288 264
-0.037666857 0.69300002 -0.029161438 3.6860329e-39 289 264
-0.036504399 0.69400001 -0.029203519 3.685677e-39 290 264
-0.035389278 0.69599998 -0.029287677 3.8700669e-39 291 264
-0.034218054 0.69700003 -0.02932976 3.686749e-39 292 264
-0.033043321 0.69800001 -0.029371841 3.686749e-39 293 264
-0.031819493 0.69800001 -0.029371841 3.8704172e-39 294 264
-0.030683333 0.69999999 -0.029455997 3.8704172e-39 295 264
-0.029498078 0.70099998 -0.029498078 3.8693452e-39 296 264
-0.028349647 0.70300001 -0.029582238 3.8693452e-39 297 264
-0.027155625 0.704 -0.029624319 3.6867518e-39 298 264
-0.02592128 0.704 -0.029624319 3.6867518e-39 299 264
-0.024792133 0.70700002 -0.029750559 3.5037899e-39 300 264
-0.023585839 0.708 -0.02979264 3.5037899e-39 301 264
-0.022344479 0.708 -0.02979264 3.5037899e-39 302 264
-0.021162732 0.70999998 -0.029876797 3.5037899e-39 303 264
-0.01994592 0.71100003 -0.029918881 3.8693424e-39 304 264
-0.018751899 0.713 -0.030003037 3.9618968e-39 305 264
-0.017501773 0.713 -0.030003037 3.778946e-39 306 264
-0.016251646 0.713 -0.030003037 3.778946e-39 307 264
-0.015022559 0.71399999 -0.030045118 3.8704144e-39 308 264
-0.01377068 0.71399999 -0.030045118 3.6863833e-39 309 264
-0.012553867 0.71600002 -0.03012928 3.8696983e-39 310 264
-0.01129848 0.71600002 -0.03012928 3.7775027e-39 311 264
-0.01005712 0.71700001 -0.030171359 3.5927583e-39 312 264
-0.0087999795 0.71700001 -0.030171359 3.5927583e-39 313 264
-0.0075638802 0.71899998 -0.030255521 3.3168945e-39 314 264
-0.0063032326 0.71899998 -0.030255521 3.3168945e-39 315 264
-0.0050496003 0.72000003 -0.0302976 3.3168945e-39 316 264
-0.0037872 0.72000003 -0.0302976 3.4090901e-39 317 264
-0.0025318132 0.722 -0.030381758 3.409809e-39 318 264
-0.0012659066 0.722 -0.030381758 3.2257779e-39 319 264
0 0.722 -0.030381758 3.5920492e-39 320 264
0.0012659066 0.722 -0.030381758 3.5920492e-39 321 264
0.0025318132 0.722 -0.030381758 3.2254219e-39 322 264
0.0038029798 0.72299999 -0.030423839 3.2254219e-39 323 264
0.0050846669 0.72500002 -0.030508002 3.1335794e-39 324 264
0.0063821329 0.72799999 -0.030634239 3.0413824e-39 325 264
0.0076585598 0.72799999 -0.030634239 3.3161714e-39 326 264
0.0089349858 0.72799999 -0.030634239 3.2239758e-39 327 264
0.010239467 0.73000002 -0.030718399 2.9491868e-39 328 264
0.011519399 0.73000002 -0.030718399 2.9491868e-39 329 264
0.012799333 0.73000002 -0.030718399 3.0403076e-39 330 264
0.014079267 0.73000002 -0.030718399 2.948112e-39 331 264
0.01538024 0.73100001 -0.03076048 2.9484679e-39 332 264
0.016661927 0.73100001 -0.03076048 2.9484679e-39 333 264
0.017992707 0.73299998 -0.030844638 2.9484651e-39 334 264
0.019304199 0.73400003 -0.030886721 2.8562695e-39 335 264
0.020647252 0.736 -0.030970879 3.0399348e-39 336 264
0.021937706 0.736 -0.030970879 2.9477392e-39 337 264
0.023291279 0.73799998 -0.031055039 2.8566226e-39 338 264
0.024585238 0.73799998 -0.031055039 2.764427e-39 339 264
0.025914267 0.73900002 -0.03109712 2.9477364e-39 340 264
0.027209979 0.73900002 -0.03109712 3.039932e-39 341 264
0.028582839 0.741 -0.03118128 2.8566198e-39 342 264
0.029882059 0.741 -0.03118128 2.9488154e-39 343 264
0.031223357 0.74199998 -0.031223357 2.8562667e-39 344 264
0.032524332 0.74199998 -0.031223357 2.8562667e-39 345 264
0.033825304 0.74199998 -0.031223357 2.9473833e-39 346 264
0.035220962 0.74400002 -0.031307522 2.9473833e-39 347 264
0.036525439 0.74400002 -0.031307522 2.764427e-39 348 264
0.03793161 0.74599999 -0.031391677 2.6718726e-39 349 264
0.039292198 0.74699998 -0.031433757 2.5796784e-39 350 264
0.040601939 0.74699998 -0.031433757 2.5796784e-39 351 264
0.041911677 0.74699998 -0.031433757 2.5796784e-39 352 264
0.04333714 0.74900001 -0.031517919 2.6718754e-39 353 264
0.044709999 0.75 -0.03156 2.4885603e-39 354 264
0.046024997 0.75 -0.03156 2.4885603e-39 355 264
0.047466237 0.75199997 -0.031644158 2.5793224e-39 356 264
0.048784744 0.75199997 -0.031644158 2.3952913e-39 357 264
0.050236505 0.75400001 -0.03172832 2.3952941e-39 358 264
0.051558517 0.75400001 -0.03172832 2.3952941e-39 359 264
0.052950665 0.755 -0.031770397 2.5804056e-39 360 264
0.054274432 0.755 -0.031770397 4.2399256e-39 361 264
0.055598196 0.755 -0.031770397 5.256597e-39 362 264
0.056846574 0.75400001 -0.03172832 3.5970743e-39 363 264
0.058014289 0.75199997 -0.031644158 3.4998396e-39 364 264
0.059332799 0.75199997 -0.031644158 3.5920366e-39 365 264
0.060651302 0.75199997 -0.031644158 3.7774999e-39 366 264
-0.088746719 0.66600001 -0.029192999 6.538645e-39 244 265
-0.087578997 0.66600001 -0.029192999 4.0493714e-39 245 265
-0.086411275 0.66600001 -0.029192999 3.868234e-39 246 265
-0.084987566 0.66399997 -0.02910533 4.5136034e-39 247 265
-0.083823353 0.66399997 -0.02910533 4.4203484e-39 248 265
-0.08265914 0.66399997 -0.02910533 4.5125454e-39 249 265
-0.081494927 0.66399997 -0.02910533 4.1448405e-39 250 265
-0.080330715 0.66399997 -0.02910533 4.0526448e-39 251 265
-0.079166502 0.66399997 -0.02910533 3.6849483e-39 252 265
-0.078002289 0.66399997 -0.02910533 3.5927527e-39 253 265
-0.076838076 0.66399997 -0.02910533 3.5927527e-39 254 265
-0.075673863 0.66399997 -0.02910533 3.5927527e-39 255 265
-0.074734077 0.66600001 -0.029192999 3.4097964e-39 256 265
-0.073676817 0.667 -0.029236831 3.501992e-39 257 265
-0.072616048 0.66799998 -0.029280664 3.3190399e-39 258 265
-0.071658738 0.67000002 -0.029368332 3.3190399e-39 259 265
-0.070483997 0.67000002 -0.029368332 3.4123131e-39 260 265
-0.069309272 0.67000002 -0.029368332 3.4123131e-39 261 265
-0.068236224 0.671 -0.029412165 3.779302e-39 262 265
-0.06705974 0.671 -0.029412165 3.5945506e-39 263 265
-0.065883249 0.671 -0.029412165 1.8800801e-40 264 265
-0.064803198 0.67199999 -0.029455997 3.1382668e-39 265 265
-0.06381432 0.67400002 -0.029543666 1.4566206e-38 266 265
-0.062632568 0.67400002 -0.029543666 1.6133532e-38 267 265
-0.061633173 0.676 -0.029631332 1.0413422e-38 268 265
-0.06044792 0.676 -0.029631332 4.6972926e-39 269 265
-0.059437994 0.67799997 -0.029718997 2.8548205e-39 270 265
-0.058249239 0.67799997 -0.029718997 3.8693326e-39 271 265
-0.057060476 0.67799997 -0.029718997 3.5945506e-39 272 265
-0.055871718 0.67799997 -0.029718997 3.5023549e-39 273 265
-0.054682959 0.67799997 -0.029718997 3.501992e-39 274 265
-0.053573098 0.67900002 -0.029762832 3.5941876e-39 275 265
-0.052459732 0.68000001 -0.029806666 3.6863833e-39 276 265
-0.051267464 0.68000001 -0.029806666 3.8704144e-39 277 265
-0.050075196 0.68000001 -0.029806666 3.9618968e-39 278 265
-0.049026705 0.68199998 -0.029894331 3.8693424e-39 279 265
-0.047830928 0.68199998 -0.029894331 3.8700641e-39 280 265
-0.04670354 0.68300003 -0.029938167 3.8700641e-39 281 265
-0.045572639 0.68400002 -0.029982001 3.6871049e-39 282 265
-0.04437336 0.68400002 -0.029982001 3.6871049e-39 283 265
-0.043300316 0.68599999 -0.030069664 3.6871021e-39 284 265
-0.042158898 0.68699998 -0.030113498 3.7792992e-39 285 265
-0.040954359 0.68699998 -0.030113498 3.779302e-39 286 265
-0.039807681 0.68800002 -0.030157333 3.6871049e-39 287 265
-0.038601387 0.68800002 -0.030157333 3.7771496e-39 288 265
-0.03755815 0.69099998 -0.030288832 3.7771496e-39 289 265
-0.036451802 0.69300002 -0.0303765 3.8693424e-39 290 265
-0.035389278 0.69599998 -0.030507999 3.8693424e-39 291 265
-0.034168959 0.69599998 -0.030507999 3.8696955e-39 292 265
-0.03299598 0.69700003 -0.030551834 3.8696955e-39 293 265
-0.03177391 0.69700003 -0.030551834 3.8700514e-39 294 265
-0.030595668 0.69800001 -0.030595668 3.8700514e-39 295 265
-0.029455997 0.69999999 -0.030683333 4.0530106e-39 296 265
-0.028349647 0.70300001 -0.030814834 4.0530106e-39 297 265
-0.027117053 0.70300001 -0.030814834 3.5945506e-39 298 265
-0.02592128 0.704 -0.030858666 3.5945506e-39 299 265
-0.024792133 0.70700002 -0.030990168 3.5949065e-39 300 265
-0.023552528 0.70700002 -0.030990168 3.5027109e-39 301 265
-0.022344479 0.708 -0.031034 3.5938317e-39 302 265
-0.021162732 0.70999998 -0.031121666 3.5938317e-39 303 265
-0.01994592 0.71100003 -0.031165501 3.6849511e-39 304 265
-0.0186993 0.71100003 -0.031165501 3.7771468e-39 305 265
-0.01745268 0.71100003 -0.031165501 4.0530134e-39 306 265
-0.016251646 0.713 -0.031253166 3.8686235e-39 307 265
-0.015001519 0.713 -0.031253166 3.8689795e-39 308 265
-0.01377068 0.71399999 -0.031296998 3.7767838e-39 309 265
-0.012518799 0.71399999 -0.031296998 3.7767838e-39 310 265
-0.01129848 0.71600002 -0.031384666 3.6845882e-39 311 265
-0.010043093 0.71600002 -0.031384666 3.5920394e-39 312 265
-0.0087999795 0.71700001 -0.031428497 3.4994837e-39 313 265
-0.0075638802 0.71899998 -0.031516165 3.3165273e-39 314 265
-0.0063032326 0.71899998 -0.031516165 3.3165273e-39 315 265
-0.0050496003 0.72000003 -0.03156 3.3165245e-39 316 265
-0.0037872 0.72000003 -0.03156 3.3165245e-39 317 265
-0.0025318132 0.722 -0.031647664 3.3161714e-39 318 265
-0.0012659066 0.722 -0.031647664 3.3161714e-39 319 265
0 0.722 -0.031647664 3.5909632e-39 320 265
0.0012659066 0.722 -0.031647664 3.7749958e-39 321 265
0.0025318132 0.722 -0.031647664 3.1335794e-39 322 265
0.0038029798 0.72299999 -0.031691495 3.1335794e-39 323 265
0.0050846669 0.72500002 -0.031779166 3.2246918e-39 324 265
0.0063821329 0.72799999 -0.031910665 3.2246918e-39 325 265
0.0076585598 0.72799999 -0.031910665 3.1317802e-39 326 265
0.0089349858 0.72799999 -0.031910665 3.2239758e-39 327 265
0.010239467 0.73000002 -0.031998333 2.6733201e-39 328 265
0.011519399 0.73000002 -0.031998333 2.6733201e-39 329 265
0.012799333 0.73000002 -0.031998333 2.8562695e-39 330 265
0.014079267 0.73000002 -0.031998333 2.8562695e-39 331 265
0.01538024 0.73100001 -0.032042164 2.8562695e-39 332 265
0.016661927 0.73100001 -0.032042164 2.8562695e-39 333 265
0.017992707 0.73299998 -0.032129832 2.8562667e-39 334 265
0.019304199 0.73400003 -0.032173667 2.8562667e-39 335 265
0.020647252 0.736 -0.032261331 2.9477364e-39 336 265
0.021937706 0.736 -0.032261331 3.039932e-39 337 265
0.023291279 0.73799998 -0.032348998 2.7644214e-39 338 265
0.024585238 0.73799998 -0.032348998 2.7644214e-39 339 265
0.025914267 0.73900002 -0.032392833 3.2228814e-39 340 265
0.027283618 0.741 -0.032480497 3.2228814e-39 341 265
0.028582839 0.741 -0.032480497 2.7654962e-39 342 265
0.029922385 0.74199998 -0.032524332 2.8576918e-39 343 265
0.031223357 0.74199998 -0.032524332 3.039932e-39 344 265
0.032524332 0.74199998 -0.032524332 3.039932e-39 345 265
0.033916477 0.74400002 -0.032612 2.9477392e-39 346 265
0.03531564 0.74599999 -0.032699663 2.7637081e-39 347 265
0.036623627 0.74599999 -0.032699663 2.6722257e-39 348 265
0.03798246 0.74699998 -0.032743499 2.5800287e-39 349 265
0.039292198 0.74699998 -0.032743499 2.5793098e-39 350 265
0.040601939 0.74699998 -0.032743499 2.5793098e-39 351 265
0.042023893 0.74900001 -0.032831166 2.6715083e-39 352 265
0.043394998 0.75 -0.032874998 2.6715083e-39 353 265
0.044829223 0.75199997 -0.032962665 2.5796756e-39 354 265
0.04614773 0.75199997 -0.032962665 2.5796756e-39 355 265
0.047466237 0.75199997 -0.032962665 2.6711579e-39 356 265
0.048914492 0.75400001 -0.033050332 2.5786036e-39 357 265
0.050303131 0.755 -0.033094164 2.3952913e-39 358 265
0.051626898 0.755 -0.033094164 2.5793224e-39 359 265
0.052950665 0.755 -0.033094164 2.8562667e-39 360 265
0.054274432 0.755 -0.033094164 3.5938317e-39 361 265
0.055598196 0.755 -0.033094164 4.1477243e-39 362 265
0.056846574 0.75400001 -0.033050332 3.779302e-39 363 265
0.057782855 0.74900001 -0.032831166 3.9593744e-39 364 265
0.059096102 0.74900001 -0.032831166 3.6827861e-39 365 265
0.060409348 0.74900001 -0.032831166 3.7760551e-39 366 265
-0.087578997 0.66600001 -0.030360719 8.4643009e-39 245 266
-0.086151779 0.66399997 -0.030269546 4.4174309e-39 246 266
-0.084987566 0.66399997 -0.030269546 5.615967e-39 247 266
-0.083823353 0.66399997 -0.030269546 5.0646234e-39 248 266
-0.08265914 0.66399997 -0.030269546 4.9724277e-39 249 266
-0.081494927 0.66399997 -0.030269546 4.2384584e-39 250 266
-0.080330715 0.66399997 -0.030269546 4.1462628e-39 251 266
-0.079166502 0.66399997 -0.030269546 3.8700458e-39 252 266
-0.078002289 0.66399997 -0.030269546 3.8700458e-39 253 266
-0.076838076 0.66399997 -0.030269546 3.8693326e-39 254 266
-0.075673863 0.66399997 -0.030269546 3.8693326e-39 255 266
-0.074734077 0.66600001 -0.030360719 3.7774971e-39 256 266
-0.073676817 0.667 -0.030406304 3.8700514e-39 257 266
-0.072507344 0.667 -0.030406304 3.3201147e-39 258 266
-0.071444817 0.66799998 -0.030451892 3.4123103e-39 259 266
-0.070483997 0.67000002 -0.030543067 3.3208419e-39 260 266
-0.069309272 0.67000002 -0.030543067 3.2286449e-39 261 266
-0.068134531 0.67000002 -0.030543067 3.6867518e-39 262 266
-0.06705974 0.671 -0.030588651 3.7789488e-39 263 266
-0.065883249 0.671 -0.030588651 9.2234446e-40 264 266
-0.064803198 0.67199999 -0.030634239 9.2234446e-40 265 266
-0.063624956 0.67199999 -0.030634239 1.2445356e-38 266 266
-0.062446721 0.67199999 -0.030634239 1.6409768e-38 267 266
-0.061542001 0.67500001 -0.030771 1.2628287e-38 268 266
-0.06044792 0.676 -0.030816587 6.3586244e-39 269 266
-0.059262663 0.676 -0.030816587 2.3938494e-39 270 266
-0.058077414 0.676 -0.030816587 3.6845882e-39 271 266
-0.057060476 0.67799997 -0.030907756 4.0530134e-39 272 266
-0.055871718 0.67799997 -0.030907756 3.8686235e-39 273 266
-0.054682959 0.67799997 -0.030907756 3.5023577e-39 274 266
-0.053494196 0.67799997 -0.030907756 3.4101621e-39 275 266
-0.052382588 0.67900002 -0.030953348 3.4101621e-39 276 266
-0.051267464 0.68000001 -0.030998932 3.5945534e-39 277 266
-0.050075196 0.68000001 -0.030998932 3.7771496e-39 278 266
-0.049026705 0.68199998 -0.031090107 3.8693452e-39 279 266
-0.047830928 0.68199998 -0.031090107 3.6867518e-39 280 266
-0.04670354 0.68300003 -0.031135695 3.6867518e-39 281 266
-0.045572639 0.68400002 -0.03118128 3.5945506e-39 282 266
-0.04437336 0.68400002 -0.03118128 3.6871049e-39 283 266
-0.043300316 0.68599999 -0.031272452 3.5945534e-39 284 266
-0.042097531 0.68599999 -0.031272452 3.5945534e-39 285 266
-0.040954359 0.68699998 -0.031318039 3.8693452e-39 286 266
-0.039749816 0.68699998 -0.031318039 3.7771496e-39 287 266
-0.038601387 0.68800002 -0.031363625 3.5020018e-39 288 266
-0.03755815 0.69099998 -0.031500384 3.5020018e-39 289 266
-0.036451802 0.69300002 -0.031591557 3.5938373e-39 290 266
-0.035287585 0.69400001 -0.031637147 3.5938373e-39 291 266
-0.034070771 0.69400001 -0.031637147 3.5941876e-39 292 266
-0.032948639 0.69599998 -0.031728316 3.6863833e-39 293 266
-0.03177391 0.69700003 -0.03177391 3.7774971e-39 294 266
-0.030551834 0.69700003 -0.03177391 3.7774971e-39 295 266
-0.029371841 0.69800001 -0.031819493 3.7774999e-39 296 266
-0.028228667 0.69999999 -0.031910665 3.7774999e-39 297 266
-0.027117053 0.70300001 -0.032047424 3.6863833e-39 298 266
-0.025884461 0.70300001 -0.032047424 3.5941876e-39 299 266
-0.024686933 0.704 -0.032093015 3.7774999e-39 300 266
-0.023552528 0.70700002 -0.032229774 3.5931086e-39 301 266
-0.022344479 0.708 -0.03227536 3.5016361e-39 302 266
-0.021103119 0.708 -0.03227536 3.4094404e-39 303 266
-0.01994592 0.71100003 -0.032412119 3.1335794e-39 304 266
-0.0186993 0.71100003 -0.032412119 3.2257751e-39 305 266
-0.01745268 0.71100003 -0.032412119 3.3165386e-39 306 266
-0.01620606 0.71100003 -0.032412119 3.3165386e-39 307 266
-0.015001519 0.713 -0.032503292 3.3168945e-39 308 266
-0.013751393 0.713 -0.032503292 3.3168945e-39 309 266
-0.012518799 0.71399999 -0.032548878 3.5920366e-39 310 266
-0.011266919 0.71399999 -0.032548878 3.4998396e-39 311 266
-0.010043093 0.71600002 -0.032640055 3.4998368e-39 312 266
-0.0087877065 0.71600002 -0.032640055 3.4076412e-39 313 266
-0.0075428397 0.71700001 -0.032685637 3.4076384e-39 314 266
-0.0063032326 0.71899998 -0.032776814 3.4076384e-39 315 266
-0.0050425865 0.71899998 -0.032776814 3.22361e-39 316 266
-0.0037872 0.72000003 -0.0328224 3.22361e-39 317 266
-0.0025318132 0.722 -0.032913569 2.8559163e-39 318 266
-0.0012659066 0.722 -0.032913569 2.8559163e-39 319 266
0 0.722 -0.032913569 3.131427e-39 320 266
0.0012659066 0.722 -0.032913569 3.3158183e-39 321 266
0.0025318132 0.722 -0.032913569 2.7655158e-39 322 266
0.0038029798 0.72299999 -0.032959159 2.7655158e-39 323 266
0.0050846669 0.72500002 -0.033050332 2.9491868e-39 324 266
0.0063821329 0.72799999 -0.033187091 2.9491868e-39 325 266
0.0076585598 0.72799999 -0.033187091 2.9491868e-39 326 266
0.0089349858 0.72799999 -0.033187091 2.7644368e-39 327 266
0.010239467 0.73000002 -0.033278264 2.7647927e-39 328 266
0.011519399 0.73000002 -0.033278264 2.5807616e-39 329 266
0.012799333 0.73000002 -0.033278264 2.5807616e-39 330 266
0.014079267 0.73000002 -0.033278264 2.7647927e-39 331 266
0.01538024 0.73100001 -0.033323854 3.0395817e-39 332 266
0.016661927 0.73100001 -0.033323854 3.0395817e-39 333 266
0.017992707 0.73299998 -0.033415023 3.0399348e-39 334 266
0.019304199 0.73400003 -0.033460613 3.0399348e-39 335 266
0.020647252 0.736 -0.033551786 2.9477364e-39 336 266
0.021997318 0.73799998 -0.033642959 3.039932e-39 337 266
0.023291279 0.73799998 -0.033642959 3.0392132e-39 338 266
0.024585238 0.73799998 -0.033642959 2.9470176e-39 339 266
0.025914267 0.73900002 -0.033688545 2.9470176e-39 340 266
0.027283618 0.741 -0.033779722 3.0392132e-39 341 266
0.028582839 0.741 -0.033779722 2.5811091e-39 342 266
0.029922385 0.74199998 -0.033825304 2.8573359e-39 343 266
0.031223357 0.74199998 -0.033825304 2.9488154e-39 344 266
0.032524332 0.74199998 -0.033825304 2.8566198e-39 345 266
0.033916477 0.74400002 -0.033916477 2.9480923e-39 346 266
0.03531564 0.74599999 -0.034007654 2.9480923e-39 347 266
0.036623627 0.74599999 -0.034007654 2.3967136e-39 348 266
0.03798246 0.74699998 -0.034053236 2.3967136e-39 349 266
0.0393974 0.74900001 -0.034144413 2.303446e-39 350 266
