# .PCD v.7 - Point Cloud Data file format
FIELDS x y z rgb imX imY
SIZE 4 4 4 4 4 4
TYPE F F F F F F
COUNT 1 1 1 1 1 1
WIDTH 829
HEIGHT 1
VIEWPOINT 0 0 0 1 0 0 0
POINTS 829
DATA ascii
-0.029708479 0.70599997 -0.013616386 7.0039518e-39 296 251
-0.028389972 0.704 -0.013577812 6.6355294e-39 297 251
-0.027039904 0.70099998 -0.013519952 7.5484978e-39 298 251
-0.025700359 0.69800001 -0.013462093 6.995324e-39 299 251
-0.024441468 0.69700003 -0.013442807 8.5497045e-39 300 251
-0.023186078 0.69599998 -0.013423519 8.2727589e-39 301 251
-0.021902639 0.69400001 -0.013384946 8.913092e-39 302 251
-0.020685827 0.69400001 -0.013384946 8.913092e-39 303 251
-0.01944096 0.69300002 -0.01336566 8.8201803e-39 304 251
-0.018225901 0.69300002 -0.01336566 8.7279847e-39 305 251
-0.01701084 0.69300002 -0.01336566 8.636152e-39 306 251
-0.015818574 0.69400001 -0.013384946 8.636152e-39 307 251
-0.014580719 0.69300002 -0.01336566 8.6354359e-39 308 251
-0.01336566 0.69300002 -0.01336566 8.7276316e-39 309 251
-0.012150601 0.69300002 -0.01336566 9.0042114e-39 310 251
-0.010935539 0.69300002 -0.01336566 9.0042114e-39 311 251
-0.0097204801 0.69300002 -0.01336566 9.0042086e-39 312 251
-0.008480873 0.69099998 -0.013327086 9.0964043e-39 313 251
-0.0072693196 0.69099998 -0.013327086 8.8208964e-39 314 251
-0.0060577663 0.69099998 -0.013327086 8.7287007e-39 315 251
-0.0048462129 0.69099998 -0.013327086 8.7287035e-39 316 251
-0.0036346598 0.69099998 -0.013327086 8.6361492e-39 317 251
-0.0024231065 0.69099998 -0.013327086 8.636152e-39 318 251
-0.0012115532 0.69099998 -0.013327086 8.7283476e-39 319 251
0 0.69099998 -0.013327086 8.7283476e-39 320 251
0.00121506 0.69300002 -0.01336566 8.636152e-39 321 251
0.00243012 0.69300002 -0.01336566 8.4524838e-39 322 251
0.0036451798 0.69300002 -0.01336566 8.4524838e-39 323 251
0.00486024 0.69300002 -0.01336566 8.360291e-39 324 251
0.0060753003 0.69300002 -0.01336566 8.360291e-39 325 251
0.0072903596 0.69300002 -0.01336566 8.1769759e-39 326 251
0.0085054198 0.69300002 -0.01336566 8.0847803e-39 327 251
0.0097345067 0.69400001 -0.013384946 7.9014652e-39 328 251
0.01095132 0.69400001 -0.013384946 7.9014652e-39 329 251
0.012168133 0.69400001 -0.013384946 7.4397738e-39 330 251
0.013384946 0.69400001 -0.013384946 6.9795131e-39 331 251
0.01466488 0.69700003 -0.013442807 1.0217873e-38 332 251
0.015909746 0.69800001 -0.013462093 1.1877396e-38 333 251
0.017182667 0.69999999 -0.013500666 1.022288e-38 334 251
0.018436298 0.70099998 -0.013519952 9.8537374e-39 335 251
0.019721493 0.70300001 -0.013558527 1.0679867e-38 336 251
0.020983893 0.704 -0.013577812 1.0587672e-38 337 251
0.022218239 0.704 -0.013577812 1.0588391e-38 338 251
0.023519212 0.70599997 -0.013616386 1.0680586e-38 339 251
0.024757065 0.70599997 -0.013616386 1.0776767e-38 340 251
0.026179021 0.71100003 -0.01371282 1.2436649e-38 341 251
0.027425639 0.71100003 -0.01371282 1.4104843e-38 342 251
-0.036304519 0.71399999 -0.015022559 1.5304475e-38 291 252
-0.035003547 0.713 -0.015001519 1.0411973e-38 292 252
-0.033658739 0.71100003 -0.014959441 7.8304951e-39 293 252
-0.032366529 0.70999998 -0.014938398 7.2801799e-39 294 252
-0.031034 0.708 -0.01489632 7.6486023e-39 295 252
-0.029708479 0.70599997 -0.014854239 7.0957845e-39 296 252
-0.028389972 0.704 -0.014812159 6.8188388e-39 297 252
-0.027039904 0.70099998 -0.014749039 6.8163235e-39 298 252
-0.025700359 0.69800001 -0.01468592 6.3553468e-39 299 252
-0.024441468 0.69700003 -0.01466488 7.5438188e-39 300 252
-0.023186078 0.69599998 -0.014643839 7.0824805e-39 301 252
-0.021965759 0.69599998 -0.014643839 8.7312161e-39 302 252
-0.020685827 0.69400001 -0.01460176 8.4549879e-39 303 252
-0.019469013 0.69400001 -0.01460176 8.7286979e-39 304 252
-0.018225901 0.69300002 -0.014580719 8.6365023e-39 305 252
-0.01701084 0.69300002 -0.014580719 8.7283476e-39 306 252
-0.015818574 0.69400001 -0.01460176 8.636152e-39 307 252
-0.01460176 0.69400001 -0.01460176 8.7276288e-39 308 252
-0.013384946 0.69400001 -0.01460176 8.8198244e-39 309 252
-0.012168133 0.69400001 -0.01460176 8.8208964e-39 310 252
-0.010935539 0.69300002 -0.014580719 8.913092e-39 311 252
-0.0097204801 0.69300002 -0.014580719 9.1889544e-39 312 252
-0.0085054198 0.69300002 -0.014580719 9.0045618e-39 313 252
-0.0072903596 0.69300002 -0.014580719 9.0045646e-39 314 252
-0.0060577663 0.69099998 -0.014538639 9.0045646e-39 315 252
-0.0048462129 0.69099998 -0.014538639 8.8201803e-39 316 252
-0.0036346598 0.69099998 -0.014538639 8.7279847e-39 317 252
-0.00243012 0.69300002 -0.014580719 8.7283476e-39 318 252
-0.00121506 0.69300002 -0.014580719 8.7283476e-39 319 252
0 0.69300002 -0.014580719 8.7283476e-39 320 252
0.00121506 0.69300002 -0.014580719 8.7283476e-39 321 252
0.00243012 0.69300002 -0.014580719 8.636152e-39 322 252
0.0036451798 0.69300002 -0.014580719 8.636152e-39 323 252
0.0048672534 0.69400001 -0.01460176 8.4524838e-39 324 252
0.0060840664 0.69400001 -0.01460176 8.3602882e-39 325 252
0.0073008798 0.69400001 -0.01460176 8.3602882e-39 326 252
0.0085176928 0.69400001 -0.01460176 8.3602882e-39 327 252
0.0097345067 0.69400001 -0.01460176 8.0847803e-39 328 252
0.01095132 0.69400001 -0.01460176 8.0847803e-39 329 252
0.012168133 0.69400001 -0.01460176 7.5312534e-39 330 252
0.013423519 0.69599998 -0.014643839 7.2550238e-39 331 252
0.01466488 0.69700003 -0.01466488 1.030935e-38 332 252
0.015909746 0.69800001 -0.01468592 1.2337654e-38 333 252
0.017182667 0.69999999 -0.014727999 1.0406543e-38 334 252
0.018488899 0.70300001 -0.014791119 1.0222151e-38 335 252
0.019721493 0.70300001 -0.014791119 1.0862817e-38 336 252
0.020983893 0.704 -0.014812159 1.0862817e-38 337 252
0.022281358 0.70599997 -0.014854239 1.0496921e-38 338 252
0.023519212 0.70599997 -0.014854239 1.1234846e-38 339 252
0.024757065 0.70599997 -0.014854239 1.0871131e-38 340 252
0.025994917 0.70599997 -0.014854239 1.2531012e-38 341 252
-0.036304519 0.71399999 -0.016274439 1.6410825e-38 291 253
-0.034905359 0.71100003 -0.01620606 1.1889992e-38 292 253
-0.033658739 0.71100003 -0.01620606 8.0177758e-39 293 253
-0.032366529 0.70999998 -0.016183265 6.8177823e-39 294 253
-0.031034 0.708 -0.01613768 7.2791205e-39 295 253
-0.029750559 0.70700002 -0.016114887 6.8199333e-39 296 253
-0.028510952 0.70700002 -0.016114887 6.3593152e-39 297 253
-0.027155625 0.704 -0.016046507 6.4497116e-39 298 253
-0.025773998 0.69999999 -0.015955333 6.357516e-39 299 253
-0.024476532 0.69800001 -0.015909746 7.6381795e-39 300 253
-0.023219392 0.69700003 -0.015886955 7.3615912e-39 301 253
-0.021965759 0.69599998 -0.015864158 8.6401022e-39 302 253
-0.020745439 0.69599998 -0.015864158 8.5479066e-39 303 253
-0.019469013 0.69400001 -0.015818574 8.7294294e-39 304 253
-0.0182522 0.69400001 -0.015818574 8.5450382e-39 305 253
-0.017035386 0.69400001 -0.015818574 8.7283504e-39 306 253
-0.015864158 0.69599998 -0.015864158 8.7283504e-39 307 253
-0.01460176 0.69400001 -0.015818574 8.7287035e-39 308 253
-0.013384946 0.69400001 -0.015818574 8.7287035e-39 309 253
-0.012168133 0.69400001 -0.015818574 8.9134479e-39 310 253
-0.01095132 0.69400001 -0.015818574 9.005645e-39 311 253
-0.0097204801 0.69300002 -0.015795778 9.0967574e-39 312 253
-0.0085054198 0.69300002 -0.015795778 9.0967574e-39 313 253
-0.0072903596 0.69300002 -0.015795778 9.0045646e-39 314 253
-0.0060753003 0.69300002 -0.015795778 9.0045646e-39 315 253
-0.00486024 0.69300002 -0.015795778 8.8201803e-39 316 253
-0.0036451798 0.69300002 -0.015795778 8.7279847e-39 317 253
-0.00243012 0.69300002 -0.015795778 8.6361492e-39 318 253
-0.00121506 0.69300002 -0.015795778 8.7287035e-39 319 253
0 0.69300002 -0.015795778 8.7283504e-39 320 253
0.00121506 0.69300002 -0.015795778 8.7283504e-39 321 253
0.00243012 0.69300002 -0.015795778 8.5450354e-39 322 253
0.0036451798 0.69300002 -0.015795778 8.5450354e-39 323 253
0.0048672534 0.69400001 -0.015818574 8.2695275e-39 324 253
0.0060840664 0.69400001 -0.015818574 8.1769731e-39 325 253
0.0073008798 0.69400001 -0.015818574 8.2673765e-39 326 253
0.0085176928 0.69400001 -0.015818574 8.3595721e-39 327 253
0.0097345067 0.69400001 -0.015818574 8.1766228e-39 328 253
0.01095132 0.69400001 -0.015818574 8.1766228e-39 329 253
0.0122032 0.69599998 -0.015864158 7.623449e-39 330 253
0.013423519 0.69599998 -0.015864158 7.3468621e-39 331 253
0.01468592 0.69800001 -0.015909746 1.0494462e-38 332 253
0.015955333 0.69999999 -0.015955333 1.243057e-38 333 253
0.017182667 0.69999999 -0.015955333 1.0315429e-38 334 253
0.018488899 0.70300001 -0.016023712 9.6700594e-39 335 253
0.019749546 0.704 -0.016046507 1.0678425e-38 336 253
0.021043506 0.70599997 -0.016092092 1.0862817e-38 337 253
0.022281358 0.70599997 -0.016092092 1.1050816e-38 338 253
0.023552528 0.70700002 -0.016114887 1.2157524e-38 339 253
0.024792133 0.70700002 -0.016114887 1.1240639e-38 340 253
0.026142199 0.70999998 -0.016183265 1.2623573e-38 341 253
0.027387066 0.70999998 -0.016183265 1.4014089e-38 342 253
-0.034905359 0.71100003 -0.01745268 1.2631157e-38 292 254
-0.033611398 0.70999998 -0.017428132 8.5745495e-39 293 254
-0.032366529 0.70999998 -0.017428132 6.7273845e-39 294 254
-0.031034 0.708 -0.017379038 7.0043315e-39 295 254
-0.029750559 0.70700002 -0.017354494 7.0036014e-39 296 254
-0.028510952 0.70700002 -0.017354494 6.7273747e-39 297 254
-0.027155625 0.704 -0.017280852 6.8191948e-39 298 254
-0.025884461 0.70300001 -0.017256306 6.8191948e-39 299 254
-0.024546666 0.69999999 -0.017182667 7.4588062e-39 300 254
-0.023252707 0.69800001 -0.017133573 6.6290456e-39 301 254
-0.02199732 0.69700003 -0.017109027 8.5504205e-39 302 254
-0.020745439 0.69599998 -0.017084479 8.0898025e-39 303 254
-0.019525118 0.69599998 -0.017084479 8.9130948e-39 304 254
-0.018304799 0.69599998 -0.017084479 8.8208992e-39 305 254
-0.017084479 0.69599998 -0.017084479 8.8201803e-39 306 254
-0.015864158 0.69599998 -0.017084479 8.7279847e-39 307 254
-0.014643839 0.69599998 -0.017084479 8.8201775e-39 308 254
-0.013384946 0.69400001 -0.017035386 9.0042086e-39 309 254
-0.012168133 0.69400001 -0.017035386 8.9141682e-39 310 254
-0.01095132 0.69400001 -0.017035386 8.9141682e-39 311 254
-0.0097204801 0.69300002 -0.01701084 8.9134479e-39 312 254
-0.0085054198 0.69300002 -0.01701084 8.8208936e-39 313 254
-0.0072903596 0.69300002 -0.01701084 9.0960413e-39 314 254
-0.0060753003 0.69300002 -0.01701084 9.0960413e-39 315 254
-0.00486024 0.69300002 -0.01701084 8.8201747e-39 316 254
-0.0036451798 0.69300002 -0.01701084 8.8201747e-39 317 254
-0.00243012 0.69300002 -0.01701084 8.7287007e-39 318 254
-0.00121506 0.69300002 -0.01701084 8.7287007e-39 319 254
0 0.69300002 -0.01701084 8.6372282e-39 320 254
0.00121506 0.69300002 -0.01701084 8.6372282e-39 321 254
0.0024336267 0.69400001 -0.017035386 8.6372282e-39 322 254
0.0036504399 0.69400001 -0.017035386 8.5450326e-39 323 254
0.0048672534 0.69400001 -0.017035386 8.7276288e-39 324 254
0.0060840664 0.69400001 -0.017035386 8.6354331e-39 325 254
0.0073008798 0.69400001 -0.017035386 8.4517649e-39 326 254
0.0085176928 0.69400001 -0.017035386 8.4517649e-39 327 254
0.0097625591 0.69599998 -0.017084479 8.1769731e-39 328 254
0.010982879 0.69599998 -0.017084479 8.1769731e-39 329 254
0.0122032 0.69599998 -0.017084479 7.623449e-39 330 254
0.013442807 0.69700003 -0.017109027 7.4390577e-39 331 254
0.01468592 0.69800001 -0.017133573 1.0495183e-38 332 254
0.015955333 0.69999999 -0.017182667 1.2339096e-38 333 254
0.017256306 0.70300001 -0.017256306 1.0681332e-38 334 254
0.018515198 0.704 -0.017280852 1.0220712e-38 335 254
0.019749546 0.704 -0.017280852 1.0955365e-38 336 254
0.021043506 0.70599997 -0.017329946 1.1416344e-38 337 254
0.022312919 0.70700002 -0.017354494 1.1328479e-38 338 254
0.023552528 0.70700002 -0.017354494 1.2250437e-38 339 254
0.024792133 0.70700002 -0.017354494 1.1149169e-38 340 254
0.026142199 0.70999998 -0.017428132 1.2716493e-38 341 254
0.027387066 0.70999998 -0.017428132 1.4105208e-38 342 254
-0.034856264 0.70999998 -0.018672999 1.3276891e-38 292 255
-0.033611398 0.70999998 -0.018672999 9.9578469e-39 293 255
-0.032366529 0.70999998 -0.018672999 7.0046973e-39 294 255
-0.031034 0.708 -0.0186204 6.7284705e-39 295 255
-0.029750559 0.70700002 -0.018594101 7.0043287e-39 296 255
-0.028510952 0.70700002 -0.018594101 6.8199361e-39 297 255
-0.027232772 0.70599997 -0.018567799 6.6376916e-39 298 255
-0.025884461 0.70300001 -0.018488899 6.9146372e-39 299 255
-0.024546666 0.69999999 -0.018409999 7.5517348e-39 300 255
-0.023252707 0.69800001 -0.0183574 6.4457459e-39 301 255
-0.02199732 0.69700003 -0.018331099 8.6419029e-39 302 255
-0.020775247 0.69700003 -0.018331099 8.4571529e-39 303 255
-0.019553173 0.69700003 -0.018331099 9.0052918e-39 304 255
-0.018304799 0.69599998 -0.018304799 8.9130948e-39 305 255
-0.017084479 0.69599998 -0.018304799 8.8208964e-39 306 255
-0.015886955 0.69700003 -0.018331099 8.913092e-39 307 255
-0.01466488 0.69700003 -0.018331099 8.7297797e-39 308 255
-0.013423519 0.69599998 -0.018304799 8.7297797e-39 309 255
-0.012168133 0.69400001 -0.0182522 8.8226984e-39 310 255
-0.01095132 0.69400001 -0.0182522 8.7305028e-39 311 255
-0.0097345067 0.69400001 -0.0182522 9.005289e-39 312 255
-0.0085054198 0.69300002 -0.018225901 9.005289e-39 313 255
-0.0072903596 0.69300002 -0.018225901 9.0964071e-39 314 255
-0.0060753003 0.69300002 -0.018225901 9.0042114e-39 315 255
-0.00486024 0.69300002 -0.018225901 8.8208992e-39 316 255
-0.0036451798 0.69300002 -0.018225901 8.7287035e-39 317 255
-0.00243012 0.69300002 -0.018225901 8.7287035e-39 318 255
-0.00121506 0.69300002 -0.018225901 8.8208992e-39 319 255
0 0.69300002 -0.018225901 8.6379499e-39 320 255
0.0012168133 0.69400001 -0.0182522 8.5457542e-39 321 255
0.0024336267 0.69400001 -0.0182522 8.637231e-39 322 255
0.0036504399 0.69400001 -0.0182522 8.637231e-39 323 255
0.0048672534 0.69400001 -0.0182522 8.7283476e-39 324 255
0.0060840664 0.69400001 -0.0182522 8.7283476e-39 325 255
0.0073219193 0.69599998 -0.018304799 8.4535586e-39 326 255
0.0085422397 0.69599998 -0.018304799 8.2695275e-39 327 255
0.0097625591 0.69599998 -0.018304799 8.0865753e-39 328 255
0.01099866 0.69700003 -0.018331099 8.0865753e-39 329 255
0.012220734 0.69700003 -0.018331099 7.8078361e-39 330 255
0.013462093 0.69800001 -0.0183574 7.3468593e-39 331 255
0.014727999 0.69999999 -0.018409999 1.0219675e-38 332 255
0.015978126 0.70099998 -0.018436298 1.2063229e-38 333 255
0.017256306 0.70300001 -0.018488899 1.0682053e-38 334 255
0.018515198 0.704 -0.018515198 1.0313272e-38 335 255
0.019749546 0.704 -0.018515198 1.114083e-38 336 255
0.021043506 0.70599997 -0.018567799 1.1601807e-38 337 255
0.022312919 0.70700002 -0.018594101 1.1512517e-38 338 255
0.023552528 0.70700002 -0.018594101 1.2434834e-38 339 255
0.024792133 0.70700002 -0.018594101 1.0966947e-38 340 255
0.026179021 0.71100003 -0.0186993 1.1888905e-38 341 255
0.02754136 0.71399999 -0.018778199 1.4472196e-38 342 255
0.028793238 0.71399999 -0.018778199 1.779124e-38 343 255
-0.036253672 0.713 -0.020002026 1.6687782e-38 291 256
-0.034856264 0.70999998 -0.019917866 1.3830066e-38 292 256
-0.033611398 0.70999998 -0.019917866 1.0972003e-38 293 256
-0.032366529 0.70999998 -0.019917866 7.0046973e-39 294 256
-0.031034 0.708 -0.01986176 6.7284705e-39 295 256
-0.029750559 0.70700002 -0.019833706 7.0968803e-39 296 256
-0.028510952 0.70700002 -0.019833706 6.912489e-39 297 256
-0.027232772 0.70599997 -0.019805651 7.0050322e-39 298 256
-0.02592128 0.704 -0.019749546 7.3738133e-39 299 256
-0.024651866 0.70300001 -0.019721493 7.5531697e-39 300 256
-0.023252707 0.69800001 -0.019581227 6.723409e-39 301 256
-0.02202888 0.69800001 -0.019581227 8.5522226e-39 302 256
-0.020775247 0.69700003 -0.019553173 8.2756343e-39 303 256
-0.019553173 0.69700003 -0.019553173 8.9148913e-39 304 256
-0.018331099 0.69700003 -0.019553173 8.8226956e-39 305 256
-0.017109027 0.69700003 -0.019553173 8.9141682e-39 306 256
-0.015909746 0.69800001 -0.019581227 8.9141682e-39 307 256
-0.01466488 0.69700003 -0.019553173 8.7297825e-39 308 256
-0.013442807 0.69700003 -0.019553173 8.9138151e-39 309 256
-0.0122032 0.69599998 -0.019525118 9.0060107e-39 310 256
-0.01095132 0.69400001 -0.019469013 9.0060107e-39 311 256
-0.0097345067 0.69400001 -0.019469013 9.0052918e-39 312 256
-0.0085176928 0.69400001 -0.019469013 9.0052918e-39 313 256
-0.0073008798 0.69400001 -0.019469013 9.0964099e-39 314 256
-0.0060753003 0.69300002 -0.01944096 9.0038555e-39 315 256
-0.00486024 0.69300002 -0.01944096 8.9127389e-39 316 256
-0.0036504399 0.69400001 -0.019469013 8.8205432e-39 317 256
-0.0024336267 0.69400001 -0.019469013 8.6372282e-39 318 256
-0.0012168133 0.69400001 -0.019469013 8.7297825e-39 319 256
0 0.69400001 -0.019469013 8.6379499e-39 320 256
0.0012168133 0.69400001 -0.019469013 8.5457542e-39 321 256
0.0024336267 0.69400001 -0.019469013 8.545757e-39 322 256
0.0036504399 0.69400001 -0.019469013 8.6379527e-39 323 256
0.0048812795 0.69599998 -0.019525118 8.5457542e-39 324 256
0.0061015999 0.69599998 -0.019525118 8.5457542e-39 325 256
0.0073219193 0.69599998 -0.019525118 8.5457514e-39 326 256
0.0085545136 0.69700003 -0.019553173 8.5457514e-39 327 256
0.0097765867 0.69700003 -0.019553173 8.2709624e-39 328 256
0.01099866 0.69700003 -0.019553173 8.2709624e-39 329 256
0.012238266 0.69800001 -0.019581227 7.6252399e-39 330 256
0.013462093 0.69800001 -0.019581227 7.0720675e-39 331 256
0.014727999 0.69999999 -0.019637333 1.0403338e-38 332 256
0.015978126 0.70099998 -0.019665385 1.1878468e-38 333 256
0.017256306 0.70300001 -0.019721493 1.0774602e-38 334 256
0.018515198 0.704 -0.019749546 1.0498375e-38 335 256
0.019805651 0.70599997 -0.019805651 1.1050432e-38 336 256
0.021073313 0.70700002 -0.019833706 1.151141e-38 337 256
0.022312919 0.70700002 -0.019833706 1.1512887e-38 338 256
0.023585839 0.708 -0.01986176 1.2434844e-38 339 256
0.024897331 0.70999998 -0.019917866 1.0783999e-38 340 256
0.026179021 0.71100003 -0.01994592 1.1521564e-38 341 256
0.02754136 0.71399999 -0.020030079 1.4472196e-38 342 256
0.028793238 0.71399999 -0.020030079 1.779124e-38 343 256
-0.037556399 0.71399999 -0.021281958 1.7333873e-38 290 257
-0.036253672 0.713 -0.021252153 1.6595949e-38 291 257
-0.034905359 0.71100003 -0.021192541 1.438324e-38 292 257
-0.033611398 0.70999998 -0.021162732 1.1801762e-38 293 257
-0.032366529 0.70999998 -0.021162732 6.4525983e-39 294 257
-0.031034 0.708 -0.021103119 6.6369909e-39 295 257
-0.02979264 0.708 -0.021103119 7.373107e-39 296 257
-0.028510952 0.70700002 -0.021073313 7.0968803e-39 297 257
-0.027271347 0.70700002 -0.021073313 7.0972334e-39 298 257
-0.025994917 0.70599997 -0.021043506 7.0972334e-39 299 257
-0.024651866 0.70300001 -0.020954086 7.5542417e-39 300 257
-0.023319334 0.69999999 -0.020864666 7.0932649e-39 301 257
-0.02202888 0.69800001 -0.020805053 8.1873834e-39 302 257
-0.020805053 0.69800001 -0.020805053 7.2654271e-39 303 257
-0.019553173 0.69700003 -0.020775247 8.9134479e-39 304 257
-0.018331099 0.69700003 -0.020775247 9.0978406e-39 305 257
-0.017109027 0.69700003 -0.020775247 9.0992755e-39 306 257
-0.015909746 0.69800001 -0.020805053 8.9152444e-39 307 257
-0.01468592 0.69800001 -0.020805053 9.0063638e-39 308 257
-0.013442807 0.69700003 -0.020775247 9.0985595e-39 309 257
-0.012220734 0.69700003 -0.020775247 9.1907579e-39 310 257
-0.010982879 0.69599998 -0.020745439 9.0985623e-39 311 257
-0.0097345067 0.69400001 -0.020685827 9.2815186e-39 312 257
-0.0085176928 0.69400001 -0.020685827 9.0974875e-39 313 257
-0.0073008798 0.69400001 -0.020685827 9.1886041e-39 314 257
-0.0060840664 0.69400001 -0.020685827 9.1886041e-39 315 257
-0.0048672534 0.69400001 -0.020685827 8.9138151e-39 316 257
-0.0036504399 0.69400001 -0.020685827 8.7297825e-39 317 257
-0.0024336267 0.69400001 -0.020685827 8.7305028e-39 318 257
-0.0012168133 0.69400001 -0.020685827 8.7305028e-39 319 257
0 0.69400001 -0.020685827 8.5468318e-39 320 257
0.0012168133 0.69400001 -0.020685827 8.5468318e-39 321 257
0.0024406398 0.69599998 -0.020745439 8.4553579e-39 322 257
0.0036609597 0.69599998 -0.020745439 8.5475535e-39 323 257
0.0048812795 0.69599998 -0.020745439 8.4553551e-39 324 257
0.0061015999 0.69599998 -0.020745439 8.4553551e-39 325 257
0.00733244 0.69700003 -0.020775247 8.5471878e-39 326 257
0.0085545136 0.69700003 -0.020775247 8.5471878e-39 327 257
0.0097906133 0.69800001 -0.020805053 8.2723959e-39 328 257
0.01101444 0.69800001 -0.020805053 8.0880033e-39 329 257
0.012238266 0.69800001 -0.020805053 6.7072282e-39 330 257
0.013500666 0.69999999 -0.020864666 5.7856363e-39 331 257
0.014749039 0.70099998 -0.020894472 1.0127457e-38 332 257
0.016023712 0.70300001 -0.020954086 1.1694424e-38 333 257
0.017256306 0.70300001 -0.020954086 1.0867151e-38 334 257
0.018515198 0.704 -0.020983893 1.049837e-38 335 257
0.019805651 0.70599997 -0.021043506 1.1234116e-38 336 257
0.021073313 0.70700002 -0.021073313 1.1695095e-38 337 257
0.022312919 0.70700002 -0.021073313 1.0961884e-38 338 257
0.023585839 0.708 -0.021103119 1.1976036e-38 339 257
0.024932399 0.71100003 -0.021192541 1.0602125e-38 340 257
0.026252659 0.713 -0.021252153 1.1063104e-38 341 257
0.02754136 0.71399999 -0.021281958 1.4473269e-38 342 257
0.028793238 0.71399999 -0.021281958 1.7792312e-38 343 257
-0.038916986 0.71600002 -0.022596961 1.7701929e-38 289 258
-0.037556399 0.71399999 -0.022533838 1.7241674e-38 290 258
-0.036253672 0.713 -0.022502279 1.6412274e-38 291 258
-0.035003547 0.713 -0.022502279 1.5213001e-38 292 258
-0.033658739 0.71100003 -0.022439159 1.2631524e-38 293 258
-0.032366529 0.70999998 -0.022407599 6.0841703e-39 294 258
-0.031034 0.708 -0.022344479 6.2685615e-39 295 258
-0.02979264 0.708 -0.022344479 7.3727413e-39 296 258
-0.028510952 0.70700002 -0.022312919 7.3727413e-39 297 258
-0.027232772 0.70599997 -0.022281358 7.0046818e-39 298 258
-0.025994917 0.70599997 -0.022281358 7.0968775e-39 299 258
-0.024651866 0.70300001 -0.02218668 7.3723882e-39 300 258
-0.023319334 0.69999999 -0.022091998 7.5571382e-39 301 258
-0.022091998 0.69999999 -0.022091998 8.3786438e-39 302 258
-0.020805053 0.69800001 -0.02202888 7.4570462e-39 303 258
-0.019581227 0.69800001 -0.02202888 8.9131088e-39 304 258
-0.0183574 0.69800001 -0.02202888 8.544685e-39 305 258
-0.017133573 0.69800001 -0.02202888 8.5475507e-39 306 258
-0.015909746 0.69800001 -0.02202888 8.5475507e-39 307 258
-0.01468592 0.69800001 -0.02202888 8.2709624e-39 308 258
-0.013442807 0.69700003 -0.02199732 8.363158e-39 309 258
-0.012220734 0.69700003 -0.02199732 8.8226984e-39 310 258
-0.010982879 0.69599998 -0.021965759 8.9148941e-39 311 258
-0.0097625591 0.69599998 -0.021965759 9.0060135e-39 312 258
-0.0085176928 0.69400001 -0.021902639 9.0060135e-39 313 258
-0.0073008798 0.69400001 -0.021902639 9.0056576e-39 314 258
-0.0060840664 0.69400001 -0.021902639 9.1904076e-39 315 258
-0.0048672534 0.69400001 -0.021902639 8.8223425e-39 316 258
-0.0036504399 0.69400001 -0.021902639 8.8223425e-39 317 258
-0.0024336267 0.69400001 -0.021902639 8.6397491e-39 318 258
-0.0012168133 0.69400001 -0.021902639 8.7319448e-39 319 258
0 0.69599998 -0.021965759 8.5475507e-39 320 258
0.0012203199 0.69599998 -0.021965759 8.4553551e-39 321 258
0.0024406398 0.69599998 -0.021965759 8.4553579e-39 322 258
0.0036609597 0.69599998 -0.021965759 8.3631608e-39 323 258
0.0048882933 0.69700003 -0.02199732 8.0865753e-39 324 258
0.0061103669 0.69700003 -0.02199732 7.9943797e-39 325 258
0.0073429602 0.69800001 -0.02202888 8.1776976e-39 326 258
0.0085667865 0.69800001 -0.02202888 7.9011121e-39 327 258
0.0098186666 0.69999999 -0.022091998 7.4437423e-39 328 258
0.011045999 0.69999999 -0.022091998 7.7206893e-39 329 258
0.012273333 0.69999999 -0.022091998 6.2585198e-39 330 258
0.013500666 0.69999999 -0.022091998 7.457063e-39 331 258
0.014749039 0.70099998 -0.022123558 1.0505617e-38 332 258
0.016023712 0.70300001 -0.02218668 1.0874398e-38 333 258
0.017280852 0.704 -0.022218239 1.0957198e-38 334 258
0.018515198 0.704 -0.022218239 1.0588417e-38 335 258
0.019805651 0.70599997 -0.022281358 1.0773883e-38 336 258
0.021073313 0.70700002 -0.022312919 1.1972426e-38 337 258
0.022344479 0.708 -0.022344479 1.087403e-38 338 258
0.023652466 0.70999998 -0.022407599 1.1611595e-38 339 258
0.024932399 0.71100003 -0.022439159 1.0695402e-38 340 258
0.026289478 0.71399999 -0.022533838 1.1063826e-38 341 258
0.02754136 0.71399999 -0.022533838 1.4658016e-38 342 258
0.028793238 0.71399999 -0.022533838 1.7700113e-38 343 258
0.030045118 0.71399999 -0.022533838 1.7056913e-38 344 258
-0.038916986 0.71600002 -0.023852346 1.7701929e-38 289 259
-0.037661601 0.71600002 -0.023852346 1.705764e-38 290 259
-0.036304519 0.71399999 -0.02378572 1.6320074e-38 291 259
-0.035052639 0.71399999 -0.02378572 1.5398112e-38 292 259
-0.033753417 0.713 -0.023752406 1.35542e-38 293 259
-0.032366529 0.70999998 -0.023652466 8.3883352e-39 294 259
-0.031121666 0.70999998 -0.023652466 6.5444226e-39 295 259
-0.02979264 0.708 -0.023585839 7.5578416e-39 296 259
-0.02855128 0.708 -0.023585839 7.5578416e-39 297 259
-0.027232772 0.70599997 -0.023519212 7.2809086e-39 298 259
-0.025994917 0.70599997 -0.023519212 6.9124862e-39 299 259
-0.024686933 0.704 -0.023452586 6.8217507e-39 300 259
-0.023352645 0.70099998 -0.023352645 8.4816322e-39 301 259
-0.022091998 0.69999999 -0.023319334 9.4936542e-39 302 259
-0.020864666 0.69999999 -0.023319334 9.4936542e-39 303 259
-0.019581227 0.69800001 -0.023252707 8.7492494e-39 304 259
-0.0183574 0.69800001 -0.023252707 6.2599674e-39 305 259
-0.017133573 0.69800001 -0.023252707 6.0712447e-39 306 259
-0.015909746 0.69800001 -0.023252707 5.2411239e-39 307 259
-0.01468592 0.69800001 -0.023252707 5.9729254e-39 308 259
-0.013462093 0.69800001 -0.023252707 6.249871e-39 309 259
-0.012220734 0.69700003 -0.023219392 7.1685847e-39 310 259
-0.010982879 0.69599998 -0.023186078 7.1685847e-39 311 259
-0.0097625591 0.69599998 -0.023186078 7.7188718e-39 312 259
-0.0085176928 0.69400001 -0.023119451 7.4419248e-39 313 259
-0.0073008798 0.69400001 -0.023119451 8.0854991e-39 314 259
-0.0060840664 0.69400001 -0.023119451 7.901468e-39 315 259
-0.0048672534 0.69400001 -0.023119451 7.5341274e-39 316 259
-0.0036504399 0.69400001 -0.023119451 7.6263231e-39 317 259
-0.0024336267 0.69400001 -0.023119451 7.3515284e-39 318 259
-0.0012168133 0.69400001 -0.023119451 7.4437241e-39 319 259
0 0.69599998 -0.023186078 6.8923468e-39 320 259
0.0012203199 0.69599998 -0.023186078 6.7079569e-39 321 259
0.0024406398 0.69599998 -0.023186078 6.341338e-39 322 259
0.00366622 0.69700003 -0.023219392 6.341338e-39 323 259
0.0048953067 0.69800001 -0.023252707 5.9743631e-39 324 259
0.006119133 0.69800001 -0.023252707 5.7896131e-39 325 259
0.0073429602 0.69800001 -0.023252707 4.7801556e-39 326 259
0.0085667865 0.69800001 -0.023252707 5.0563823e-39 327 259
0.0098186666 0.69999999 -0.023319334 4.6944592e-39 328 259
0.011045999 0.69999999 -0.023319334 6.538013e-39 329 259
0.012273333 0.69999999 -0.023319334 7.0072728e-39 330 259
0.013519952 0.70099998 -0.023352645 8.5749573e-39 331 259
0.014791119 0.70300001 -0.023419274 1.0972374e-38 332 259
0.016046507 0.704 -0.023452586 1.0880179e-38 333 259
0.017280852 0.704 -0.023452586 9.6711426e-39 334 259
0.018567799 0.70599997 -0.023519212 9.1179688e-39 335 259
0.019805651 0.70599997 -0.023519212 9.766941e-39 336 259
0.021103119 0.708 -0.023585839 1.1149875e-38 337 259
0.022407599 0.70999998 -0.023652466 1.0600702e-38 338 259
0.023685781 0.71100003 -0.023685781 1.1153876e-38 339 259
0.025002534 0.713 -0.023752406 1.0420975e-38 340 259
0.026252659 0.713 -0.023752406 1.0605725e-38 341 259
0.02754136 0.71399999 -0.02378572 1.4841326e-38 342 259
0.028793238 0.71399999 -0.02378572 1.7975977e-38 343 259
0.030045118 0.71399999 -0.02378572 1.7056913e-38 344 259
-0.037661601 0.71600002 -0.025107734 1.7425347e-38 290 260
-0.036304519 0.71399999 -0.025037598 1.6595586e-38 291 260
-0.035052639 0.71399999 -0.025037598 1.5029702e-38 292 260
-0.033753417 0.713 -0.025002534 1.4292137e-38 293 260
-0.032412119 0.71100003 -0.024932399 1.2077961e-38 294 260
-0.031121666 0.70999998 -0.024897331 8.4823329e-39 295 260
-0.02979264 0.708 -0.024827199 7.1865297e-39 296 260
-0.02855128 0.708 -0.024827199 7.4634754e-39 297 260
-0.027271347 0.70700002 -0.024792133 6.5469309e-39 298 260
-0.025994917 0.70599997 -0.024757065 5.7168101e-39 299 260
-0.024686933 0.704 -0.024686933 7.1890941e-39 300 260
-0.023419274 0.70300001 -0.024651866 1.2075104e-38 301 260
-0.022123558 0.70099998 -0.024581732 1.2084134e-38 302 260
-0.020894472 0.70099998 -0.024581732 1.319048e-38 303 260
-0.019637333 0.69999999 -0.024546666 1.263767e-38 304 260
-0.0183574 0.69800001 -0.024476532 1.1992301e-38 305 260
-0.017133573 0.69800001 -0.024476532 1.1894701e-38 306 260
-0.015955333 0.69999999 -0.024546666 1.0972744e-38 307 260
-0.01468592 0.69800001 -0.024476532 1.0877309e-38 308 260
-0.013462093 0.69800001 -0.024476532 1.0600362e-38 309 260
-0.012238266 0.69800001 -0.024476532 1.0597481e-38 310 260
-0.01099866 0.69700003 -0.024441468 9.7673614e-39 311 260
-0.0097765867 0.69700003 -0.024441468 9.9459919e-39 312 260
-0.0085422397 0.69599998 -0.0244064 8.8400031e-39 313 260
-0.0073219193 0.69599998 -0.0244064 9.112274e-39 314 260
-0.0061103669 0.69700003 -0.024441468 8.8353283e-39 315 260
-0.0048882933 0.69700003 -0.024441468 8.6520161e-39 316 260
-0.00366622 0.69700003 -0.024441468 8.6520161e-39 317 260
-0.0024441467 0.69700003 -0.024441468 8.5598205e-39 318 260
-0.0012220733 0.69700003 -0.024441468 8.9282428e-39 319 260
0 0.69700003 -0.024441468 8.6563377e-39 320 260
0.0012220733 0.69700003 -0.024441468 9.4857382e-39 321 260
0.0024441467 0.69700003 -0.024441468 9.3063888e-39 322 260
0.0036714801 0.69800001 -0.024476532 9.9517582e-39 323 260
0.0048953067 0.69800001 -0.024476532 9.7713299e-39 324 260
0.006119133 0.69800001 -0.024476532 1.0232308e-38 325 260
0.0073429602 0.69800001 -0.024476532 9.6852523e-39 326 260
0.0085667865 0.69800001 -0.024476532 1.0330622e-38 327 260
0.0098186666 0.69999999 -0.024546666 1.0885956e-38 328 260
0.011045999 0.69999999 -0.024546666 1.1346934e-38 329 260
0.012273333 0.69999999 -0.024546666 1.1438767e-38 330 260
0.013519952 0.70099998 -0.024581732 1.1346213e-38 331 260
0.014791119 0.70300001 -0.024651866 1.1622063e-38 332 260
0.016046507 0.704 -0.024686933 1.0423521e-38 333 260
0.017280852 0.704 -0.024686933 9.3128334e-39 334 260
0.018567799 0.70599997 -0.024757065 1.0787965e-38 335 260
0.019833706 0.70700002 -0.024792133 1.1525898e-38 336 260
0.021162732 0.70999998 -0.024897331 1.1525898e-38 337 260
0.022407599 0.70999998 -0.024897331 1.0789059e-38 338 260
0.023685781 0.71100003 -0.024932399 1.0604668e-38 339 260
0.025002534 0.713 -0.025002534 1.0971277e-38 340 260
0.026252659 0.713 -0.025002534 1.1524451e-38 341 260
0.02754136 0.71399999 -0.025037598 1.4933887e-38 342 260
0.028793238 0.71399999 -0.025037598 1.7792312e-38 343 260
0.030045118 0.71399999 -0.025037598 1.7056913e-38 344 260
-0.037661601 0.71600002 -0.026363119 1.7333151e-38 290 261
-0.036406212 0.71600002 -0.026363119 1.6595586e-38 291 261
-0.035150826 0.71600002 -0.026363119 1.4846037e-38 292 261
-0.033800758 0.71399999 -0.026289478 1.4476894e-38 293 261
-0.032548878 0.71399999 -0.026289478 1.3830048e-38 294 261
-0.031165501 0.71100003 -0.026179021 1.1064179e-38 295 261
-0.029876797 0.70999998 -0.026142199 8.5701831e-39 296 261
-0.02855128 0.708 -0.026068559 6.9110219e-39 297 261
-0.027271347 0.70700002 -0.02603174 4.6180225e-39 298 261
-0.025994917 0.70599997 -0.025994917 4.6180225e-39 299 261
-0.024686933 0.704 -0.02592128 9.5804394e-39 300 261
-0.023419274 0.70300001 -0.025884461 1.4374612e-38 301 261
-0.02218668 0.70300001 -0.025884461 1.3187607e-38 302 261
-0.020894472 0.70099998 -0.025810819 1.3464553e-38 303 261
-0.019637333 0.69999999 -0.025773998 1.291391e-38 304 261
-0.018409999 0.69999999 -0.025773998 1.2821714e-38 305 261
-0.017182667 0.69999999 -0.025773998 1.2729153e-38 306 261
-0.015955333 0.69999999 -0.025773998 1.2729153e-38 307 261
-0.01468592 0.69800001 -0.025700359 1.2266377e-38 308 261
-0.013462093 0.69800001 -0.025700359 1.1713203e-38 309 261
-0.012238266 0.69800001 -0.025700359 1.1067834e-38 310 261
-0.01099866 0.69700003 -0.025663542 1.0698691e-38 311 261
-0.0097765867 0.69700003 -0.025663542 1.0789442e-38 312 261
-0.0085667865 0.69800001 -0.025700359 1.0605411e-38 313 261
-0.0073429602 0.69800001 -0.025700359 1.0603611e-38 314 261
-0.006119133 0.69800001 -0.025700359 1.0511416e-38 315 261
-0.0048953067 0.69800001 -0.025700359 1.0235908e-38 316 261
-0.0036714801 0.69800001 -0.025700359 1.0143354e-38 317 261
-0.0024476533 0.69800001 -0.025700359 9.9600441e-39 318 261
-0.0012220733 0.69700003 -0.025663542 9.9600441e-39 319 261
0 0.69700003 -0.025663542 9.9604071e-39 320 261
0.0012220733 0.69700003 -0.025663542 9.9604071e-39 321 261
0.0024476533 0.69800001 -0.025700359 1.0053324e-38 322 261
0.0036714801 0.69800001 -0.025700359 1.0422467e-38 323 261
0.0048953067 0.69800001 -0.025700359 1.0790889e-38 324 261
0.006119133 0.69800001 -0.025700359 1.1067836e-38 325 261
0.0073429602 0.69800001 -0.025700359 1.1345862e-38 326 261
0.0085913334 0.69999999 -0.025773998 1.1622808e-38 327 261
0.0098186666 0.69999999 -0.025773998 1.1899035e-38 328 261
0.011045999 0.69999999 -0.025773998 1.1806839e-38 329 261
0.012290866 0.70099998 -0.025810819 1.1622802e-38 330 261
0.013558527 0.70300001 -0.025884461 1.1346216e-38 331 261
0.014812159 0.704 -0.02592128 1.0978139e-38 332 261
0.016046507 0.704 -0.02592128 1.0608997e-38 333 261
0.017329946 0.70599997 -0.025994917 1.0790145e-38 334 261
0.018567799 0.70599997 -0.025994917 1.0974895e-38 335 261
0.01986176 0.708 -0.026068559 1.1619912e-38 336 261
0.021162732 0.70999998 -0.026142199 1.1527716e-38 337 261
0.022407599 0.70999998 -0.026142199 1.1066019e-38 338 261
0.023685781 0.71100003 -0.026179021 1.0328454e-38 339 261
0.025002534 0.713 -0.026252659 1.0604668e-38 340 261
0.026289478 0.71399999 -0.026289478 1.1710657e-38 341 261
0.027618507 0.71600002 -0.026363119 1.5118285e-38 342 261
0.028873893 0.71600002 -0.026363119 1.7699763e-38 343 261
0.03012928 0.71600002 -0.026363119 1.714839e-38 344 261
-0.037714198 0.71700001 -0.027657079 1.696509e-38 290 262
-0.036406212 0.71600002 -0.027618507 1.6227525e-38 291 262
-0.035150826 0.71600002 -0.027618507 1.4937156e-38 292 262
-0.033800758 0.71399999 -0.02754136 1.4568374e-38 293 262
-0.032548878 0.71399999 -0.02754136 1.4752395e-38 294 262
-0.031296998 0.71399999 -0.02754136 1.3461656e-38 295 262
-0.029876797 0.70999998 -0.027387066 1.1984703e-38 296 262
-0.02855128 0.708 -0.027309919 9.6801726e-39 297 262
-0.027309919 0.708 -0.027309919 7.1995408e-39 298 262
-0.02603174 0.70700002 -0.027271347 8.5824753e-39 299 262
-0.024757065 0.70599997 -0.027232772 1.0885956e-38 300 262
-0.023452586 0.704 -0.027155625 1.2729869e-38 301 262
-0.02218668 0.70300001 -0.027117053 1.3004664e-38 302 262
-0.020954086 0.70300001 -0.027117053 1.2543685e-38 303 262
-0.019665385 0.70099998 -0.027039904 1.1717888e-38 304 262
-0.018409999 0.69999999 -0.027001332 1.1625692e-38 305 262
-0.017182667 0.69999999 -0.027001332 1.1167232e-38 306 262
-0.015955333 0.69999999 -0.027001332 1.1259786e-38 307 262
-0.01468592 0.69800001 -0.026924185 1.1993035e-38 308 262
-0.013462093 0.69800001 -0.026924185 1.1993035e-38 309 262
-0.012238266 0.69800001 -0.026924185 1.19012e-38 310 262
-0.01099866 0.69700003 -0.026885614 1.208595e-38 311 262
-0.0097765867 0.69700003 -0.026885614 1.2086667e-38 312 262
-0.0085667865 0.69800001 -0.026924185 1.1902635e-38 313 262
-0.0073429602 0.69800001 -0.026924185 1.2269259e-38 314 262
-0.006119133 0.69800001 -0.026924185 1.2085228e-38 315 262
-0.0048953067 0.69800001 -0.026924185 1.1993751e-38 316 262
-0.0036714801 0.69800001 -0.026924185 1.1993751e-38 317 262
-0.0024476533 0.69800001 -0.026924185 1.1901556e-38 318 262
-0.0012238267 0.69800001 -0.026924185 1.180936e-38 319 262
0 0.69800001 -0.026924185 1.1718244e-38 320 262
0.0012238267 0.69800001 -0.026924185 1.1441298e-38 321 262
0.0024476533 0.69800001 -0.026924185 1.134766e-38 322 262
0.0036714801 0.69800001 -0.026924185 1.1624246e-38 323 262
0.0049093333 0.69999999 -0.027001332 1.1439859e-38 324 262
0.0061366665 0.69999999 -0.027001332 1.1255467e-38 325 262
0.0073639993 0.69999999 -0.027001332 1.1255465e-38 326 262
0.0085913334 0.69999999 -0.027001332 1.0978876e-38 327 262
0.0098326923 0.70099998 -0.027039904 1.0795205e-38 328 262
0.011061779 0.70099998 -0.027039904 1.070301e-38 329 262
0.012290866 0.70099998 -0.027039904 1.0978158e-38 330 262
0.013558527 0.70300001 -0.027117053 1.0885962e-38 331 262
0.014812159 0.704 -0.027155625 1.0794117e-38 332 262
0.016092092 0.70599997 -0.027232772 1.0794117e-38 333 262
0.017329946 0.70599997 -0.027232772 1.1068903e-38 334 262
0.018567799 0.70599997 -0.027232772 1.0976707e-38 335 262
0.01986176 0.708 -0.027309919 1.0977063e-38 336 262
0.021162732 0.70999998 -0.027387066 1.0977063e-38 337 262
0.022439159 0.71100003 -0.027425639 1.1067459e-38 338 262
0.023752406 0.713 -0.027502786 1.0514287e-38 339 262
0.025037598 0.71399999 -0.02754136 1.0696513e-38 340 262
0.026289478 0.71399999 -0.02754136 1.2263479e-38 341 262
0.027618507 0.71600002 -0.027618507 1.5120452e-38 342 262
0.028873893 0.71600002 -0.027618507 1.7425703e-38 343 262
0.03012928 0.71600002 -0.027618507 1.7240588e-38 344 262
-0.037714198 0.71700001 -0.028914221 1.714804e-38 290 263
-0.036406212 0.71600002 -0.028873893 1.6225725e-38 291 263
-0.035150826 0.71600002 -0.028873893 1.4476894e-38 292 263
-0.03389544 0.71600002 -0.028873893 1.4292863e-38 293 263
-0.032548878 0.71399999 -0.028793238 1.4108838e-38 294 263
-0.031296998 0.71399999 -0.028793238 1.3924807e-38 295 263
-0.029918881 0.71100003 -0.028672259 1.3371623e-38 296 263
-0.028631933 0.70999998 -0.028631933 1.2726254e-38 297 263
-0.027309919 0.708 -0.02855128 1.143948e-38 298 263
-0.02603174 0.70700002 -0.028510952 1.162423e-38 299 263
-0.024757065 0.70599997 -0.028470624 1.2452209e-38 300 263
-0.023452586 0.704 -0.028389972 1.2913547e-38 301 263
-0.022218239 0.704 -0.028389972 1.2637323e-38 302 263
-0.020954086 0.70300001 -0.028349647 1.2360736e-38 303 263
-0.019721493 0.70300001 -0.028349647 1.1810083e-38 304 263
-0.018436298 0.70099998 -0.028268991 1.1717888e-38 305 263
-0.017207211 0.70099998 -0.028268991 1.1534578e-38 306 263
-0.015978126 0.70099998 -0.028268991 1.1534578e-38 307 263
-0.014727999 0.69999999 -0.028228667 1.1625339e-38 308 263
-0.013500666 0.69999999 -0.028228667 1.1717534e-38 309 263
-0.012238266 0.69800001 -0.028148014 1.1625339e-38 310 263
-0.01101444 0.69800001 -0.028148014 1.1717534e-38 311 263
-0.0097906133 0.69800001 -0.028148014 1.1810086e-38 312 263
-0.0085667865 0.69800001 -0.028148014 1.1810086e-38 313 263
-0.0073429602 0.69800001 -0.028148014 1.1901205e-38 314 263
-0.006119133 0.69800001 -0.028148014 1.1808651e-38 315 263
-0.0048953067 0.69800001 -0.028148014 1.1442027e-38 316 263
-0.0036714801 0.69800001 -0.028148014 1.1442027e-38 317 263
-0.0024476533 0.69800001 -0.028148014 1.1349831e-38 318 263
-0.0012238267 0.69800001 -0.028148014 1.1257635e-38 319 263
0 0.69800001 -0.028148014 1.1440945e-38 320 263
0.0012238267 0.69800001 -0.028148014 1.1256912e-38 321 263
0.0024546667 0.69999999 -0.028228667 1.125583e-38 322 263
0.0036819996 0.69999999 -0.028228667 1.1348385e-38 323 263
0.0049093333 0.69999999 -0.028228667 1.1256186e-38 324 263
0.0061366665 0.69999999 -0.028228667 1.1163991e-38 325 263
0.0073639993 0.69999999 -0.028228667 1.0979601e-38 326 263
0.0085913334 0.69999999 -0.028228667 1.0979601e-38 327 263
0.0098326923 0.70099998 -0.028268991 1.1071073e-38 328 263
0.011061779 0.70099998 -0.028268991 1.0978876e-38 329 263
0.012290866 0.70099998 -0.028268991 1.0978158e-38 330 263
0.013577812 0.704 -0.028389972 1.0885962e-38 331 263
0.014812159 0.704 -0.028389972 1.0977433e-38 332 263
0.016092092 0.70599997 -0.028470624 1.0977433e-38 333 263
0.017329946 0.70599997 -0.028470624 1.0886312e-38 334 263
0.018594101 0.70700002 -0.028510952 1.0701562e-38 335 263
0.01986176 0.708 -0.02855128 1.0793395e-38 336 263
0.021162732 0.70999998 -0.028631933 1.0793395e-38 337 263
0.022439159 0.71100003 -0.028672259 1.1251849e-38 338 263
0.023752406 0.713 -0.028752912 1.1067457e-38 339 263
0.025037598 0.71399999 -0.028793238 1.1066019e-38 340 263
0.026363119 0.71600002 -0.028873893 1.1895419e-38 341 263
0.027657079 0.71700001 -0.028914221 1.484531e-38 342 263
0.028914221 0.71700001 -0.028914221 1.7150202e-38 343 263
-0.037714198 0.71700001 -0.030171359 1.7331349e-38 290 264
-0.036406212 0.71600002 -0.03012928 1.6317557e-38 291 264
-0.035150826 0.71600002 -0.03012928 1.4015909e-38 292 264
-0.03389544 0.71600002 -0.03012928 1.419994e-38 293 264
-0.032640055 0.71600002 -0.03012928 1.3650018e-38 294 264
-0.031296998 0.71399999 -0.030045118 1.3650018e-38 295 264
-0.029918881 0.71100003 -0.029918881 1.3649662e-38 296 264
-0.028631933 0.70999998 -0.029876797 1.3741857e-38 297 264
-0.027309919 0.708 -0.02979264 1.3650027e-38 298 264
-0.026068559 0.708 -0.02979264 1.3281604e-38 299 264
-0.024757065 0.70599997 -0.029708479 1.2637323e-38 300 264
-0.023452586 0.704 -0.029624319 1.2453292e-38 301 264
-0.022218239 0.704 -0.029624319 1.2361459e-38 302 264
-0.020954086 0.70300001 -0.029582238 1.2269262e-38 303 264
-0.019721493 0.70300001 -0.029582238 1.1810083e-38 304 264
-0.018436298 0.70099998 -0.029498078 1.1810083e-38 305 264
-0.017207211 0.70099998 -0.029498078 1.1534575e-38 306 264
-0.016023712 0.70300001 -0.029582238 1.1534575e-38 307 264
-0.014749039 0.70099998 -0.029498078 1.171789e-38 308 264
-0.013519952 0.70099998 -0.029498078 1.171789e-38 309 264
-0.012273333 0.69999999 -0.029455997 1.1442024e-38 310 264
-0.011045999 0.69999999 -0.029455997 1.1349828e-38 311 264
-0.0098186666 0.69999999 -0.029455997 1.153314e-38 312 264
-0.0085913334 0.69999999 -0.029455997 1.153314e-38 313 264
-0.0073639993 0.69999999 -0.029455997 1.1533143e-38 314 264
-0.0061366665 0.69999999 -0.029455997 1.1256915e-38 315 264
-0.0049093333 0.69999999 -0.029455997 1.1440948e-38 316 264
-0.0036819996 0.69999999 -0.029455997 1.1164719e-38 317 264
-0.0024546667 0.69999999 -0.029455997 1.107324e-38 318 264
-0.0012273333 0.69999999 -0.029455997 1.107324e-38 319 264
0 0.69999999 -0.029455997 1.1164714e-38 320 264
0.0012273333 0.69999999 -0.029455997 1.1072518e-38 321 264
0.0024546667 0.69999999 -0.029455997 1.1256186e-38 322 264
0.0036819996 0.69999999 -0.029455997 1.1256186e-38 323 264
0.0049093333 0.69999999 -0.029455997 1.1256184e-38 324 264
0.0061366665 0.69999999 -0.029455997 1.1163988e-38 325 264
0.0073639993 0.69999999 -0.029455997 1.1163269e-38 326 264
0.0086036054 0.70099998 -0.029498078 1.1071073e-38 327 264
0.0098326923 0.70099998 -0.029498078 1.1071073e-38 328 264
0.011061779 0.70099998 -0.029498078 1.0978876e-38 329 264
0.012325933 0.70300001 -0.029582238 1.1161467e-38 330 264
0.013577812 0.704 -0.029624319 1.1161467e-38 331 264
0.014854239 0.70599997 -0.029708479 1.0977433e-38 332 264
0.016092092 0.70599997 -0.029708479 1.0977433e-38 333 264
0.017354494 0.70700002 -0.029750559 1.0885593e-38 334 264
0.018594101 0.70700002 -0.029750559 1.0885593e-38 335 264
0.01986176 0.708 -0.02979264 1.1068903e-38 336 264
0.021162732 0.70999998 -0.029876797 1.0976707e-38 337 264
0.022502279 0.713 -0.030003037 1.1069259e-38 338 264
0.02378572 0.71399999 -0.030045118 1.0700476e-38 339 264
0.025107734 0.71600002 -0.03012928 1.1068537e-38 340 264
0.026363119 0.71600002 -0.03012928 1.1068537e-38 341 264
0.027657079 0.71700001 -0.030171359 1.4752395e-38 342 264
0.028914221 0.71700001 -0.030171359 1.7241318e-38 343 264
-0.037819397 0.71899998 -0.031516165 1.7516098e-38 290 265
-0.036457058 0.71700001 -0.031428497 1.6686336e-38 291 265
-0.035199918 0.71700001 -0.031428497 1.3830443e-38 292 265
-0.03389544 0.71600002 -0.031384666 1.3830443e-38 293 265
-0.032640055 0.71600002 -0.031384666 1.383333e-38 294 265
-0.031296998 0.71399999 -0.031296998 1.3648937e-38 295 265
-0.030003037 0.713 -0.031253166 1.3281601e-38 296 265
-0.028631933 0.70999998 -0.031121666 1.3281601e-38 297 265
-0.027387066 0.70999998 -0.031121666 1.3006461e-38 298 265
-0.026068559 0.708 -0.031034 1.2821711e-38 299 265
-0.024792133 0.70700002 -0.030990168 1.2729519e-38 300 265
-0.023519212 0.70599997 -0.030946331 1.2637323e-38 301 265
-0.022218239 0.704 -0.030858666 1.2361459e-38 302 265
-0.020983893 0.704 -0.030858666 1.2361459e-38 303 265
-0.019721493 0.70300001 -0.030814834 1.1810086e-38 304 265
-0.018488899 0.70300001 -0.030814834 1.1810086e-38 305 265
-0.017256306 0.70300001 -0.030814834 1.1534578e-38 306 265
-0.016023712 0.70300001 -0.030814834 1.1534578e-38 307 265
-0.014791119 0.70300001 -0.030814834 1.1534575e-38 308 265
-0.013558527 0.70300001 -0.030814834 1.1534575e-38 309 265
-0.012290866 0.70099998 -0.030727165 1.1442024e-38 310 265
-0.011045999 0.69999999 -0.030683333 1.1442024e-38 311 265
-0.0098186666 0.69999999 -0.030683333 1.1442024e-38 312 265
-0.0085913334 0.69999999 -0.030683333 1.1349828e-38 313 265
-0.0073639993 0.69999999 -0.030683333 1.1533143e-38 314 265
-0.0061366665 0.69999999 -0.030683333 1.1440948e-38 315 265
-0.0049093333 0.69999999 -0.030683333 1.1257635e-38 316 265
-0.0036819996 0.69999999 -0.030683333 1.1165438e-38 317 265
-0.0024546667 0.69999999 -0.030683333 1.1165438e-38 318 265
-0.0012273333 0.69999999 -0.030683333 1.1072884e-38 319 265
0 0.69999999 -0.030683333 1.1164717e-38 320 265
0.0012273333 0.69999999 -0.030683333 1.1164717e-38 321 265
0.0024546667 0.69999999 -0.030683333 1.1348385e-38 322 265
0.0036819996 0.69999999 -0.030683333 1.125583e-38 323 265
0.0049093333 0.69999999 -0.030683333 1.1256186e-38 324 265
0.0061366665 0.69999999 -0.030683333 1.1163991e-38 325 265
0.0073745195 0.70099998 -0.030727165 1.1163272e-38 326 265
0.0086036054 0.70099998 -0.030727165 1.1163272e-38 327 265
0.0098607466 0.70300001 -0.030814834 1.1071073e-38 328 265
0.01109334 0.70300001 -0.030814834 1.1071073e-38 329 265
0.012325933 0.70300001 -0.030814834 1.107035e-38 330 265
0.013616386 0.70599997 -0.030946331 1.0978155e-38 331 265
0.014854239 0.70599997 -0.030946331 1.0978152e-38 332 265
0.016114887 0.70700002 -0.030990168 1.0885956e-38 333 265
0.017379038 0.708 -0.031034 1.0885593e-38 334 265
0.0186204 0.708 -0.031034 1.0885593e-38 335 265
0.019917866 0.70999998 -0.031121666 1.0793395e-38 336 265
0.021192541 0.71100003 -0.031165501 1.0885591e-38 337 265
0.022502279 0.713 -0.031253166 1.0976344e-38 338 265
0.023852346 0.71600002 -0.031384666 1.0699397e-38 339 265
0.025107734 0.71600002 -0.031384666 9.9632643e-39 340 265
0.02639994 0.71700001 -0.031428497 1.1069253e-38 341 265
0.027734226 0.71899998 -0.031516165 1.4843869e-38 342 265
0.029156178 0.72299999 -0.031691495 1.7240956e-38 343 265
-0.039134402 0.72000003 -0.0328224 1.7885955e-38 289 266
-0.037819397 0.71899998 -0.032776814 1.7609015e-38 290 266
-0.036558751 0.71899998 -0.032776814 1.6963646e-38 291 266
-0.035199918 0.71700001 -0.032685637 1.3185793e-38 292 266
-0.033942781 0.71700001 -0.032685637 1.3093597e-38 293 266
-0.032640055 0.71600002 -0.032640055 1.3463471e-38 294 266
-0.031296998 0.71399999 -0.032548878 1.3647862e-38 295 266
-0.030003037 0.713 -0.032503292 1.3097931e-38 296 266
-0.028672259 0.71100003 -0.032412119 1.2913541e-38 297 266
-0.027387066 0.70999998 -0.032366529 1.2913547e-38 298 266
-0.026068559 0.708 -0.03227536 1.2821351e-38 299 266
-0.024827199 0.708 -0.03227536 1.2821351e-38 300 266
-0.023552528 0.70700002 -0.032229774 1.2728797e-38 301 266
-0.022281358 0.70599997 -0.032184184 1.2454011e-38 302 266
-0.020983893 0.704 -0.032093015 1.2361456e-38 303 266
-0.019749546 0.704 -0.032093015 1.208595e-38 304 266
-0.018515198 0.704 -0.032093015 1.1993754e-38 305 266
-0.017280852 0.704 -0.032093015 1.1717888e-38 306 266
-0.016046507 0.704 -0.032093015 1.1717888e-38 307 266
-0.014812159 0.704 -0.032093015 1.1534575e-38 308 266
-0.013558527 0.70300001 -0.032047424 1.1534575e-38 309 266
-0.012290866 0.70099998 -0.031956252 1.1625695e-38 310 266
-0.011061779 0.70099998 -0.031956252 1.1625695e-38 311 266
-0.0098326923 0.70099998 -0.031956252 1.1442024e-38 312 266
-0.0086036054 0.70099998 -0.031956252 1.1349828e-38 313 266
-0.0073639993 0.69999999 -0.031910665 1.1349828e-38 314 266
-0.0061366665 0.69999999 -0.031910665 1.1257632e-38 315 266
-0.0049163462 0.70099998 -0.031956252 1.1257632e-38 316 266
-0.0036872597 0.70099998 -0.031956252 1.1165435e-38 317 266
-0.0024581731 0.70099998 -0.031956252 1.1165435e-38 318 266
