# .PCD v.7 - Point Cloud Data file format
FIELDS x y z rgb imX imY
SIZE 4 4 4 4 4 4
TYPE F F F F F F
COUNT 1 1 1 1 1 1
WIDTH 835
HEIGHT 1
VIEWPOINT 0 0 0 1 0 0 0
POINTS 835
DATA ascii
0.01489632 0.708 -0.03599944 7.37391e-39 332 269
0.016183265 0.70999998 -0.036101133 7.6508556e-39 333 269
0.017428132 0.70999998 -0.036101133 8.3880423e-39 334 269
0.018672999 0.70999998 -0.036101133 8.6649879e-39 335 269
0.019917866 0.70999998 -0.036101133 9.3114111e-39 336 269
0.021162732 0.70999998 -0.036101133 1.5304128e-38 337 269
0.022407599 0.70999998 -0.036101133 2.1296114e-38 338 269
-0.039134402 0.72000003 -0.037871998 1.5857298e-38 289 270
-0.0372408 0.708 -0.0372408 1.0509964e-38 290 270
-0.03599944 0.708 -0.0372408 8.7586073e-39 291 270
-0.034708988 0.70700002 -0.037188202 9.5883805e-39 292 270
-0.033469379 0.70700002 -0.037188202 9.2199582e-39 293 270
-0.032184184 0.70599997 -0.037135597 9.3082063e-39 294 270
-0.030946331 0.70599997 -0.037135597 9.1234563e-39 295 270
-0.029624319 0.704 -0.037030395 8.6646516e-39 296 270
-0.028389972 0.704 -0.037030395 8.6646516e-39 297 270
-0.027117053 0.70300001 -0.036977798 7.9299802e-39 298 270
-0.025884461 0.70300001 -0.036977798 8.4831526e-39 299 270
-0.024651866 0.70300001 -0.036977798 8.3920528e-39 300 270
-0.023352645 0.70099998 -0.036872596 8.3920528e-39 301 270
-0.022123558 0.70099998 -0.036872596 8.3020208e-39 302 270
-0.020864666 0.69999999 -0.036819998 8.3020208e-39 303 270
-0.019637333 0.69999999 -0.036819998 8.8544729e-39 304 270
-0.018409999 0.69999999 -0.036819998 9.315451e-39 305 270
-0.017133573 0.69800001 -0.0367148 2.8671477e-39 306 270
-0.015909746 0.69800001 -0.0367148 3.051539e-39 307 270
-0.01468592 0.69800001 -0.0367148 8.9430588e-39 308 270
-0.013462093 0.69800001 -0.0367148 1.0510024e-38 309 270
-0.012238266 0.69800001 -0.0367148 7.8514515e-39 310 270
-0.01101444 0.69800001 -0.0367148 8.4968209e-39 311 270
-0.0097906133 0.69800001 -0.0367148 1.0148436e-38 312 270
-0.0085667865 0.69800001 -0.0367148 1.1439175e-38 313 270
-0.0073429602 0.69800001 -0.0367148 1.0058404e-38 314 270
-0.006119133 0.69800001 -0.0367148 7.4769264e-39 315 270
-0.0048953067 0.69800001 -0.0367148 7.5698423e-39 316 270
-0.0036714801 0.69800001 -0.0367148 7.662038e-39 317 270
-0.0024476533 0.69800001 -0.0367148 8.1197763e-39 318 270
-0.0012273333 0.69999999 -0.036819998 8.6729487e-39 319 270
0 0.69999999 -0.036819998 9.7764222e-39 320 270
0.0012273333 0.69999999 -0.036819998 8.9470216e-39 321 270
0.0024546667 0.69999999 -0.036819998 8.301655e-39 322 270
0.0036819996 0.69999999 -0.036819998 7.8403168e-39 323 270
0.0049093333 0.69999999 -0.036819998 7.7477526e-39 324 270
0.0061366665 0.69999999 -0.036819998 6.641405e-39 325 270
0.0073745195 0.70099998 -0.036872596 7.1002154e-39 326 270
0.0086281532 0.70300001 -0.036977798 6.9158241e-39 327 270
0.0098607466 0.70300001 -0.036977798 7.0994965e-39 328 270
0.01109334 0.70300001 -0.036977798 7.0994965e-39 329 270
0.012378532 0.70599997 -0.037135597 7.5583068e-39 330 270
0.013635674 0.70700002 -0.037188202 7.5583068e-39 331 270
0.01489632 0.708 -0.0372408 7.8341679e-39 332 270
0.016183265 0.70999998 -0.037345998 8.0185605e-39 333 270
0.017428132 0.70999998 -0.037345998 8.7571849e-39 334 270
0.018672999 0.70999998 -0.037345998 9.0334117e-39 335 270
0.019917866 0.70999998 -0.037345998 9.6791188e-39 336 270
0.021162732 0.70999998 -0.037345998 1.5395246e-38 337 270
0.022407599 0.70999998 -0.037345998 2.1112805e-38 338 270
-0.039134402 0.72000003 -0.039134402 1.6317554e-38 289 271
-0.037871998 0.72000003 -0.039134402 1.0787264e-38 290 271
-0.036101133 0.70999998 -0.038590867 8.7586017e-39 291 271
-0.034708988 0.70700002 -0.038427804 9.7713327e-39 292 271
-0.033469379 0.70700002 -0.038427804 9.4025515e-39 293 271
-0.032184184 0.70599997 -0.038373452 9.3078504e-39 294 271
-0.030946331 0.70599997 -0.038373452 9.2156548e-39 295 271
-0.029708479 0.70599997 -0.038373452 8.9412441e-39 296 271
-0.028389972 0.704 -0.038264744 8.9412441e-39 297 271
-0.027117053 0.70300001 -0.038210396 8.0250653e-39 298 271
-0.025884461 0.70300001 -0.038210396 8.5778804e-39 299 271
-0.024651866 0.70300001 -0.038210396 1.0143061e-38 300 271
-0.023419274 0.70300001 -0.038210396 1.0604037e-38 301 271
-0.022123558 0.70099998 -0.038101684 1.069623e-38 302 271
-0.020894472 0.70099998 -0.038101684 1.0327808e-38 303 271
-0.019665385 0.70099998 -0.038101684 9.313286e-39 304 271
-0.018409999 0.69999999 -0.038047329 7.1924278e-39 305 271
-0.017182667 0.69999999 -0.038047329 4.3361457e-39 306 271
-0.015955333 0.69999999 -0.038047329 4.9815151e-39 307 271
-0.014727999 0.69999999 -0.038047329 6.6377953e-39 308 271
-0.013500666 0.69999999 -0.038047329 6.6377953e-39 309 271
-0.012273333 0.69999999 -0.038047329 2.6931849e-39 310 271
-0.01101444 0.69800001 -0.037938625 5.3668582e-39 311 271
-0.0097906133 0.69800001 -0.037938625 1.1436301e-38 312 271
-0.0085667865 0.69800001 -0.037938625 1.1621051e-38 313 271
-0.0073639993 0.69999999 -0.038047329 9.5052303e-39 314 271
-0.006119133 0.69800001 -0.037938625 8.0301002e-39 315 271
-0.0048953067 0.69800001 -0.037938625 7.6616876e-39 316 271
-0.0036714801 0.69800001 -0.037938625 6.7400901e-39 317 271
-0.0024546667 0.69999999 -0.038047329 7.3836616e-39 318 271
-0.0012273333 0.69999999 -0.038047329 7.4758572e-39 319 271
0 0.69999999 -0.038047329 8.209472e-39 320 271
0.0012273333 0.69999999 -0.038047329 7.8410496e-39 321 271
0.0024546667 0.69999999 -0.038047329 7.8392476e-39 322 271
0.0036819996 0.69999999 -0.038047329 7.1938782e-39 323 271
0.0049093333 0.69999999 -0.038047329 6.824367e-39 324 271
0.0061366665 0.69999999 -0.038047329 6.7321713e-39 325 271
0.0073745195 0.70099998 -0.038101684 6.9161969e-39 326 271
0.0086281532 0.70300001 -0.038210396 7.1002294e-39 327 271
0.0098747732 0.704 -0.038264744 7.0098218e-39 328 271
0.011109119 0.704 -0.038264744 7.0098218e-39 329 271
0.012378532 0.70599997 -0.038373452 7.283878e-39 330 271
0.013635674 0.70700002 -0.038427804 7.283878e-39 331 271
0.01489632 0.708 -0.038482159 7.9281656e-39 332 271
0.016183265 0.70999998 -0.038590867 7.9281656e-39 333 271
0.017428132 0.70999998 -0.038590867 9.2196078e-39 334 271
0.0186993 0.71100003 -0.038645219 9.403639e-39 335 271
0.01994592 0.71100003 -0.038645219 9.4039739e-39 336 271
0.021252153 0.713 -0.038753927 1.539669e-38 337 271
-0.040565118 0.72299999 -0.040565118 2.1758171e-38 288 272
-0.039080046 0.71899998 -0.040340692 1.6503021e-38 289 272
-0.037661601 0.71600002 -0.040172372 1.1062772e-38 290 272
-0.036101133 0.70999998 -0.039835732 8.9422726e-39 291 272
-0.034758076 0.708 -0.039723519 9.5876617e-39 292 272
-0.033516716 0.708 -0.039723519 9.1266821e-39 293 272
-0.032229774 0.70700002 -0.039667413 9.3078532e-39 294 272
-0.030990168 0.70700002 -0.039667413 9.3078532e-39 295 272
-0.029708479 0.70599997 -0.039611302 9.1263556e-39 296 272
-0.028389972 0.704 -0.039499093 9.2185512e-39 297 272
-0.027155625 0.704 -0.039499093 7.106702e-39 298 272
-0.02592128 0.704 -0.039499093 7.4751258e-39 299 272
-0.024686933 0.704 -0.039499093 9.5902401e-39 300 272
-0.023419274 0.70300001 -0.039442986 1.0880979e-38 301 272
-0.02218668 0.70300001 -0.039442986 1.124724e-38 302 272
-0.020954086 0.70300001 -0.039442986 1.1339436e-38 303 272
-0.019665385 0.70099998 -0.039330769 1.1064277e-38 304 272
-0.018436298 0.70099998 -0.039330769 9.2203659e-39 305 272
-0.017182667 0.69999999 -0.039274666 7.0976958e-39 306 272
-0.015955333 0.69999999 -0.039274666 5.991707e-39 307 272
-0.014727999 0.69999999 -0.039274666 6.5430759e-39 308 272
-0.013500666 0.69999999 -0.039274666 6.5430759e-39 309 272
-0.012273333 0.69999999 -0.039274666 5.5339813e-39 310 272
-0.01101444 0.69800001 -0.039162453 5.9031239e-39 311 272
-0.0097906133 0.69800001 -0.039162453 6.3748991e-39 312 272
-0.0085667865 0.69800001 -0.039162453 8.8641811e-39 313 272
-0.0073639993 0.69999999 -0.039274666 9.5931127e-39 314 272
-0.006119133 0.69800001 -0.039162453 8.1176239e-39 315 272
-0.0048953067 0.69800001 -0.039162453 6.0976045e-39 316 272
-0.0036714801 0.69800001 -0.039162453 5.5444308e-39 317 272
-0.0024546667 0.69999999 -0.039274666 7.8392476e-39 318 272
-0.0012273333 0.69999999 -0.039274666 7.9314432e-39 319 272
0 0.69999999 -0.039274666 8.2065881e-39 320 272
0.0012273333 0.69999999 -0.039274666 8.0218382e-39 321 272
0.0024546667 0.69999999 -0.039274666 7.7452485e-39 322 272
0.0036819996 0.69999999 -0.039274666 7.284629e-39 323 272
0.0049093333 0.69999999 -0.039274666 7.282827e-39 324 272
0.0061454331 0.70099998 -0.039330769 7.282827e-39 325 272
0.0073955595 0.70300001 -0.039442986 7.0073163e-39 326 272
0.0086281532 0.70300001 -0.039442986 7.0073163e-39 327 272
0.0098747732 0.704 -0.039499093 7.1002322e-39 328 272
0.011140679 0.70599997 -0.039611302 7.1002322e-39 329 272
0.012378532 0.70599997 -0.039611302 7.0051527e-39 330 272
0.013635674 0.70700002 -0.039667413 7.1895439e-39 331 272
0.01489632 0.708 -0.039723519 8.2987558e-39 332 272
0.016183265 0.70999998 -0.039835732 8.9441252e-39 333 272
0.017428132 0.70999998 -0.039835732 1.0418514e-38 334 272
0.0186993 0.71100003 -0.039891839 9.4969164e-39 335 272
0.020002026 0.713 -0.040004052 8.6689256e-39 336 272
0.021252153 0.713 -0.040004052 1.512262e-38 337 272
0.02262852 0.71700001 -0.040228479 2.1388311e-38 338 272
-0.040396802 0.72000003 -0.041659199 2.1758895e-38 288 273
-0.039080046 0.71899998 -0.041601337 1.6503383e-38 289 273
-0.037556399 0.71399999 -0.041312039 1.0879823e-38 290 273
-0.036101133 0.70999998 -0.041080594 8.4830966e-39 291 273
-0.034856264 0.70999998 -0.041080594 9.6784154e-39 292 273
-0.033611398 0.70999998 -0.041080594 9.5862197e-39 293 273
-0.03227536 0.708 -0.040964879 9.5829982e-39 294 273
-0.030990168 0.70700002 -0.040907022 9.9514219e-39 295 273
-0.029750559 0.70700002 -0.040907022 9.6784532e-39 296 273
-0.028470624 0.70599997 -0.040849157 9.2171163e-39 297 273
-0.027155625 0.704 -0.040733438 5.0780422e-39 298 273
-0.02592128 0.704 -0.040733438 5.7234116e-39 299 273
-0.024686933 0.704 -0.040733438 7.5615831e-39 300 273
-0.023452586 0.704 -0.040733438 8.7601249e-39 301 273
-0.02218668 0.70300001 -0.040675577 9.3147322e-39 302 273
-0.020954086 0.70300001 -0.040675577 9.8679045e-39 303 273
-0.019721493 0.70300001 -0.040675577 1.087953e-38 304 273
-0.018436298 0.70099998 -0.040559858 1.0418911e-38 305 273
-0.017207211 0.70099998 -0.040559858 7.4679259e-39 306 273
-0.015978126 0.70099998 -0.040559858 5.9924357e-39 307 273
-0.014727999 0.69999999 -0.040502001 6.2675806e-39 308 273
-0.013500666 0.69999999 -0.040502001 6.452332e-39 309 273
-0.012273333 0.69999999 -0.040502001 6.1779031e-39 310 273
-0.011045999 0.69999999 -0.040502001 5.9016764e-39 311 273
-0.0098186666 0.69999999 -0.040502001 4.0671301e-39 312 273
-0.0085913334 0.69999999 -0.040502001 6.3723809e-39 313 273
-0.0073639993 0.69999999 -0.040502001 9.0370663e-39 314 273
-0.0061366665 0.69999999 -0.040502001 8.760478e-39 315 273
-0.0049093333 0.69999999 -0.040502001 7.1981914e-39 316 273
-0.0036819996 0.69999999 -0.040502001 6.4606263e-39 317 273
-0.0024546667 0.69999999 -0.040502001 6.3670112e-39 318 273
-0.0012273333 0.69999999 -0.040502001 6.3670112e-39 319 273
0 0.69999999 -0.040502001 6.5503206e-39 320 273
0.0012273333 0.69999999 -0.040502001 6.3659294e-39 321 273
0.0024546667 0.69999999 -0.040502001 6.8236537e-39 322 273
0.0036819996 0.69999999 -0.040502001 6.6389037e-39 323 273
0.0049163462 0.70099998 -0.040559858 7.0051625e-39 324 273
0.0061629666 0.70300001 -0.040675577 7.0051625e-39 325 273
0.0073955595 0.70300001 -0.040675577 6.5463423e-39 326 273
0.0086404262 0.704 -0.040733438 7.0073191e-39 327 273
0.0099028256 0.70599997 -0.040849157 7.3771778e-39 328 273
0.011140679 0.70599997 -0.040849157 6.9161997e-39 329 273
0.012396066 0.70700002 -0.040907022 6.0835649e-39 330 273
0.013635674 0.70700002 -0.040907022 6.6367387e-39 331 273
0.01489632 0.708 -0.040964879 9.0356075e-39 332 273
0.016183265 0.70999998 -0.041080594 9.9572037e-39 333 273
0.017428132 0.70999998 -0.041080594 9.2246455e-39 334 273
0.0186993 0.71100003 -0.041138459 8.6714717e-39 335 273
0.020002026 0.713 -0.041254178 8.6682067e-39 336 273
0.021371379 0.71700001 -0.041485619 1.5398488e-38 337 273
0.02262852 0.71700001 -0.041485619 2.1573061e-38 338 273
-0.041659199 0.72000003 -0.042921603 2.2680851e-38 287 274
-0.040340692 0.71899998 -0.042861983 2.1758174e-38 288 274
-0.038916986 0.71600002 -0.042683143 1.7055838e-38 289 274
-0.037556399 0.71399999 -0.042563915 1.1064937e-38 290 274
-0.036151983 0.71100003 -0.042385083 8.1150357e-39 291 274
-0.034856264 0.70999998 -0.042325463 9.219605e-39 292 274
-0.033611398 0.70999998 -0.042325463 9.0352124e-39 293 274
-0.03227536 0.708 -0.042206239 9.3996957e-39 294 274
-0.031034 0.708 -0.042206239 9.7684782e-39 295 274
-0.029750559 0.70700002 -0.042146627 1.0414226e-38 296 274
-0.028470624 0.70599997 -0.042087011 9.5841066e-39 297 274
-0.027155625 0.704 -0.041967787 6.1790032e-39 298 274
-0.02592128 0.704 -0.041967787 7.469742e-39 299 274
-0.024686933 0.704 -0.041967787 7.93146e-39 300 274
-0.023452586 0.704 -0.041967787 7.193895e-39 301 274
-0.022218239 0.704 -0.041967787 7.0127435e-39 302 274
-0.020983893 0.704 -0.041967787 6.9205479e-39 303 274
-0.019721493 0.70300001 -0.041908171 7.373973e-39 304 274
-0.018488899 0.70300001 -0.041908171 7.0051905e-39 305 274
-0.017207211 0.70099998 -0.041788943 6.5456389e-39 306 274
-0.015978126 0.70099998 -0.041788943 6.5456389e-39 307 274
-0.014749039 0.70099998 -0.041788943 6.6367387e-39 308 274
-0.013500666 0.69999999 -0.041729331 6.7289343e-39 309 274
-0.012273333 0.69999999 -0.041729331 6.0882383e-39 310 274
-0.011045999 0.69999999 -0.041729331 5.9960412e-39 311 274
-0.0098186666 0.69999999 -0.041729331 5.8109437e-39 312 274
-0.0085913334 0.69999999 -0.041729331 5.8109437e-39 313 274
-0.0073639993 0.69999999 -0.041729331 5.717323e-39 314 274
-0.0061366665 0.69999999 -0.041729331 5.6251273e-39 315 274
-0.0049093333 0.69999999 -0.041729331 5.5347296e-39 316 274
-0.0036819996 0.69999999 -0.041729331 5.7191208e-39 317 274
-0.0024546667 0.69999999 -0.041729331 6.4530929e-39 318 274
-0.0012273333 0.69999999 -0.041729331 6.5452886e-39 319 274
0 0.69999999 -0.041729331 6.8207965e-39 320 274
0.0012273333 0.69999999 -0.041729331 6.7286008e-39 321 274
0.0024546667 0.69999999 -0.041729331 6.6385562e-39 322 274
0.0036977797 0.70300001 -0.041908171 6.6385562e-39 323 274
0.0049303733 0.70300001 -0.041908171 6.5456417e-39 324 274
0.0061717331 0.704 -0.041967787 6.9140641e-39 325 274
0.0074060797 0.704 -0.041967787 6.3680776e-39 326 274
0.0086404262 0.704 -0.041967787 7.9357634e-39 327 274
0.0099028256 0.70599997 -0.042087011 8.8551946e-39 328 274
0.011140679 0.70599997 -0.042087011 7.7488484e-39 329 274
0.012396066 0.70700002 -0.042146627 5.6254636e-39 330 274
0.013635674 0.70700002 -0.042146627 5.9938874e-39 331 274
0.014938398 0.70999998 -0.042325463 8.8512135e-39 332 274
0.01620606 0.71100003 -0.042385083 9.4043872e-39 333 274
0.01745268 0.71100003 -0.042385083 9.2224945e-39 334 274
0.018751899 0.713 -0.042504307 8.4849295e-39 335 274
0.020030079 0.71399999 -0.042563915 8.7593261e-39 336 274
0.021371379 0.71700001 -0.042742759 1.5766554e-38 337 274
-0.041659199 0.72000003 -0.044183999 2.2864519e-38 287 275
-0.040340692 0.71899998 -0.044122629 2.1573427e-38 288 275
-0.038916986 0.71600002 -0.043938532 1.7240232e-38 289 275
-0.037556399 0.71399999 -0.043815799 1.0974186e-38 290 275
-0.036151983 0.71100003 -0.043631699 7.7476979e-39 291 275
-0.034905359 0.71100003 -0.043631699 9.4936696e-39 292 275
-0.033611398 0.70999998 -0.043570329 9.5858666e-39 293 275
-0.032366529 0.70999998 -0.043570329 9.6755595e-39 294 275
-0.031121666 0.70999998 -0.043570329 9.9525065e-39 295 275
-0.02979264 0.708 -0.043447599 1.0046883e-38 296 275
-0.028470624 0.70599997 -0.043324865 9.2171219e-39 297 275
-0.027232772 0.70599997 -0.043324865 5.2628062e-39 298 275
-0.025994917 0.70599997 -0.043324865 6.7379363e-39 299 275
-0.024757065 0.70599997 -0.043324865 8.9438141e-39 300 275
-0.023452586 0.704 -0.043202132 8.4831947e-39 301 275
-0.022218239 0.704 -0.043202132 9.6774162e-39 302 275
-0.020983893 0.704 -0.043202132 1.0046197e-38 303 275
-0.019721493 0.70300001 -0.043140765 8.48571e-39 304 275
-0.018488899 0.70300001 -0.043140765 7.7481449e-39 305 275
-0.017256306 0.70300001 -0.043140765 7.2900409e-39 306 275
-0.016023712 0.70300001 -0.043140765 7.0134526e-39 307 275
-0.014749039 0.70099998 -0.043018032 7.0116491e-39 308 275
-0.013519952 0.70099998 -0.043018032 6.6432253e-39 309 275
-0.012273333 0.69999999 -0.042956665 6.1847653e-39 310 275
-0.011045999 0.69999999 -0.042956665 6.000374e-39 311 275
-0.0098186666 0.69999999 -0.042956665 5.447566e-39 312 275
-0.0085913334 0.69999999 -0.042956665 5.1713392e-39 313 275
-0.0073639993 0.69999999 -0.042956665 7.4640009e-39 314 275
-0.0061366665 0.69999999 -0.042956665 7.1870552e-39 315 275
-0.0049093333 0.69999999 -0.042956665 5.5372449e-39 316 275
-0.0036872597 0.70099998 -0.043018032 5.6294405e-39 317 275
-0.0024581731 0.70099998 -0.043018032 6.6356821e-39 318 275
-0.0012290865 0.70099998 -0.043018032 7.0966603e-39 319 275
0 0.70099998 -0.043018032 7.5587146e-39 320 275
0.0012325933 0.70300001 -0.043140765 7.7431059e-39 321 275
0.0024651866 0.70300001 -0.043140765 7.9321663e-39 322 275
0.0036977797 0.70300001 -0.043140765 7.9321663e-39 323 275
0.0049373866 0.704 -0.043202132 6.6428694e-39 324 275
0.0061717331 0.704 -0.043202132 7.0116519e-39 325 275
0.0074060797 0.704 -0.043202132 8.3902704e-39 326 275
0.0086404262 0.704 -0.043202132 7.9292922e-39 327 275
0.0099028256 0.70599997 -0.043324865 7.5640998e-39 328 275
0.011140679 0.70599997 -0.043324865 7.1034818e-39 329 275
0.012396066 0.70700002 -0.043386232 6.7318084e-39 330 275
0.013654959 0.708 -0.043447599 6.824004e-39 331 275
0.014938398 0.70999998 -0.043570329 8.0225318e-39 332 275
0.01620606 0.71100003 -0.043631699 8.8519323e-39 333 275
0.01745268 0.71100003 -0.043631699 8.7640373e-39 334 275
0.018751899 0.713 -0.043754432 8.1186679e-39 335 275
0.020030079 0.71399999 -0.043815799 8.8511686e-39 336 275
0.021371379 0.71700001 -0.043999899 1.558145e-38 337 275
-0.041659199 0.72000003 -0.045446403 2.2771967e-38 287 276
-0.040340692 0.71899998 -0.045383278 2.1573071e-38 288 276
-0.038916986 0.71600002 -0.045193922 1.714804e-38 289 276
-0.037556399 0.71399999 -0.045067675 1.0883072e-38 290 276
-0.036253672 0.713 -0.045004558 7.9324535e-39 291 276
-0.035003547 0.713 -0.045004558 9.4954688e-39 292 276
-0.033658739 0.71100003 -0.044878319 9.4032732e-39 293 276
-0.032366529 0.70999998 -0.044815198 9.4922473e-39 294 276
-0.031121666 0.70999998 -0.044815198 9.9532254e-39 295 276
-0.02979264 0.708 -0.044688959 1.0322393e-38 296 276
-0.028510952 0.70700002 -0.044625837 9.5848282e-39 297 276
-0.027232772 0.70599997 -0.044562716 5.6319418e-39 298 276
-0.025994917 0.70599997 -0.044562716 6.2773113e-39 299 276
-0.024757065 0.70599997 -0.044562716 7.5623047e-39 300 276
-0.023452586 0.704 -0.044436477 8.3920654e-39 301 276
-0.022218239 0.704 -0.044436477 1.0505732e-38 302 276
-0.020983893 0.704 -0.044436477 1.1243297e-38 303 276
-0.019721493 0.70300001 -0.04437336 1.0697316e-38 304 276
-0.018488899 0.70300001 -0.04437336 1.0973543e-38 305 276
-0.017256306 0.70300001 -0.04437336 1.0331771e-38 306 276
-0.016023712 0.70300001 -0.04437336 9.8707912e-39 307 276
-0.014749039 0.70099998 -0.044247117 8.3960311e-39 308 276
-0.013519952 0.70099998 -0.044247117 7.6584661e-39 309 276
-0.012290866 0.70099998 -0.044247117 7.845381e-39 310 276
-0.011061779 0.70099998 -0.044247117 7.845381e-39 311 276
-0.0098326923 0.70099998 -0.044247117 7.3854763e-39 312 276
-0.0085913334 0.69999999 -0.044183996 7.846453e-39 313 276
-0.0073639993 0.69999999 -0.044183996 1.1151458e-38 314 276
-0.0061366665 0.69999999 -0.044183996 1.0966706e-38 315 276
-0.0049093333 0.69999999 -0.044183996 9.1321486e-39 316 276
-0.0036872597 0.70099998 -0.044247117 8.4867792e-39 317 276
-0.0024581731 0.70099998 -0.044247117 8.0207718e-39 318 276
-0.0012290865 0.70099998 -0.044247117 8.6661412e-39 319 276
0 0.70300001 -0.04437336 8.8501751e-39 320 276
0.0012325933 0.70300001 -0.04437336 8.6657852e-39 321 276
0.0024651866 0.70300001 -0.04437336 9.3118763e-39 322 276
0.0037030398 0.704 -0.044436477 9.2196807e-39 323 276
0.0049373866 0.704 -0.044436477 7.8410468e-39 324 276
0.0061717331 0.704 -0.044436477 7.9332425e-39 325 276
0.0074271196 0.70599997 -0.044562716 9.2185793e-39 326 276
0.0086649731 0.70599997 -0.044562716 6.4530705e-39 327 276
0.0099028256 0.70599997 -0.044562716 5.2599223e-39 328 276
0.011156459 0.70700002 -0.044625837 6.2737141e-39 329 276
0.012396066 0.70700002 -0.044625837 7.1924278e-39 330 276
0.013654959 0.708 -0.044688959 7.2846234e-39 331 276
0.014959441 0.71100003 -0.044878319 7.6530332e-39 332 276
0.016251646 0.713 -0.045004558 8.206207e-39 333 276
0.017501773 0.713 -0.045004558 8.9466335e-39 334 276
0.018778199 0.71399999 -0.045067675 8.2087083e-39 335 276
0.020086186 0.71600002 -0.045193922 8.6675032e-39 336 276
0.021371379 0.71700001 -0.045257039 1.5213393e-38 337 276
-0.041659199 0.72000003 -0.0467088 2.3046756e-38 287 277
-0.040340692 0.71899998 -0.046643924 2.1205368e-38 288 277
-0.038916986 0.71600002 -0.046449307 1.6411193e-38 289 277
-0.037556399 0.71399999 -0.046319555 1.0790877e-38 290 277
-0.036253672 0.713 -0.046254687 8.2093992e-39 291 277
-0.035003547 0.713 -0.046254687 9.5876617e-39 292 277
-0.033753417 0.713 -0.046254687 9.3110748e-39 293 277
-0.032412119 0.71100003 -0.046124939 9.582645e-39 294 277
-0.031165501 0.71100003 -0.046124939 9.9510688e-39 295 277
-0.029876797 0.70999998 -0.046060063 9.4944305e-39 296 277
-0.02855128 0.708 -0.045930319 9.7710188e-39 297 277
-0.027232772 0.70599997 -0.04580057 8.3016522e-39 298 277
-0.025994917 0.70599997 -0.04580057 8.5778804e-39 299 277
-0.024757065 0.70599997 -0.04580057 8.2991481e-39 300 277
-0.023519212 0.70599997 -0.04580057 8.4838981e-39 301 277
-0.022218239 0.704 -0.045670826 7.5655488e-39 302 277
-0.020983893 0.704 -0.045670826 7.5655488e-39 303 277
-0.019749546 0.704 -0.045670826 7.932539e-39 304 277
-0.018515198 0.704 -0.045670826 7.8403434e-39 305 277
-0.017280852 0.704 -0.045670826 9.2178786e-39 306 277
-0.016046507 0.704 -0.045670826 9.6792169e-39 307 277
-0.014791119 0.70300001 -0.04560595 7.7495925e-39 308 277
-0.013558527 0.70300001 -0.04560595 7.4730056e-39 309 277
-0.012325933 0.70300001 -0.04560595 7.6599178e-39 310 277
-0.01109334 0.70300001 -0.04560595 7.6599178e-39 311 277
-0.0098326923 0.70099998 -0.045476202 7.8435776e-39 312 277
-0.0086036054 0.70099998 -0.045476202 8.8580882e-39 313 277
-0.0073955595 0.70300001 -0.04560595 1.0237413e-38 314 277
-0.0061629666 0.70300001 -0.04560595 9.8682717e-39 315 277
-0.0049303733 0.70300001 -0.04560595 8.9470371e-39 316 277
-0.0036872597 0.70099998 -0.045476202 8.209472e-39 317 277
-0.0024581731 0.70099998 -0.045476202 6.9183829e-39 318 277
-0.0012325933 0.70300001 -0.04560595 7.6559493e-39 319 277
0 0.70300001 -0.04560595 7.9307439e-39 320 277
0.0012325933 0.70300001 -0.04560595 7.2853745e-39 321 277
0.0024686933 0.704 -0.045670826 8.4774437e-39 322 277
0.0037030398 0.704 -0.045670826 8.0164656e-39 323 277
0.0049373866 0.704 -0.045670826 6.8204279e-39 324 277
0.0061892662 0.70599997 -0.04580057 7.0970134e-39 325 277
0.0074271196 0.70599997 -0.04580057 7.1920803e-39 326 277
0.0086649731 0.70599997 -0.04580057 6.1779284e-39 327 277
0.0099168532 0.70700002 -0.045865446 6.1786346e-39 328 277
0.011156459 0.70700002 -0.045865446 6.824004e-39 329 277
0.0124136 0.708 -0.045930319 7.2853297e-39 330 277
0.013693533 0.70999998 -0.046060063 7.3775253e-39 331 277
0.015001519 0.713 -0.046254687 7.74414e-39 332 277
0.016251646 0.713 -0.046254687 8.3895094e-39 333 277
0.017526319 0.71399999 -0.046319555 9.4994373e-39 334 277
0.018778199 0.71399999 -0.046319555 8.5771223e-39 335 277
0.020086186 0.71600002 -0.046449307 8.2997997e-39 336 277
0.021371379 0.71700001 -0.046514176 1.4292516e-38 337 277
0.02262852 0.71700001 -0.046514176 1.9179225e-38 338 277
-0.041601337 0.71899998 -0.04790457 2.2771246e-38 287 278
-0.040340692 0.71899998 -0.04790457 2.0744389e-38 288 278
-0.038916986 0.71600002 -0.047704693 1.5120455e-38 289 278
-0.037661601 0.71600002 -0.047704693 1.0054031e-38 290 278
-0.036304519 0.71399999 -0.047571439 8.210118e-39 291 278
-0.035052639 0.71399999 -0.047571439 9.6780594e-39 292 278
-0.033753417 0.713 -0.047504812 9.4936668e-39 293 278
-0.032503292 0.713 -0.047504812 9.2135024e-39 294 278
-0.031253166 0.713 -0.047504812 9.3982538e-39 295 278
-0.029876797 0.70999998 -0.047304932 8.7575927e-39 296 278
-0.028631933 0.70999998 -0.047304932 9.6791889e-39 297 278
-0.027309919 0.708 -0.047171678 9.8675486e-39 298 278
-0.026068559 0.708 -0.047171678 1.00523e-38 299 278
-0.024792133 0.70700002 -0.047105055 1.0143414e-38 300 278
-0.023519212 0.70599997 -0.047038425 9.1296206e-39 301 278
-0.022281358 0.70599997 -0.047038425 7.3843805e-39 302 278
-0.021043506 0.70599997 -0.047038425 6.4624256e-39 303 278
-0.019749546 0.704 -0.046905171 6.0904159e-39 304 278
-0.018515198 0.704 -0.046905171 5.3528494e-39 305 278
-0.017280852 0.704 -0.046905171 6.6367583e-39 306 278
-0.016046507 0.704 -0.046905171 7.2821277e-39 307 278
-0.014791119 0.70300001 -0.046838548 7.19569e-39 308 278
-0.013558527 0.70300001 -0.046838548 7.38044e-39 309 278
-0.012325933 0.70300001 -0.046838548 6.8301501e-39 310 278
-0.01109334 0.70300001 -0.046838548 6.7379545e-39 311 278
-0.0098607466 0.70300001 -0.046838548 6.6450372e-39 312 278
-0.0086281532 0.70300001 -0.046838548 7.8435804e-39 313 278
-0.0073955595 0.70300001 -0.046838548 9.2229051e-39 314 278
-0.0061629666 0.70300001 -0.046838548 8.0243619e-39 315 278
-0.0049303733 0.70300001 -0.046838548 6.7336231e-39 316 278
-0.0036977797 0.70300001 -0.046838548 6.5488717e-39 317 278
-0.0024651866 0.70300001 -0.046838548 7.0977393e-39 318 278
-0.0012325933 0.70300001 -0.046838548 6.8211524e-39 319 278
0 0.70300001 -0.046838548 7.1009763e-39 320 278
0.0012343467 0.704 -0.046905171 6.0871845e-39 321 278
0.0024686933 0.704 -0.046905171 6.8196978e-39 322 278
0.0037135598 0.70599997 -0.047038425 6.2668828e-39 323 278
0.0049514128 0.70599997 -0.047038425 6.8150133e-39 324 278
0.0061892662 0.70599997 -0.047038425 6.8150133e-39 325 278
0.0074376399 0.70700002 -0.047105055 6.4516286e-39 326 278
0.008677247 0.70700002 -0.047105055 6.9122466e-39 327 278
0.0099168532 0.70700002 -0.047105055 6.4559418e-39 328 278
0.01117224 0.708 -0.047171678 6.7325273e-39 329 278
0.012448666 0.70999998 -0.047304932 7.099865e-39 330 278
0.013693533 0.70999998 -0.047304932 7.1920621e-39 331 278
0.015001519 0.713 -0.047504812 7.3771596e-39 332 278
0.016251646 0.713 -0.047504812 8.3909514e-39 333 278
0.017526319 0.71399999 -0.047571439 1.032775e-38 334 278
0.018778199 0.71399999 -0.047571439 9.4979898e-39 335 278
0.020086186 0.71600002 -0.047704693 8.3001472e-39 336 278
0.021371379 0.71700001 -0.04777132 1.3370905e-38 337 278
-0.041601337 0.71899998 -0.049165215 2.2771246e-38 287 279
-0.040172372 0.71600002 -0.048960082 2.0375606e-38 288 279
-0.038808275 0.71399999 -0.048823316 1.3368739e-38 289 279
-0.037556399 0.71399999 -0.048823316 8.9498383e-39 290 279
-0.036304519 0.71399999 -0.048823316 8.1197189e-39 291 279
-0.035052639 0.71399999 -0.048823316 9.1266821e-39 292 279
-0.033753417 0.713 -0.048754938 8.8500966e-39 293 279
-0.032503292 0.713 -0.048754938 9.1227403e-39 294 279
-0.031253166 0.713 -0.048754938 9.0305432e-39 295 279
-0.029918881 0.71100003 -0.048618179 8.7550718e-39 296 279
-0.028631933 0.70999998 -0.048549797 9.2160499e-39 297 279
-0.027309919 0.708 -0.048413038 8.3938647e-39 298 279
-0.026068559 0.708 -0.048413038 8.9470371e-39 299 279
-0.024792133 0.70700002 -0.048344657 9.4098117e-39 300 279
-0.023519212 0.70599997 -0.048276275 9.3176146e-39 301 279
-0.022281358 0.70599997 -0.048276275 8.6761955e-39 302 279
-0.021043506 0.70599997 -0.048276275 8.6761955e-39 303 279
-0.019749546 0.704 -0.048139516 9.8686192e-39 304 279
-0.018515198 0.704 -0.048139516 8.9470216e-39 305 279
-0.017280852 0.704 -0.048139516 8.7583144e-39 306 279
-0.016046507 0.704 -0.048139516 8.2973362e-39 307 279
-0.014812159 0.704 -0.048139516 7.1067146e-39 308 279
-0.013577812 0.704 -0.048139516 6.6460966e-39 309 279
-0.012343466 0.704 -0.048139516 6.4595571e-39 310 279
-0.011109119 0.704 -0.048139516 6.2751659e-39 311 279
-0.0098747732 0.704 -0.048139516 6.1822514e-39 312 279
-0.0086281532 0.70300001 -0.048071139 7.0116519e-39 313 279
-0.0073955595 0.70300001 -0.048071139 7.7441779e-39 314 279
-0.0061629666 0.70300001 -0.048071139 7.3757555e-39 315 279
-0.0049303733 0.70300001 -0.048071139 8.0196732e-39 316 279
-0.0036977797 0.70300001 -0.048071139 8.3884557e-39 317 279
-0.0024686933 0.704 -0.048139516 8.5731973e-39 318 279
-0.0012343467 0.704 -0.048139516 8.388806e-39 319 279
0 0.704 -0.048139516 7.3818441e-39 320 279
0.0012343467 0.704 -0.048139516 7.1048985e-39 321 279
0.0024757064 0.70599997 -0.048276275 7.7466568e-39 322 279
0.0037135598 0.70599997 -0.048276275 7.4700713e-39 323 279
0.0049514128 0.70599997 -0.048276275 9.5786948e-39 324 279
0.0061980332 0.70700002 -0.048344657 8.4723472e-39 325 279
0.0074376399 0.70700002 -0.048344657 7.0930267e-39 326 279
0.008677247 0.70700002 -0.048344657 7.3699723e-39 327 279
0.0099168532 0.70700002 -0.048344657 6.4537796e-39 328 279
0.01117224 0.708 -0.048413038 6.7300077e-39 329 279
0.012448666 0.70999998 -0.048549797 7.0955462e-39 330 279
0.01371282 0.71100003 -0.048618179 7.2799389e-39 331 279
0.015022559 0.71399999 -0.048823316 7.8345336e-39 332 279
0.016274439 0.71399999 -0.048823316 8.6642957e-39 333 279
0.017526319 0.71399999 -0.048823316 9.5901826e-39 334 279
0.0188308 0.71600002 -0.048960082 8.9448132e-39 335 279
0.020086186 0.71600002 -0.048960082 7.0129957e-39 336 279
0.021371379 0.71700001 -0.04902846 1.153058e-38 337 279
-0.040172372 0.71600002 -0.050215468 2.0560351e-38 288 280
-0.038808275 0.71399999 -0.050075196 1.3276897e-38 289 280
-0.037556399 0.71399999 -0.050075196 8.5778117e-39 290 280
-0.036304519 0.71399999 -0.050075196 8.2086705e-39 291 280
-0.035052639 0.71399999 -0.050075196 8.8504526e-39 292 280
-0.033753417 0.713 -0.050005067 8.7582569e-39 293 280
-0.032503292 0.713 -0.050005067 8.9394252e-39 294 280
-0.031253166 0.713 -0.050005067 8.8472282e-39 295 280
-0.029918881 0.71100003 -0.049864799 8.4795569e-39 296 280
-0.028672259 0.71100003 -0.049864799 8.5717525e-39 297 280
-0.027387066 0.70999998 -0.049794663 7.5640998e-39 298 280
-0.026142199 0.70999998 -0.049794663 8.2094692e-39 299 280
-0.024827199 0.708 -0.049654398 8.3956654e-39 300 280
-0.023552528 0.70700002 -0.049584266 8.8566435e-39 301 280
-0.022312919 0.70700002 -0.049584266 8.3992527e-39 302 280
-0.021043506 0.70599997 -0.04951413 8.6761983e-39 303 280
-0.019805651 0.70599997 -0.04951413 9.685307e-39 304 280
-0.018567799 0.70599997 -0.04951413 9.8700569e-39 305 280
-0.017329946 0.70599997 -0.04951413 9.4094221e-39 306 280
-0.016046507 0.704 -0.049373865 8.8562483e-39 307 280
-0.014812159 0.704 -0.049373865 8.7608101e-39 308 280
-0.013577812 0.704 -0.049373865 8.7608101e-39 309 280
-0.012343466 0.704 -0.049373865 7.9353682e-39 310 280
-0.011109119 0.704 -0.049373865 7.750977e-39 311 280
-0.0098747732 0.704 -0.049373865 6.9237372e-39 312 280
-0.0086404262 0.704 -0.049373865 6.8315416e-39 313 280
-0.0074060797 0.704 -0.049373865 7.3796763e-39 314 280
-0.0061717331 0.704 -0.049373865 8.3938282e-39 315 280
-0.0049373866 0.704 -0.049373865 8.7647534e-39 316 280
-0.0037030398 0.704 -0.049373865 8.5807222e-39 317 280
-0.0024686933 0.704 -0.049373865 8.9469838e-39 318 280
-0.0012343467 0.704 -0.049373865 8.8547868e-39 319 280
0 0.704 -0.049373865 8.2108607e-39 320 280
0.0012378532 0.70599997 -0.04951413 8.2108607e-39 321 280
0.0024757064 0.70599997 -0.04951413 9.0366613e-39 322 280
0.0037135598 0.70599997 -0.04951413 8.8519113e-39 323 280
0.0049584266 0.70700002 -0.049584266 8.4824085e-39 324 280
0.0061980332 0.70700002 -0.049584266 7.376061e-39 325 280
0.0074376399 0.70700002 -0.049584266 4.8921866e-39 326 280
0.008677247 0.70700002 -0.049584266 5.7219472e-39 327 280
0.0099308798 0.708 -0.049654398 7.0976986e-39 328 280
0.011203799 0.70999998 -0.049794663 7.0976986e-39 329 280
0.0124662 0.71100003 -0.049864799 7.0051359e-39 330 280
0.013751393 0.713 -0.050005067 7.3735597e-39 331 280
0.015022559 0.71399999 -0.050075196 7.6508556e-39 332 280
0.016320027 0.71600002 -0.050215468 8.111475e-39 333 280
0.017575413 0.71600002 -0.050215468 8.3912891e-39 334 280
0.0188308 0.71600002 -0.050215468 7.6537241e-39 335 280
0.020086186 0.71600002 -0.050215468 4.9864954e-39 336 280
-0.038808275 0.71399999 -0.05132708 1.4752027e-38 289 281
-0.037556399 0.71399999 -0.05132708 7.8420404e-39 290 281
-0.036304519 0.71399999 -0.05132708 6.090322e-39 291 281
-0.035052639 0.71399999 -0.05132708 7.9299256e-39 292 281
-0.033800758 0.71399999 -0.05132708 8.298348e-39 293 281
-0.032503292 0.713 -0.051255193 8.5727895e-39 294 281
-0.031253166 0.713 -0.051255193 8.4805938e-39 295 281
-0.029918881 0.71100003 -0.051111419 8.2040392e-39 296 281
-0.028672259 0.71100003 -0.051111419 8.3887906e-39 297 281
-0.027387066 0.70999998 -0.051039528 7.8403196e-39 298 281
-0.026142199 0.70999998 -0.051039528 8.1169078e-39 299 281
-0.024897331 0.70999998 -0.051039528 7.8406965e-39 300 281
-0.023585839 0.708 -0.050895758 8.3013145e-39 301 281
-0.022312919 0.70700002 -0.050823875 8.3020404e-39 302 281
-0.021043506 0.70599997 -0.050751984 8.3020404e-39 303 281
-0.019805651 0.70599997 -0.050751984 8.4853358e-39 304 281
-0.018567799 0.70599997 -0.050751984 8.3013047e-39 305 281
-0.017329946 0.70599997 -0.050751984 8.5778692e-39 306 281
-0.016092092 0.70599997 -0.050751984 8.7622618e-39 307 281
-0.014812159 0.704 -0.050608214 8.5792915e-39 308 281
-0.013577812 0.704 -0.050608214 8.8558798e-39 309 281
-0.012343466 0.704 -0.050608214 8.2155452e-39 310 281
-0.011109119 0.704 -0.050608214 8.1233496e-39 311 281
-0.0098747732 0.704 -0.050608214 8.2155452e-39 312 281
-0.0086404262 0.704 -0.050608214 8.4002966e-39 313 281
-0.0074060797 0.704 -0.050608214 9.4998031e-39 314 281
-0.0061717331 0.704 -0.050608214 9.3150531e-39 315 281
-0.0049373866 0.704 -0.050608214 9.4094039e-39 316 281
-0.0037030398 0.704 -0.050608214 9.3172083e-39 317 281
-0.0024757064 0.70599997 -0.050751984 8.8569518e-39 318 281
-0.0012378532 0.70599997 -0.050751984 8.303778e-39 319 281
0 0.70599997 -0.050751984 7.9339221e-39 320 281
0.0012378532 0.70599997 -0.050751984 7.4729453e-39 321 281
0.0024757064 0.70599997 -0.050751984 8.4795527e-39 322 281
0.0037135598 0.70599997 -0.050751984 8.0185759e-39 323 281
0.0049584266 0.70700002 -0.050823875 7.650169e-39 324 281
0.0061980332 0.70700002 -0.050823875 7.5579719e-39 325 281
0.0074376399 0.70700002 -0.050823875 6.6446476e-39 326 281
0.008689519 0.708 -0.050895758 6.9212359e-39 327 281
0.0099308798 0.708 -0.050895758 8.4809988e-39 328 281
0.011203799 0.70999998 -0.051039528 8.2047721e-39 329 281
0.0124662 0.71100003 -0.051111419 7.7466568e-39 330 281
0.013751393 0.713 -0.051255193 7.28568e-39 331 281
0.015022559 0.71399999 -0.05132708 7.6519276e-39 332 281
0.016320027 0.71600002 -0.051470853 7.7441246e-39 333 281
0.017575413 0.71600002 -0.051470853 8.1114596e-39 334 281
0.0188308 0.71600002 -0.051470853 6.2671869e-39 335 281
0.020086186 0.71600002 -0.051470853 1.4859355e-39 336 281
-0.036304519 0.71399999 -0.052578956 5.4391946e-39 291 282
-0.035052639 0.71399999 -0.052578956 6.2718462e-39 292 282
-0.033800758 0.71399999 -0.052578956 7.285638e-39 293 282
-0.032503292 0.713 -0.052505318 7.7444749e-39 294 282
-0.031253166 0.713 -0.052505318 7.7444749e-39 295 282
-0.029918881 0.71100003 -0.052358042 7.9288844e-39 296 282
-0.028672259 0.71100003 -0.052358042 8.7586451e-39 297 282
-0.027387066 0.70999998 -0.052284397 8.5778804e-39 298 282
-0.026142199 0.70999998 -0.052284397 8.3016522e-39 299 282
-0.024897331 0.70999998 -0.052284397 7.8414126e-39 300 282
-0.023585839 0.708 -0.052137118 8.0258038e-39 301 282
-0.022312919 0.70700002 -0.05206348 8.5771825e-39 302 282
-0.021073313 0.70700002 -0.05206348 8.5771825e-39 303 282
-0.019833706 0.70700002 -0.05206348 8.4846142e-39 304 282
-0.018567799 0.70599997 -0.051989835 8.4846142e-39 305 282
-0.017329946 0.70599997 -0.051989835 8.1176141e-39 306 282
-0.016092092 0.70599997 -0.051989835 8.2098097e-39 307 282
-0.014854239 0.70599997 -0.051989835 7.5691095e-39 308 282
-0.013616386 0.70599997 -0.051989835 7.9375332e-39 309 282
-0.012378532 0.70599997 -0.051989835 7.845339e-39 310 282
-0.011140679 0.70599997 -0.051989835 7.845339e-39 311 282
-0.0099028256 0.70599997 -0.051989835 8.2123251e-39 312 282
-0.0086404262 0.704 -0.051842559 8.5811062e-39 313 282
-0.0074060797 0.704 -0.051842559 9.1306744e-39 314 282
-0.0061717331 0.704 -0.051842559 9.0384788e-39 315 282
-0.0049514128 0.70599997 -0.051989835 9.4069012e-39 316 282
-0.0037135598 0.70599997 -0.051989835 9.4069012e-39 317 282
-0.0024757064 0.70599997 -0.051989835 8.4878231e-39 318 282
-0.0012378532 0.70599997 -0.051989835 8.1186805e-39 319 282
0 0.70599997 -0.051989835 7.4704398e-39 320 282
0.0012378532 0.70599997 -0.051989835 7.1942131e-39 321 282
0.0024792133 0.70700002 -0.05206348 8.4774087e-39 322 282
0.0037188199 0.70700002 -0.05206348 8.4774087e-39 323 282
0.0049584266 0.70700002 -0.05206348 8.1107898e-39 324 282
0.0062067998 0.708 -0.052137118 8.3877368e-39 325 282
0.0074481601 0.708 -0.052137118 7.655201e-39 326 282
0.008689519 0.708 -0.052137118 7.9321466e-39 327 282
0.0099589331 0.70999998 -0.052284397 8.8494142e-39 328 282
0.011203799 0.70999998 -0.052284397 8.5728287e-39 329 282
0.0124662 0.71100003 -0.052358042 8.1132757e-39 330 282
0.013751393 0.713 -0.052505318 7.283515e-39 331 282
0.015022559 0.71399999 -0.052578956 6.8214453e-39 332 282
0.016320027 0.71600002 -0.052726239 6.7288909e-39 333 282
0.017575413 0.71600002 -0.052726239 6.3604671e-39 334 282
0.0188308 0.71600002 -0.052726239 5.0697283e-39 335 282
0.020086186 0.71600002 -0.052726239 4.9760655e-39 336 282
-0.035150826 0.71600002 -0.053981625 4.7956371e-39 292 283
-0.03389544 0.71600002 -0.053981625 6.0863759e-39 293 283
-0.032548878 0.71399999 -0.053830836 6.8217928e-39 294 283
-0.031253166 0.713 -0.053755447 7.2827695e-39 295 283
-0.029918881 0.71100003 -0.053604662 7.4686125e-39 296 283
-0.028672259 0.71100003 -0.053604662 8.3902101e-39 297 283
-0.027387066 0.70999998 -0.053529263 8.025766e-39 298 283
-0.026142199 0.70999998 -0.053529263 8.5789384e-39 299 283
-0.024897331 0.70999998 -0.053529263 8.6686355e-39 300 283
-0.023652466 0.70999998 -0.053529263 8.6686355e-39 301 283
-0.022344479 0.708 -0.053378478 9.1281885e-39 302 283
-0.021073313 0.70700002 -0.053303085 9.496971e-39 303 283
-0.019833706 0.70700002 -0.053303085 8.8541226e-39 304 283
-0.018594101 0.70700002 -0.053303085 9.1303493e-39 305 283
-0.017354494 0.70700002 -0.053303085 8.6697285e-39 306 283
-0.016092092 0.70599997 -0.053227689 8.5775329e-39 307 283
-0.014854239 0.70599997 -0.053227689 7.2936296e-39 308 283
-0.013616386 0.70599997 -0.053227689 7.0174028e-39 309 283
-0.012378532 0.70599997 -0.053227689 7.4744251e-39 310 283
-0.011140679 0.70599997 -0.053227689 7.5666207e-39 311 283
-0.0099028256 0.70599997 -0.053227689 8.0261598e-39 312 283
-0.0086649731 0.70599997 -0.053227689 8.1183554e-39 313 283
-0.0074271196 0.70599997 -0.053227689 9.0356229e-39 314 283
-0.0061892662 0.70599997 -0.053227689 9.12782e-39 315 283
-0.0049514128 0.70599997 -0.053227689 8.7619115e-39 316 283
-0.0037135598 0.70599997 -0.053227689 8.5771601e-39 317 283
-0.0024757064 0.70599997 -0.053227689 8.4835422e-39 318 283
-0.0012378532 0.70599997 -0.053227689 7.7459771e-39 319 283
0 0.70599997 -0.053227689 7.5615887e-39 320 283
0.0012396066 0.70700002 -0.053303085 8.3913494e-39 321 283
0.0024792133 0.70700002 -0.053303085 9.2178604e-39 322 283
0.0037188199 0.70700002 -0.053303085 9.2178604e-39 323 283
0.0049584266 0.70700002 -0.053303085 8.0239906e-39 324 283
0.0062067998 0.708 -0.053378478 7.9317935e-39 325 283
0.0074481601 0.708 -0.053378478 7.4718888e-39 326 283
0.008689519 0.708 -0.053378478 7.0112693e-39 327 283
0.0099589331 0.70999998 -0.053529263 8.0192822e-39 328 283
0.011203799 0.70999998 -0.053529263 7.3739128e-39 329 283
0.0124662 0.71100003 -0.053604662 7.3724484e-39 330 283
0.013751393 0.713 -0.053755447 6.6348834e-39 331 283
0.015022559 0.71399999 -0.053830836 5.9891608e-39 332 283
0.016274439 0.71399999 -0.053830836 5.5281827e-39 333 283
0.017526319 0.71399999 -0.053830836 4.9764382e-39 334 283
0.018778199 0.71399999 -0.053830836 5.4370563e-39 335 283
-0.03389544 0.71600002 -0.055237014 5.071138e-39 293 284
-0.032548878 0.71399999 -0.05508272 5.0729471e-39 294 284
-0.031253166 0.713 -0.055005573 4.8885558e-39 295 284
-0.030003037 0.713 -0.055005573 5.5335777e-39 296 284
-0.028672259 0.71100003 -0.054851279 5.9941957e-39 297 284
-0.027387066 0.70999998 -0.054774132 5.9967419e-39 298 284
-0.026142199 0.70999998 -0.054774132 6.6421113e-39 299 284
-0.024897331 0.70999998 -0.054774132 7.5608432e-39 300 284
-0.023652466 0.70999998 -0.054774132 7.6530388e-39 301 284
-0.022344479 0.708 -0.054619838 8.112589e-39 302 284
-0.021073313 0.70700002 -0.054542694 8.6657628e-39 303 284
-0.019833706 0.70700002 -0.054542694 9.035267e-39 304 284
-0.018594101 0.70700002 -0.054542694 9.5884408e-39 305 284
-0.017354494 0.70700002 -0.054542694 9.1299836e-39 306 284
-0.016114887 0.70700002 -0.054542694 9.037788e-39 307 284
-0.014854239 0.70599997 -0.054465543 7.9354075e-39 308 284
-0.013616386 0.70599997 -0.054465543 7.197841e-39 309 284
-0.012378532 0.70599997 -0.054465543 6.9223331e-39 310 284
-0.011140679 0.70599997 -0.054465543 7.3833113e-39 311 284
-0.0099028256 0.70599997 -0.054465543 7.9332453e-39 312 284
-0.0086649731 0.70599997 -0.054465543 7.9332453e-39 313 284
-0.0074271196 0.70599997 -0.054465543 8.6675635e-39 314 284
-0.0061892662 0.70599997 -0.054465543 8.7597591e-39 315 284
-0.0049584266 0.70700002 -0.054542694 8.6675635e-39 316 284
-0.0037188199 0.70700002 -0.054542694 8.4828135e-39 317 284
-0.0024792133 0.70700002 -0.054542694 8.206235e-39 318 284
-0.0012396066 0.70700002 -0.054542694 7.8370938e-39 319 284
0 0.70700002 -0.054542694 8.0196872e-39 320 284
0.0012396066 0.70700002 -0.054542694 8.3888284e-39 321 284
0.0024792133 0.70700002 -0.054542694 8.4806513e-39 322 284
0.0037188199 0.70700002 -0.054542694 8.3884557e-39 323 284
0.0049584266 0.70700002 -0.054542694 7.377175e-39 324 284
0.0062067998 0.708 -0.054619838 6.9161969e-39 325 284
0.0074481601 0.708 -0.054619838 7.0976986e-39 326 284
0.008689519 0.708 -0.054619838 6.4523292e-39 327 284
0.0099308798 0.708 -0.054619838 6.4515809e-39 328 284
0.011203799 0.70999998 -0.054774132 5.8987659e-39 329 284
0.0124662 0.71100003 -0.054851279 5.4388415e-39 330 284
0.013751393 0.713 -0.055005573 4.7012765e-39 331 284
0.015022559 0.71399999 -0.05508272 4.7891701e-39 332 284
0.016274439 0.71399999 -0.05508272 4.6969731e-39 333 284
0.017526319 0.71399999 -0.05508272 4.1466734e-39 334 284
0.018778199 0.71399999 -0.05508272 6.5441199e-39 335 284
-0.032548878 0.71399999 -0.0563346 4.6087123e-39 294 285
-0.031296998 0.71399999 -0.0563346 3.8711473e-39 295 285
-0.030003037 0.713 -0.056255698 3.9655233e-39 296 285
-0.028672259 0.71100003 -0.056097899 4.7030884e-39 297 285
-0.027387066 0.70999998 -0.056018997 4.8878706e-39 298 285
-0.026142199 0.70999998 -0.056018997 5.53324e-39 299 285
-0.024897331 0.70999998 -0.056018997 6.2700988e-39 300 285
-0.023652466 0.70999998 -0.056018997 6.9154682e-39 301 285
-0.022344479 0.708 -0.055861197 7.2831647e-39 302 285
-0.021103119 0.708 -0.055861197 7.1906103e-39 303 285
-0.01986176 0.708 -0.055861197 7.6508682e-39 304 285
-0.0186204 0.708 -0.055861197 8.204042e-39 305 285
-0.017379038 0.708 -0.055861197 8.0236164e-39 306 285
-0.016114887 0.70700002 -0.055782299 8.6689858e-39 307 285
-0.01487528 0.70700002 -0.055782299 7.7492043e-39 308 285
-0.013616386 0.70599997 -0.055703394 7.1960306e-39 309 285
-0.012378532 0.70599997 -0.055703394 6.8290585e-39 310 285
-0.011140679 0.70599997 -0.055703394 7.2900381e-39 311 285
-0.0099028256 0.70599997 -0.055703394 7.5641054e-39 312 285
-0.008677247 0.70700002 -0.055782299 7.7484981e-39 313 285
-0.0074376399 0.70700002 -0.055782299 8.2087504e-39 314 285
-0.0061980332 0.70700002 -0.055782299 7.9321635e-39 315 285
-0.0049584266 0.70700002 -0.055782299 7.9314432e-39 316 285
-0.0037188199 0.70700002 -0.055782299 7.9314432e-39 317 285
-0.0024792133 0.70700002 -0.055782299 8.0229101e-39 318 285
-0.0012396066 0.70700002 -0.055782299 8.0229101e-39 319 285
0 0.70700002 -0.055782299 8.5721056e-39 320 285
0.0012396066 0.70700002 -0.055782299 8.2033231e-39 321 285
0.0024792133 0.70700002 -0.055782299 7.4668273e-39 322 285
0.0037188199 0.70700002 -0.055782299 7.0058491e-39 323 285
0.0049584266 0.70700002 -0.055782299 6.5459472e-39 324 285
0.0062067998 0.708 -0.055861197 6.084969e-39 325 285
0.0074481601 0.708 -0.055861197 6.3583161e-39 326 285
0.008689519 0.708 -0.055861197 5.8051423e-39 327 285
0.0099308798 0.708 -0.055861197 4.9778802e-39 328 285
0.011203799 0.70999998 -0.056018997 4.4250651e-39 329 285
0.0124662 0.71100003 -0.056097899 3.504548e-39 330 285
0.013751393 0.713 -0.056255698 2.9513742e-39 331 285
0.015022559 0.71399999 -0.0563346 3.4080489e-39 332 285
0.016320027 0.71600002 -0.056492399 3.8693872e-39 333 285
0.017575413 0.71600002 -0.056492399 5.068987e-39 334 285
-0.027387066 0.70999998 -0.057263866 4.0534184e-39 298 286
-0.026142199 0.70999998 -0.057263866 3.7771916e-39 299 286
-0.024932399 0.71100003 -0.057344519 3.7836754e-39 300 286
-0.023652466 0.70999998 -0.057263866 4.4290448e-39 301 286
-0.022407599 0.70999998 -0.057263866 5.0708143e-39 302 286
-0.021162732 0.70999998 -0.057263866 4.7945861e-39 303 286
-0.01986176 0.708 -0.057102561 4.5176461e-39 304 286
-0.0186204 0.708 -0.057102561 4.2410606e-39 305 286
-0.017379038 0.708 -0.057102561 4.8857266e-39 306 286
-0.016114887 0.70700002 -0.057021905 5.9920727e-39 307 286
-0.01487528 0.70700002 -0.057021905 6.0871579e-39 308 286
-0.013616386 0.70599997 -0.056941248 6.4559418e-39 309 286
-0.012378532 0.70599997 -0.056941248 7.0998819e-39 310 286
-0.011156459 0.70700002 -0.057021905 7.5612187e-39 311 286
-0.0099168532 0.70700002 -0.057021905 7.6523354e-39 312 286
-0.008677247 0.70700002 -0.057021905 7.6523354e-39 313 286
-0.0074376399 0.70700002 -0.057021905 8.2973362e-39 314 286
-0.0061980332 0.70700002 -0.057021905 8.112945e-39 315 286
-0.0049584266 0.70700002 -0.057021905 8.2976866e-39 316 286
-0.0037188199 0.70700002 -0.057021905 8.6664691e-39 317 286
-0.00248272 0.708 -0.057102561 8.6657432e-39 318 286
-0.00124136 0.708 -0.057102561 7.7437869e-39 319 286
0 0.708 -0.057102561 7.3703227e-39 320 286
0.0012396066 0.70700002 -0.057021905 7.0937358e-39 321 286
0.0024792133 0.70700002 -0.057021905 6.2661177e-39 322 286
0.0037188199 0.70700002 -0.057021905 5.6207483e-39 323 286
0.0049584266 0.70700002 -0.057021905 4.7934917e-39 324 286
0.0062067998 0.708 -0.057102561 4.2403179e-39 325 286
0.0074481601 0.708 -0.057102561 3.8708124e-39 326 286
0.008689519 0.708 -0.057102561 3.2254429e-39 327 286
0.0099589331 0.70999998 -0.057263866 2.6729852e-39 328 286
0.011203799 0.70999998 -0.057263866 2.6729852e-39 329 286
0.012501267 0.713 -0.057505824 3.4076706e-39 330 286
0.016251646 0.713 -0.057505824 4.7009205e-39 333 286
-0.026142199 0.70999998 -0.058508728 3.1332417e-39 299 287
-0.024932399 0.71100003 -0.058591139 1.9411697e-39 300 287
-0.023652466 0.70999998 -0.058508728 2.5865391e-39 301 287
-0.022407599 0.70999998 -0.058508728 3.8726088e-39 302 287
-0.021162732 0.70999998 -0.058508728 4.1488356e-39 303 287
-0.01986176 0.708 -0.058343921 3.5049165e-39 304 287
-0.0186204 0.708 -0.058343921 3.3205252e-39 305 287
-0.017379038 0.708 -0.058343921 2.9528385e-39 306 287
-0.01613768 0.708 -0.058343921 3.5060123e-39 307 287
-0.01489632 0.708 -0.058343921 4.1513999e-39 308 287
-0.013654959 0.708 -0.058343921 4.7967694e-39 309 287
-0.0124136 0.708 -0.058343921 5.0733731e-39 310 287
-0.011156459 0.70700002 -0.05826151 5.4425157e-39 311 287
-0.0099168532 0.70700002 -0.05826151 6.5445431e-39 312 287
-0.008689519 0.708 -0.058343921 6.7289343e-39 313 287
