# .PCD v.7 - Point Cloud Data file format
FIELDS x y z rgb imX imY
SIZE 4 4 4 4 4 4
TYPE F F F F F F
COUNT 1 1 1 1 1 1
WIDTH 843
HEIGHT 1
VIEWPOINT 0 0 0 1 0 0 0
POINTS 843
DATA ascii
0.0072693196 0.69099998 -0.012115533 2.3372983e-38 326 250
0.008480873 0.69099998 -0.012115533 2.34659e-38 327 250
0.0096924258 0.69099998 -0.012115533 2.2545034e-38 328 250
0.01090398 0.69099998 -0.012115533 2.2729425e-38 329 250
0.012062933 0.68800002 -0.012062933 2.3492929e-38 330 250
0.013249939 0.68699998 -0.012045399 2.3502652e-38 331 250
0.014454478 0.68699998 -0.012045399 2.249032e-38 332 250
0.015727401 0.69 -0.012097999 2.0462017e-38 333 250
0.0169372 0.69 -0.012097999 1.6961831e-38 334 250
0.018068098 0.68699998 -0.012045399 1.2997419e-38 335 250
0.019132372 0.68199998 -0.011957732 7.2906448e-39 336 250
0.0214608 0.68000001 -0.011922667 1.5577824e-38 338 250
0.038590867 0.70999998 -0.012448666 1.6499816e-38 351 250
0.039835732 0.70999998 -0.012448666 1.1987968e-38 352 250
0.041138459 0.71100003 -0.0124662 5.1658518e-39 353 250
0.042325463 0.70999998 -0.012448666 1.9562813e-39 354 250
0.043570329 0.70999998 -0.012448666 9.6088787e-39 355 250
0.044815198 0.70999998 -0.012448666 1.6229708e-38 356 250
0.046060063 0.70999998 -0.012448666 1.7797036e-38 357 250
0.047371563 0.71100003 -0.0124662 1.8441297e-38 358 250
0.048618179 0.71100003 -0.0124662 1.7334949e-38 359 250
0.049864799 0.71100003 -0.0124662 1.1899373e-38 360 250
0.051111419 0.71100003 -0.0124662 8.6725255e-39 361 250
0.052358042 0.71100003 -0.0124662 2.9844757e-39 362 250
0.054057021 0.71700001 -0.0125714 5.2897265e-39 363 250
0.055314157 0.71700001 -0.0125714 1.3281618e-38 364 250
0.056965802 0.722 -0.012659066 1.4757106e-38 365 250
0.058312356 0.72299999 -0.012676599 1.5491056e-38 366 250
0.059580017 0.72299999 -0.012676599 1.4015925e-38 367 250
0.060847677 0.72299999 -0.012676599 1.2912813e-38 368 250
0.062115334 0.72299999 -0.012676599 1.3005367e-38 369 250
0.063382991 0.72299999 -0.012676599 1.3557834e-38 370 250
0.064561233 0.722 -0.012659066 1.4756376e-38 371 250
0.065827139 0.722 -0.012659066 1.5863447e-38 372 250
0.067093052 0.722 -0.012659066 1.5679056e-38 373 250
0.068358958 0.722 -0.012659066 1.4478346e-38 374 250
0.069624864 0.722 -0.012659066 1.3648584e-38 375 250
0.070694394 0.72000003 -0.012624 1.3004295e-38 376 250
0.071956798 0.72000003 -0.012624 1.3096491e-38 377 250
0.068643004 0.67500001 -0.011835 1.3284124e-38 378 250
0.069826499 0.67500001 -0.011835 1.5680852e-38 379 250
0.071010001 0.67500001 -0.011835 1.7428612e-38 380 250
0.072193496 0.67500001 -0.011835 1.7428612e-38 381 250
0.073376998 0.67500001 -0.011835 1.687688e-38 382 250
0.074560501 0.67500001 -0.011835 1.687688e-38 383 250
0.075743996 0.67500001 -0.011835 1.6784326e-38 384 250
0.076927498 0.67500001 -0.011835 1.6600293e-38 385 250
0.083549835 0.722 -0.012659066 1.6508095e-38 386 250
0.084815748 0.722 -0.012659066 1.6415899e-38 387 250
0.086081654 0.722 -0.012659066 1.6323706e-38 388 250
0.08734756 0.722 -0.012659066 1.6323706e-38 389 250
0.088367999 0.72000003 -0.012624 1.6231511e-38 390 250
0.089630403 0.72000003 -0.012624 1.6323706e-38 391 250
0.090892807 0.72000003 -0.012624 1.6323706e-38 392 250
0.087291449 0.68199998 -0.011957732 1.6323706e-38 393 250
0.088487223 0.68199998 -0.011957732 1.6507021e-38 394 250
0.089814499 0.68300003 -0.011975267 1.6322631e-38 395 250
0.091012023 0.68300003 -0.011975267 1.6322631e-38 396 250
0.092074543 0.68199998 -0.011957732 1.6322631e-38 397 250
0.092860043 0.67900002 -0.011905133 1.6507018e-38 398 250
0.093496501 0.67500001 -0.011835 1.6507018e-38 399 250
0.094539732 0.67400002 -0.011817466 1.6322987e-38 400 250
0.095295422 0.671 -0.011764866 1.6507018e-38 401 250
0.096328132 0.67000002 -0.011747333 1.6598498e-38 402 250
0.097502865 0.67000002 -0.011747333 1.6598498e-38 403 250
0.098677598 0.67000002 -0.011747333 1.6323706e-38 404 250
0.099852331 0.67000002 -0.011747333 1.6138956e-38 405 250
-0.12887 0.69999999 -0.013500666 1.5390517e-38 215 251
-0.12764266 0.69999999 -0.013500666 2.1295373e-38 216 251
-0.12605415 0.69800001 -0.013462093 2.2678307e-38 217 251
-0.12465148 0.69700003 -0.013442807 2.2128746e-38 218 251
-0.12325231 0.69599998 -0.013423519 2.2313498e-38 219 251
-0.12168133 0.69400001 -0.013384946 2.2222018e-38 220 251
-0.12046452 0.69400001 -0.013384946 2.2314214e-38 221 251
-0.11907588 0.69300002 -0.01336566 2.2498608e-38 222 251
-0.11786082 0.69300002 -0.01336566 2.2590803e-38 223 251
-0.11630911 0.69099998 -0.013327086 2.2774121e-38 224 251
-0.114931 0.69 -0.0133078 2.2774121e-38 225 251
-0.1137212 0.69 -0.0133078 2.2774121e-38 226 251
-0.1125114 0.69 -0.0133078 2.2866317e-38 227 251
-0.11130159 0.69 -0.0133078 2.2865235e-38 228 251
-0.1100918 0.69 -0.0133078 2.3141823e-38 229 251
-0.108882 0.69 -0.0133078 2.3509886e-38 230 251
-0.1076722 0.69 -0.0133078 2.3509886e-38 231 251
-0.1064624 0.69 -0.0133078 2.3234379e-38 232 251
-0.10525259 0.69 -0.0133078 2.1115323e-38 233 251
-0.1040428 0.69 -0.0133078 2.0101894e-38 234 251
-0.102833 0.69 -0.0133078 1.9732751e-38 235 251
-0.10177048 0.69099998 -0.013327086 2.0101538e-38 236 251
-0.10084998 0.69300002 -0.01336566 2.0470319e-38 237 251
-0.099634916 0.69300002 -0.01336566 2.0562518e-38 238 251
-0.098561876 0.69400001 -0.013384946 2.1207887e-38 239 251
-0.097625598 0.69599998 -0.013423519 2.157739e-38 240 251
-0.096543796 0.69700003 -0.013442807 2.1669586e-38 241 251
-0.095321722 0.69700003 -0.013442807 2.213056e-38 242 251
-0.094099648 0.69700003 -0.013442807 2.213056e-38 243 251
-0.093010828 0.69800001 -0.013462093 2.2313872e-38 244 251
-0.091787003 0.69800001 -0.013462093 2.2313872e-38 245 251
-0.090563171 0.69800001 -0.013462093 2.1945095e-38 246 251
-0.089339346 0.69800001 -0.013462093 2.074656e-38 247 251
-0.088115521 0.69800001 -0.013462093 1.8354516e-38 248 251
-0.087140664 0.69999999 -0.013500666 1.6233656e-38 249 251
-0.08591333 0.69999999 -0.013500666 1.659488e-38 250 251
-0.084806979 0.70099998 -0.013519952 1.5211945e-38 251 251
-0.083577886 0.70099998 -0.013519952 1.4011953e-38 252 251
-0.082348801 0.70099998 -0.013519952 1.2629019e-38 253 251
-0.081119716 0.70099998 -0.013519952 1.0881975e-38 254 251
-0.080232531 0.704 -0.013577812 1.0605387e-38 255 251
-0.078998186 0.704 -0.013577812 1.0788671e-38 256 251
-0.07798475 0.70599997 -0.013616386 1.0973062e-38 257 251
-0.076746903 0.70599997 -0.013616386 1.4091478e-38 258 251
-0.075509049 0.70599997 -0.013616386 1.36305e-38 259 251
-0.074271195 0.70599997 -0.013616386 1.4088212e-38 260 251
-0.07303334 0.70599997 -0.013616386 1.4180409e-38 261 251
-0.071795486 0.70599997 -0.013616386 1.4180409e-38 262 251
-0.070557632 0.70599997 -0.013616386 1.4272963e-38 263 251
-0.069417976 0.70700002 -0.013635674 1.4182929e-38 264 251
-0.068178371 0.70700002 -0.013635674 1.4275124e-38 265 251
-0.066938758 0.70700002 -0.013635674 1.4550992e-38 266 251
-0.065699153 0.70700002 -0.013635674 1.5196362e-38 267 251
-0.064459547 0.70700002 -0.013635674 1.5476917e-38 268 251
-0.063219935 0.70700002 -0.013635674 1.6582906e-38 269 251
-0.061980337 0.70700002 -0.013635674 1.6675476e-38 270 251
-0.060826641 0.708 -0.013654959 1.5845356e-38 271 251
-0.059585281 0.708 -0.013654959 1.5750614e-38 272 251
-0.058508728 0.70999998 -0.013693533 1.4459876e-38 273 251
-0.057263866 0.70999998 -0.013693533 1.5561885e-38 274 251
-0.056018997 0.70999998 -0.013693533 1.712885e-38 275 251
-0.054851279 0.71100003 -0.01371282 1.6858404e-38 276 251
-0.053604662 0.71100003 -0.01371282 1.6766208e-38 277 251
-0.052358042 0.71100003 -0.01371282 1.5380753e-38 278 251
-0.051111419 0.71100003 -0.01371282 1.5565144e-38 279 251
-0.049864799 0.71100003 -0.01371282 1.94406e-38 280 251
-0.048618179 0.71100003 -0.01371282 1.9809743e-38 281 251
-0.047504812 0.713 -0.013751393 2.0175651e-38 282 251
-0.046124939 0.71100003 -0.01371282 1.9530282e-38 283 251
-0.044878319 0.71100003 -0.01371282 2.0169531e-38 284 251
-0.043631699 0.71100003 -0.01371282 2.1921608e-38 285 251
-0.042385083 0.71100003 -0.01371282 2.2661371e-38 286 251
-0.041138459 0.71100003 -0.01371282 2.3398936e-38 287 251
-0.039891839 0.71100003 -0.01371282 2.2939776e-38 288 251
-0.038645219 0.71100003 -0.01371282 2.3031971e-38 289 251
-0.037345998 0.70999998 -0.013693533 2.2940129e-38 290 251
-0.036101133 0.70999998 -0.013693533 2.2294759e-38 291 251
-0.034856264 0.70999998 -0.013693533 2.1004371e-38 292 251
-0.033658739 0.71100003 -0.01371282 2.0359002e-38 293 251
-0.032412119 0.71100003 -0.01371282 2.0451923e-38 294 251
-0.031165501 0.71100003 -0.01371282 2.1834858e-38 295 251
-0.029918881 0.71100003 -0.01371282 2.2667155e-38 296 251
-0.028672259 0.71100003 -0.01371282 2.3312524e-38 297 251
-0.027425639 0.71100003 -0.01371282 2.3312874e-38 298 251
-0.026142199 0.70999998 -0.013693533 1.7412354e-38 299 251
-0.024897331 0.70999998 -0.013693533 1.547191e-38 300 251
-0.023652466 0.70999998 -0.013693533 1.5932888e-38 301 251
-0.022344479 0.708 -0.013654959 1.6941983e-38 302 251
-0.021103119 0.708 -0.013654959 1.6665397e-38 303 251
-0.01986176 0.708 -0.013654959 1.9890814e-38 304 251
-0.0186204 0.708 -0.013654959 2.3025825e-38 305 251
-0.017379038 0.708 -0.013654959 2.1367393e-38 306 251
-0.01613768 0.708 -0.013654959 1.804835e-38 307 251
-0.01489632 0.708 -0.013654959 1.5913824e-38 308 251
-0.013654959 0.708 -0.013654959 1.895664e-38 309 251
-0.012396066 0.70700002 -0.013635674 1.9060725e-38 310 251
-0.011140679 0.70599997 -0.013616386 2.0812442e-38 311 251
-0.0098747732 0.704 -0.013577812 1.961677e-38 312 251
-0.0086036054 0.70099998 -0.013519952 1.2886849e-38 313 251
-0.0073639993 0.69999999 -0.013500666 1.5269163e-38 314 251
-0.006119133 0.69800001 -0.013462093 1.5361359e-38 315 251
-0.0048953067 0.69800001 -0.013462093 1.6740665e-38 316 251
-0.0036504399 0.69400001 -0.013384946 1.8768969e-38 317 251
-0.00243012 0.69300002 -0.01336566 2.1429672e-38 318 251
-0.0012115532 0.69099998 -0.013327086 2.3181389e-38 319 251
0 0.69099998 -0.013327086 2.3481385e-38 320 251
0.0012115532 0.69099998 -0.013327086 2.3482466e-38 321 251
0.0024231065 0.69099998 -0.013327086 2.3114408e-38 322 251
0.0036451798 0.69300002 -0.01336566 2.1362331e-38 323 251
0.0048462129 0.69099998 -0.013327086 2.1893181e-38 324 251
0.0060577663 0.69099998 -0.013327086 2.1616954e-38 325 251
0.0072693196 0.69099998 -0.013327086 2.2265556e-38 326 251
0.008480873 0.69099998 -0.013327086 2.3095318e-38 327 251
0.0096783992 0.69 -0.0133078 2.2822347e-38 328 251
0.010888199 0.69 -0.0133078 2.3467716e-38 329 251
0.012062933 0.68800002 -0.013269227 2.3492221e-38 330 251
0.013249939 0.68699998 -0.013249939 2.3501944e-38 331 251
0.014454478 0.68699998 -0.013249939 2.1941837e-38 332 251
0.015659019 0.68699998 -0.013249939 2.0282317e-38 333 251
0.01686356 0.68699998 -0.013249939 1.8624959e-38 334 251
0.018068098 0.68699998 -0.013249939 1.797959e-38 335 251
0.019132372 0.68199998 -0.013153506 1.595127e-38 336 251
0.020328145 0.68199998 -0.013153506 1.4199554e-38 337 251
0.0214608 0.68000001 -0.013114933 1.4750931e-38 338 251
0.038482159 0.708 -0.013654959 1.1270561e-38 351 251
0.039667413 0.70700002 -0.013635674 1.677998e-38 352 251
0.040907022 0.70700002 -0.013635674 1.5397046e-38 353 251
0.042206239 0.708 -0.013654959 1.2271747e-38 354 251
0.043447599 0.708 -0.013654959 1.5406397e-38 355 251
0.044688959 0.708 -0.013654959 1.7052268e-38 356 251
0.045930319 0.708 -0.013654959 1.5392386e-38 357 251
0.047171678 0.708 -0.013654959 1.4015569e-38 358 251
0.048413038 0.708 -0.013654959 1.5306307e-38 359 251
0.049654398 0.708 -0.013654959 1.6689232e-38 360 251
0.051039528 0.70999998 -0.013693533 1.5951308e-38 361 251
0.052284397 0.70999998 -0.013693533 1.2917835e-38 362 251
0.053529263 0.70999998 -0.013693533 1.218027e-38 363 251
0.054774132 0.70999998 -0.013693533 1.3836574e-38 364 251
0.056571297 0.71700001 -0.013828539 1.5956713e-38 365 251
0.057828441 0.71700001 -0.013828539 1.6694284e-38 366 251
0.059497613 0.722 -0.013924973 1.6417698e-38 367 251
0.060847677 0.72299999 -0.01394426 1.6600643e-38 368 251
0.062115334 0.72299999 -0.01394426 1.6600643e-38 369 251
0.063382991 0.72299999 -0.01394426 1.6966555e-38 370 251
0.064561233 0.722 -0.013924973 1.6966555e-38 371 251
0.065827139 0.722 -0.013924973 1.7887432e-38 372 251
0.067093052 0.722 -0.013924973 1.7887432e-38 373 251
0.068169601 0.72000003 -0.0138864 1.6600643e-38 374 251
0.069432005 0.72000003 -0.0138864 1.6324057e-38 375 251
0.070694394 0.72000003 -0.0138864 1.6324057e-38 376 251
0.071956798 0.72000003 -0.0138864 1.6416252e-38 377 251
0.068643004 0.67500001 -0.0130185 1.6783605e-38 378 251
0.069826499 0.67500001 -0.0130185 1.7244583e-38 379 251
0.071010001 0.67500001 -0.0130185 1.7336779e-38 380 251
0.072193496 0.67500001 -0.0130185 1.7152388e-38 381 251
0.073376998 0.67500001 -0.0130185 1.6784326e-38 382 251
0.074560501 0.67500001 -0.0130185 1.6784326e-38 383 251
0.075743996 0.67500001 -0.0130185 1.6783608e-38 384 251
0.082283929 0.722 -0.013924973 1.6783608e-38 385 251
0.083318397 0.72000003 -0.0138864 1.6415902e-38 386 251
0.084580801 0.72000003 -0.0138864 1.6415902e-38 387 251
0.085843205 0.72000003 -0.0138864 1.6140394e-38 388 251
0.08734756 0.722 -0.013924973 1.604784e-38 389 251
0.088367999 0.72000003 -0.0138864 1.6323706e-38 390 251
0.089505911 0.71899998 -0.013867113 1.6415902e-38 391 251
0.090766557 0.71899998 -0.013867113 1.6691766e-38 392 251
0.087291449 0.68199998 -0.013153506 1.6691766e-38 393 251
0.088487223 0.68199998 -0.013153506 1.6782886e-38 394 251
0.089682996 0.68199998 -0.013153506 1.6598495e-38 395 251
0.090878762 0.68199998 -0.013153506 1.6689968e-38 396 251
0.091669522 0.67900002 -0.013095647 1.6689968e-38 397 251
0.092860043 0.67900002 -0.013095647 1.6782161e-38 398 251
0.093496501 0.67500001 -0.0130185 1.6782161e-38 399 251
0.094539732 0.67400002 -0.012999214 1.6872914e-38 400 251
0.095437437 0.67199999 -0.012960639 1.6319741e-38 401 251
0.096471906 0.671 -0.012941353 1.5491422e-38 402 251
0.09764839 0.671 -0.012941353 1.5030444e-38 403 251
0.098824874 0.671 -0.012941353 1.4572342e-38 404 251
0.107304 0.72000003 -0.0138864 1.5033321e-38 405 251
0.1085664 0.72000003 -0.0138864 1.5126235e-38 406 251
-0.12887 0.69999999 -0.014727999 1.649724e-38 215 252
-0.12764266 0.69999999 -0.014727999 2.1389013e-38 216 252
-0.12587355 0.69700003 -0.01466488 2.212658e-38 217 252
-0.12447263 0.69599998 -0.014643839 2.1852159e-38 218 252
-0.12289815 0.69400001 -0.01460176 2.2313498e-38 219 252
-0.121506 0.69300002 -0.014580719 2.2497526e-38 220 252
-0.12029094 0.69300002 -0.014580719 2.2682276e-38 221 252
-0.11873223 0.69099998 -0.014538639 2.2681923e-38 222 252
-0.11752067 0.69099998 -0.014538639 2.2681923e-38 223 252
-0.11614079 0.69 -0.014517599 2.2774121e-38 224 252
-0.114931 0.69 -0.014517599 2.2774121e-38 225 252
-0.11339158 0.68800002 -0.014475521 2.2957434e-38 226 252
-0.11218528 0.68800002 -0.014475521 2.2957434e-38 227 252
-0.11097898 0.68800002 -0.014475521 2.3049626e-38 228 252
-0.10977269 0.68800002 -0.014475521 2.3326215e-38 229 252
-0.1085664 0.68800002 -0.014475521 2.3509886e-38 230 252
-0.10736011 0.68800002 -0.014475521 2.3509886e-38 231 252
-0.10615382 0.68800002 -0.014475521 2.2958873e-38 232 252
-0.10494752 0.68800002 -0.014475521 2.1022769e-38 233 252
-0.1040428 0.69 -0.014517599 2.028449e-38 234 252
-0.102833 0.69 -0.014517599 2.0007543e-38 235 252
-0.10177048 0.69099998 -0.014538639 2.028449e-38 236 252
-0.10055891 0.69099998 -0.014538639 2.028449e-38 237 252
-0.099634916 0.69300002 -0.014580719 2.0194093e-38 238 252
-0.09841986 0.69300002 -0.014580719 2.0839462e-38 239 252
-0.097345062 0.69400001 -0.01460176 2.1116772e-38 240 252
-0.096405275 0.69599998 -0.014643839 2.157739e-38 241 252
-0.095184952 0.69599998 -0.014643839 2.2497901e-38 242 252
-0.093964636 0.69599998 -0.014643839 2.2590096e-38 243 252
-0.092744313 0.69599998 -0.014643839 2.2774484e-38 244 252
-0.09152399 0.69599998 -0.014643839 2.2497901e-38 245 252
-0.090303674 0.69599998 -0.014643839 2.2038002e-38 246 252
-0.089211352 0.69700003 -0.01466488 2.0747264e-38 247 252
-0.087989278 0.69700003 -0.01466488 1.8720755e-38 248 252
-0.086767212 0.69700003 -0.01466488 1.6784647e-38 249 252
-0.085667863 0.69800001 -0.01468592 1.6778163e-38 250 252
-0.084685996 0.69999999 -0.014727999 1.5763652e-38 251 252
-0.083458662 0.69999999 -0.014727999 1.5390556e-38 252 252
-0.082231328 0.69999999 -0.014727999 1.4560796e-38 253 252
-0.081004001 0.69999999 -0.014727999 1.1800334e-38 254 252
-0.080232531 0.704 -0.014812159 1.0878378e-38 255 252
-0.078998186 0.704 -0.014812159 9.957484e-39 256 252
-0.077763841 0.704 -0.014812159 1.0325908e-38 257 252
-0.076529488 0.704 -0.014812159 1.3174932e-38 258 252
-0.075295143 0.704 -0.014812159 1.3082737e-38 259 252
-0.07406079 0.704 -0.014812159 1.4272976e-38 260 252
-0.07303334 0.70599997 -0.014854239 1.418078e-38 261 252
-0.071795486 0.70599997 -0.014854239 1.4365875e-38 262 252
-0.070557632 0.70599997 -0.014854239 1.4458071e-38 263 252
-0.069319785 0.70599997 -0.014854239 1.4826497e-38 264 252
-0.06808193 0.70599997 -0.014854239 1.4919052e-38 265 252
-0.066844068 0.70599997 -0.014854239 1.5010178e-38 266 252
-0.065699153 0.70700002 -0.01487528 1.5286405e-38 267 252
-0.064459547 0.70700002 -0.01487528 1.547332e-38 268 252
-0.063219935 0.70700002 -0.01487528 1.6671504e-38 269 252
-0.061980337 0.70700002 -0.01487528 1.6765868e-38 270 252
-0.060740728 0.70700002 -0.01487528 1.6305248e-38 271 252
-0.059501119 0.70700002 -0.01487528 1.5934292e-38 272 252
-0.058343921 0.708 -0.01489632 1.5473314e-38 273 252
-0.057263866 0.70999998 -0.014938398 1.611687e-38 274 252
-0.056018997 0.70999998 -0.014938398 1.694699e-38 275 252
-0.054774132 0.70999998 -0.014938398 1.7133198e-38 276 252
-0.053604662 0.71100003 -0.014959441 1.6764056e-38 277 252
-0.052358042 0.71100003 -0.014959441 1.5839898e-38 278 252
-0.051111419 0.71100003 -0.014959441 1.6023929e-38 279 252
-0.049864799 0.71100003 -0.014959441 2.0269953e-38 280 252
-0.048618179 0.71100003 -0.014959441 2.0546181e-38 281 252
-0.047371563 0.71100003 -0.014959441 1.9990181e-38 282 252
-0.046124939 0.71100003 -0.014959441 1.9344812e-38 283 252
-0.044878319 0.71100003 -0.014959441 1.9708908e-38 284 252
-0.043631699 0.71100003 -0.014959441 2.1645017e-38 285 252
-0.042385083 0.71100003 -0.014959441 2.1651163e-38 286 252
-0.041138459 0.71100003 -0.014959441 2.2573479e-38 287 252
-0.039835732 0.70999998 -0.014938398 2.2663912e-38 288 252
-0.038590867 0.70999998 -0.014938398 2.2571716e-38 289 252
-0.037345998 0.70999998 -0.014938398 2.2387328e-38 290 252
-0.036101133 0.70999998 -0.014938398 2.2110741e-38 291 252
-0.034856264 0.70999998 -0.014938398 2.0915425e-38 292 252
-0.033611398 0.70999998 -0.014938398 2.0915425e-38 293 252
-0.032366529 0.70999998 -0.014938398 1.9808001e-38 294 252
-0.031121666 0.70999998 -0.014938398 2.0360816e-38 295 252
-0.029876797 0.70999998 -0.014938398 2.1376065e-38 296 252
-0.028631933 0.70999998 -0.014938398 2.2390219e-38 297 252
-0.027387066 0.70999998 -0.014938398 2.1932846e-38 298 252
-0.026142199 0.70999998 -0.014938398 1.6401468e-38 299 252
-0.024897331 0.70999998 -0.014938398 1.5841788e-38 300 252
-0.023652466 0.70999998 -0.014938398 1.5657756e-38 301 252
-0.022344479 0.708 -0.01489632 1.6850863e-38 302 252
-0.021103119 0.708 -0.01489632 1.6758668e-38 303 252
-0.01986176 0.708 -0.01489632 1.989226e-38 304 252
-0.0186204 0.708 -0.01489632 2.3026911e-38 305 252
-0.017379038 0.708 -0.01489632 2.0168505e-38 306 252
-0.016114887 0.70700002 -0.01487528 1.6756908e-38 307 252
-0.01487528 0.70700002 -0.01487528 1.6003502e-38 308 252
-0.013616386 0.70599997 -0.014854239 1.8861926e-38 309 252
-0.012343466 0.704 -0.014812159 1.9336924e-38 310 252
-0.01109334 0.70300001 -0.014791119 2.0535467e-38 311 252
-0.0098186666 0.69999999 -0.014727999 1.9156846e-38 312 252
-0.0085667865 0.69800001 -0.01468592 1.2703152e-38 313 252
-0.00733244 0.69700003 -0.01466488 1.5176599e-38 314 252
-0.0061015999 0.69599998 -0.014643839 1.536099e-38 315 252
-0.00486024 0.69300002 -0.014580719 1.692542e-38 316 252
-0.0036451798 0.69300002 -0.014580719 1.9414702e-38 317 252
-0.00243012 0.69300002 -0.014580719 2.1981764e-38 318 252
-0.0012115532 0.69099998 -0.014538639 2.290372e-38 319 252
0 0.69099998 -0.014538639 2.3480659e-38 320 252
0.0012115532 0.69099998 -0.014538639 2.3483899e-38 321 252
0.0024231065 0.69099998 -0.014538639 2.3301706e-38 322 252
0.0036346598 0.69099998 -0.014538639 2.1457793e-38 323 252
0.0048391996 0.69 -0.014517599 2.1806047e-38 324 252
0.0060489997 0.69 -0.014517599 2.0330915e-38 325 252
0.0072587994 0.69 -0.014517599 2.1432556e-38 326 252
0.0084686 0.69 -0.014517599 2.2170121e-38 327 252
0.0096503468 0.68800002 -0.014475521 2.1803879e-38 328 252
0.010856641 0.68800002 -0.014475521 2.3186813e-38 329 252
0.012027865 0.68599999 -0.01443344 2.3217439e-38 330 252
0.013230653 0.68599999 -0.01443344 2.3503749e-38 331 252
0.01443344 0.68599999 -0.01443344 2.157379e-38 332 252
0.01559064 0.68400002 -0.01439136 2.0467803e-38 333 252
0.016765373 0.68300003 -0.014370319 1.8903364e-38 334 252
0.017936599 0.68199998 -0.01434928 1.8995918e-38 335 252
0.019132372 0.68199998 -0.01434928 1.9821713e-38 336 252
0.020328145 0.68199998 -0.01434928 1.8991593e-38 337 252
0.0214608 0.68000001 -0.014307199 1.7608994e-38 338 252
0.022653066 0.68000001 -0.014307199 1.5304102e-38 339 252
0.038482159 0.708 -0.01489632 1.0244851e-38 351 252
0.039667413 0.70700002 -0.01487528 1.5765115e-38 352 252
0.040907022 0.70700002 -0.01487528 1.8162562e-38 353 252
0.042146627 0.70700002 -0.01487528 1.8537108e-38 354 252
0.043386232 0.70700002 -0.01487528 1.8444912e-38 355 252
0.044625837 0.70700002 -0.01487528 1.8158593e-38 356 252
0.045865446 0.70700002 -0.01487528 1.3272223e-38 357 252
0.047105055 0.70700002 -0.01487528 9.8685646e-39 358 252
0.048344657 0.70700002 -0.01487528 1.0421737e-38 359 252
0.049584266 0.70700002 -0.01487528 1.4477643e-38 360 252
0.050823875 0.70700002 -0.01487528 1.6690696e-38 361 252
0.05206348 0.70700002 -0.01487528 1.7429312e-38 362 252
0.053303085 0.70700002 -0.01487528 1.6783943e-38 363 252
0.054542694 0.70700002 -0.01487528 1.6416605e-38 364 252
0.055861197 0.708 -0.01489632 1.7061975e-38 365 252
0.057828441 0.71700001 -0.015085679 1.715382e-38 366 252
0.059497613 0.722 -0.015190879 1.7522244e-38 367 252
0.060763516 0.722 -0.015190879 1.8074334e-38 368 252
0.062029421 0.722 -0.015190879 1.798178e-38 369 252
0.063295327 0.722 -0.015190879 1.7704473e-38 370 252
0.064829499 0.72500002 -0.015254001 1.7427527e-38 371 252
0.066100664 0.72500002 -0.015254001 1.7612277e-38 372 252
0.066907197 0.72000003 -0.0151488 1.779667e-38 373 252
0.068169601 0.72000003 -0.0151488 1.7705193e-38 374 252
0.069432005 0.72000003 -0.0151488 1.7797389e-38 375 252
0.070694394 0.72000003 -0.0151488 1.7797392e-38 376 252
0.067459501 0.67500001 -0.014202001 1.7797392e-38 377 252
0.068643004 0.67500001 -0.014202001 1.7612643e-38 378 252
0.069826499 0.67500001 -0.014202001 1.7244221e-38 379 252
0.071010001 0.67500001 -0.014202001 1.687688e-38 380 252
0.07208655 0.67400002 -0.01418096 1.6784326e-38 381 252
0.073268294 0.67400002 -0.01418096 1.6508463e-38 382 252
0.0795312 0.72000003 -0.0151488 1.6416268e-38 383 252
0.080793604 0.72000003 -0.0151488 1.6598864e-38 384 252
0.082056001 0.72000003 -0.0151488 1.6598864e-38 385 252
0.083318397 0.72000003 -0.0151488 1.6415905e-38 386 252
0.084580801 0.72000003 -0.0151488 1.632335e-38 387 252
0.085843205 0.72000003 -0.0151488 1.6231511e-38 388 252
0.087105595 0.72000003 -0.0151488 1.6231511e-38 389 252
0.088367999 0.72000003 -0.0151488 1.6507016e-38 390 252
0.089505911 0.71899998 -0.01512776 1.6507016e-38 391 252
0.090766557 0.71899998 -0.01512776 1.678324e-38 392 252
0.087291449 0.68199998 -0.01434928 1.678324e-38 393 252
0.088487223 0.68199998 -0.01434928 1.6507372e-38 394 252
0.089682996 0.68199998 -0.01434928 1.6230786e-38 395 252
0.090612262 0.68000001 -0.014307199 1.6414457e-38 396 252
0.091669522 0.67900002 -0.01428616 1.6414457e-38 397 252
0.092860043 0.67900002 -0.01428616 1.6689599e-38 398 252
0.093496501 0.67500001 -0.014202001 1.6228621e-38 399 252
0.094679996 0.67500001 -0.014202001 1.5676872e-38 400 252
0.095721483 0.67400002 -0.01418096 1.4754557e-38 401 252
0.09661568 0.67199999 -0.01413888 1.2727701e-38 402 252
0.097793922 0.67199999 -0.01413888 1.1436962e-38 403 252
0.098972157 0.67199999 -0.01413888 1.0978876e-38 404 252
0.107304 0.72000003 -0.0151488 1.1808638e-38 405 252
0.1085664 0.72000003 -0.0151488 1.3742947e-38 406 252
-0.12569295 0.69599998 -0.015864158 2.1666326e-38 217 253
-0.12411496 0.69400001 -0.015818574 2.1851803e-38 218 253
-0.12289815 0.69400001 -0.015818574 2.2589727e-38 219 253
-0.12115533 0.69099998 -0.015750192 2.2406412e-38 220 253
-0.11977019 0.69 -0.015727401 2.2406412e-38 221 253
-0.1185604 0.69 -0.015727401 2.2865235e-38 222 253
-0.11701045 0.68800002 -0.015681813 2.2865235e-38 223 253
-0.11580417 0.68800002 -0.015681813 2.2865238e-38 224 253
-0.11459786 0.68800002 -0.015681813 2.2957434e-38 225 253
-0.11322675 0.68699998 -0.015659019 2.2957431e-38 226 253
-0.11202221 0.68699998 -0.015659019 2.2957431e-38 227 253
-0.11081767 0.68699998 -0.015659019 2.3049626e-38 228 253
-0.10961314 0.68699998 -0.015659019 2.341805e-38 229 253
-0.10840859 0.68699998 -0.015659019 2.3509886e-38 230 253
-0.10720405 0.68699998 -0.015659019 2.3326215e-38 231 253
-0.10599951 0.68699998 -0.015659019 2.2681572e-38 232 253
-0.10479497 0.68699998 -0.015659019 2.1022053e-38 233 253
-0.10374123 0.68800002 -0.015681813 2.0376683e-38 234 253
-0.102833 0.69 -0.015727401 2.000754e-38 235 253
-0.10177048 0.69099998 -0.015750192 2.0100095e-38 236 253
-0.10055891 0.69099998 -0.015750192 2.019229e-38 237 253
-0.099347368 0.69099998 -0.015750192 2.0285209e-38 238 253
-0.09841986 0.69300002 -0.015795778 2.0561796e-38 239 253
-0.097345062 0.69400001 -0.015818574 2.028737e-38 240 253
-0.096128248 0.69400001 -0.015818574 2.0840544e-38 241 253
-0.095184952 0.69599998 -0.015864158 2.1575592e-38 242 253
-0.09369462 0.69400001 -0.015818574 2.0930223e-38 243 253
-0.092477806 0.69400001 -0.015818574 2.019266e-38 244 253
-0.091260992 0.69400001 -0.015818574 1.9731682e-38 245 253
-0.090303674 0.69599998 -0.015864158 1.7985007e-38 246 253
-0.089083351 0.69599998 -0.015864158 1.540353e-38 247 253
-0.087863036 0.69599998 -0.015864158 1.5487443e-38 248 253
-0.08664272 0.69599998 -0.015864158 1.3459138e-38 249 253
-0.085422389 0.69599998 -0.015864158 1.325744e-38 250 253
-0.084444039 0.69800001 -0.015909746 1.2519875e-38 251 253
-0.083220214 0.69800001 -0.015909746 1.3351057e-38 252 253
-0.081996389 0.69800001 -0.015909746 1.4641796e-38 253 253
-0.080772556 0.69800001 -0.015909746 1.2903067e-38 254 253
-0.079776667 0.69999999 -0.015955333 1.1243904e-38 255 253
-0.078549333 0.69999999 -0.015955333 9.674786e-39 256 253
-0.077321991 0.69999999 -0.015955333 9.490036e-39 257 253
-0.076529488 0.704 -0.016046507 9.492868e-39 258 253
-0.07518819 0.70300001 -0.016023712 1.0783607e-38 259 253
-0.073955595 0.70300001 -0.016023712 1.3997462e-38 260 253
-0.072826453 0.704 -0.016046507 1.381307e-38 261 253
-0.071592107 0.704 -0.016046507 1.4733937e-38 262 253
-0.070357755 0.704 -0.016046507 1.5471504e-38 263 253
-0.06912341 0.704 -0.016046507 1.565591e-38 264 253
-0.06808193 0.70599997 -0.016092092 1.565591e-38 265 253
-0.066844068 0.70599997 -0.016092092 1.5196008e-38 266 253
-0.065606222 0.70599997 -0.016092092 1.4827226e-38 267 253
-0.064368367 0.70599997 -0.016092092 1.6117965e-38 268 253
-0.063130513 0.70599997 -0.016092092 1.703992e-38 269 253
-0.061980337 0.70700002 -0.016114887 1.6399243e-38 270 253
-0.060740728 0.70700002 -0.016114887 1.667547e-38 271 253
-0.059501119 0.70700002 -0.016114887 1.6765858e-38 272 253
-0.058343921 0.708 -0.01613768 1.6673662e-38 273 253
-0.057102561 0.708 -0.01613768 1.7133546e-38 274 253
-0.056018997 0.70999998 -0.016183265 1.6949155e-38 275 253
-0.054774132 0.70999998 -0.016183265 1.64878e-38 276 253
-0.053529263 0.70999998 -0.016183265 1.5381453e-38 277 253
-0.052284397 0.70999998 -0.016183265 1.6946963e-38 278 253
-0.051039528 0.70999998 -0.016183265 1.8422095e-38 279 253
-0.049794663 0.70999998 -0.016183265 1.989724e-38 280 253
-0.048549797 0.70999998 -0.016183265 1.9989436e-38 281 253
-0.047304932 0.70999998 -0.016183265 1.9988739e-38 282 253
-0.046060063 0.70999998 -0.016183265 1.9619957e-38 283 253
-0.044815198 0.70999998 -0.016183265 1.9618159e-38 284 253
-0.043570329 0.70999998 -0.016183265 2.1093289e-38 285 253
-0.042325463 0.70999998 -0.016183265 2.0457296e-38 286 253
-0.041080594 0.70999998 -0.016183265 2.1194861e-38 287 253
-0.039835732 0.70999998 -0.016183265 2.1745553e-38 288 253
-0.038590867 0.70999998 -0.016183265 2.1745553e-38 289 253
-0.037345998 0.70999998 -0.016183265 2.1835599e-38 290 253
-0.036101133 0.70999998 -0.016183265 2.1559012e-38 291 253
-0.034856264 0.70999998 -0.016183265 2.0728175e-38 292 253
-0.033611398 0.70999998 -0.016183265 2.0359394e-38 293 253
-0.032366529 0.70999998 -0.016183265 1.9623632e-38 294 253
-0.031121666 0.70999998 -0.016183265 1.9438882e-38 295 253
-0.029876797 0.70999998 -0.016183265 1.9898787e-38 296 253
-0.028631933 0.70999998 -0.016183265 2.0451961e-38 297 253
-0.027387066 0.70999998 -0.016183265 1.9720864e-38 298 253
-0.026142199 0.70999998 -0.016183265 1.4373516e-38 299 253
-0.024827199 0.708 -0.01613768 1.5380807e-38 300 253
-0.023585839 0.708 -0.01613768 1.6303123e-38 301 253
-0.022312919 0.70700002 -0.016114887 1.6943062e-38 302 253
-0.021073313 0.70700002 -0.016114887 1.6666116e-38 303 253
-0.019833706 0.70700002 -0.016114887 1.9247594e-38 304 253
-0.018594101 0.70700002 -0.016114887 2.035394e-38 305 253
-0.017354494 0.70700002 -0.016114887 1.76774e-38 306 253
-0.016114887 0.70700002 -0.016114887 1.5095922e-38 307 253
-0.014854239 0.70599997 -0.016092092 1.6647776e-38 308 253
-0.013577812 0.704 -0.016046507 2.0612188e-38 309 253
-0.012290866 0.70099998 -0.015978126 2.0535111e-38 310 253
-0.011045999 0.69999999 -0.015955333 1.970535e-38 311 253
-0.0097906133 0.69800001 -0.015909746 1.7864312e-38 312 253
-0.0085422397 0.69599998 -0.015864158 1.3346726e-38 313 253
-0.0073219193 0.69599998 -0.015864158 1.5361706e-38 314 253
-0.0060753003 0.69300002 -0.015795778 1.5269511e-38 315 253
-0.00486024 0.69300002 -0.015795778 1.7385679e-38 316 253
-0.0036346598 0.69099998 -0.015750192 2.0428135e-38 317 253
-0.0024231065 0.69099998 -0.015750192 2.2995585e-38 318 253
-0.0012097999 0.69 -0.015727401 2.3460525e-38 319 253
0 0.69 -0.015727401 2.3481776e-38 320 253
0.0012097999 0.69 -0.015727401 2.3482136e-38 321 253
0.0024195998 0.69 -0.015727401 2.2475185e-38 322 253
0.0036293997 0.69 -0.015727401 2.026249e-38 323 253
0.0048251734 0.68800002 -0.015681813 2.1160663e-38 324 253
0.0060314666 0.68800002 -0.015681813 2.0146153e-38 325 253
0.0072272392 0.68699998 -0.015659019 2.1431108e-38 326 253
0.0084317802 0.68699998 -0.015659019 2.1247077e-38 327 253
0.0096363192 0.68699998 -0.015659019 2.0323692e-38 328 253
0.010825079 0.68599999 -0.015636226 2.0323692e-38 329 253
0.012027865 0.68599999 -0.015636226 2.1649022e-38 330 253
0.013230653 0.68599999 -0.015636226 2.3500137e-38 331 253
0.01443344 0.68599999 -0.015636226 2.092807e-38 332 253
0.01559064 0.68400002 -0.01559064 1.9637331e-38 333 253
0.016765373 0.68300003 -0.015567848 1.8625352e-38 334 253
0.017936599 0.68199998 -0.015545053 1.9178524e-38 335 253
0.019132372 0.68199998 -0.015545053 2.0100107e-38 336 253
0.020328145 0.68199998 -0.015545053 2.0192304e-38 337 253
0.0214608 0.68000001 -0.015499466 2.055603e-38 338 253
0.022653066 0.68000001 -0.015499466 1.8251498e-38 339 253
0.023810266 0.67900002 -0.015476674 1.5488846e-38 340 253
0.025000781 0.67900002 -0.015476674 1.4198107e-38 341 253
0.040907022 0.70700002 -0.016114887 1.1985101e-38 353 253
0.042146627 0.70700002 -0.016114887 1.3286643e-38 354 253
0.043386232 0.70700002 -0.016114887 1.6328738e-38 355 253
0.044562716 0.70599997 -0.016092092 1.917599e-38 356 253
0.04580057 0.70599997 -0.016092092 1.834623e-38 357 253
0.047038425 0.70599997 -0.016092092 1.6961139e-38 358 253
0.048276275 0.70599997 -0.016092092 1.5025389e-38 359 253
0.04951413 0.70599997 -0.016092092 9.1403532e-39 360 253
0.050751984 0.70599997 -0.016092092 1.2090615e-38 361 253
0.051989835 0.70599997 -0.016092092 1.7153817e-38 362 253
0.053227689 0.70599997 -0.016092092 1.7614795e-38 363 253
0.054465543 0.70599997 -0.016092092 1.8072531e-38 364 253
0.055782299 0.70700002 -0.016114887 1.8072531e-38 365 253
0.057021905 0.70700002 -0.016114887 1.7428965e-38 366 253
0.058343921 0.708 -0.01613768 1.7428965e-38 367 253
0.060763516 0.722 -0.016456785 1.7612996e-38 368 253
0.061857603 0.72000003 -0.0164112 1.7336411e-38 369 253
0.06312 0.72000003 -0.0164112 1.7336413e-38 370 253
0.064382397 0.72000003 -0.0164112 1.7244218e-38 371 253
0.065644801 0.72000003 -0.0164112 1.7244218e-38 372 253
0.066907197 0.72000003 -0.0164112 1.7244218e-38 373 253
0.068169601 0.72000003 -0.0164112 1.7244215e-38 374 253
0.069432005 0.72000003 -0.0164112 1.7244215e-38 375 253
0.066374183 0.676 -0.015408293 1.7336413e-38 376 253
0.067459501 0.67500001 -0.0153855 1.7336413e-38 377 253
0.068643004 0.67500001 -0.0153855 1.7244221e-38 378 253
0.069826499 0.67500001 -0.0153855 1.7244221e-38 379 253
0.071010001 0.67500001 -0.0153855 1.6417698e-38 380 253
0.07208655 0.67400002 -0.015362706 1.6325501e-38 381 253
0.073268294 0.67400002 -0.015362706 1.6416623e-38 382 253
0.074560501 0.67500001 -0.0153855 1.6324069e-38 383 253
0.075743996 0.67500001 -0.0153855 1.6599217e-38 384 253
0.082056001 0.72000003 -0.0164112 1.6507021e-38 385 253
0.078226723 0.676 -0.015408293 1.6507018e-38 386 253
0.079411969 0.676 -0.015408293 1.6322987e-38 387 253
0.085843205 0.72000003 -0.0164112 1.6231505e-38 388 253
0.087105595 0.72000003 -0.0164112 1.549394e-38 389 253
0.088367999 0.72000003 -0.0164112 1.42954e-38 390 253
0.089630403 0.72000003 -0.0164112 1.3742226e-38 391 253
0.090766557 0.71899998 -0.016388407 1.465879e-38 392 253
0.087035462 0.68000001 -0.015499466 1.4382563e-38 393 253
0.088227727 0.68000001 -0.015499466 1.328269e-38 394 253
0.089419998 0.68000001 -0.015499466 1.411245e-38 395 253
0.090612262 0.68000001 -0.015499466 1.5953845e-38 396 253
0.091669522 0.67900002 -0.015476674 1.6599214e-38 397 253
0.092860043 0.67900002 -0.015476674 1.6228274e-38 398 253
0.093635008 0.676 -0.015408293 1.4752785e-38 399 253
0.094820268 0.676 -0.015408293 1.3275137e-38 400 253
0.095863499 0.67500001 -0.0153855 1.382831e-38 401 253
0.09661568 0.67199999 -0.01531712 1.3558913e-38 402 253
0.097793922 0.67199999 -0.01531712 1.3927696e-38 403 253
0.098972157 0.67199999 -0.01531712 1.3925891e-38 404 253
0.10760206 0.722 -0.016456785 1.3465272e-38 405 253
0.10886797 0.722 -0.016456785 1.4203557e-38 406 253
-0.12569295 0.69599998 -0.017084479 2.1574493e-38 217 254
-0.12411496 0.69400001 -0.017035386 2.1667772e-38 218 254
-0.12272106 0.69300002 -0.01701084 2.2220945e-38 219 254
-0.12097999 0.69 -0.0169372 2.2497173e-38 220 254
-0.11977019 0.69 -0.0169372 2.2589727e-38 221 254
-0.11821675 0.68800002 -0.016888106 2.2680848e-38 222 254
-0.11701045 0.68800002 -0.016888106 2.2865238e-38 223 254
-0.11563583 0.68699998 -0.01686356 2.2957434e-38 224 254
-0.11443129 0.68699998 -0.01686356 2.2957434e-38 225 254
-0.11306194 0.68599999 -0.016839013 2.2957431e-38 226 254
-0.11185916 0.68599999 -0.016839013 2.2957431e-38 227 254
-0.11033376 0.68400002 -0.016789921 2.3141823e-38 228 254
-0.10913448 0.68400002 -0.016789921 2.3509886e-38 229 254
-0.1079352 0.68400002 -0.016789921 2.3509886e-38 230 254
-0.10673591 0.68400002 -0.016789921 2.323402e-38 231 254
-0.10553664 0.68400002 -0.016789921 2.1853254e-38 232 254
-0.10433736 0.68400002 -0.016789921 2.0654712e-38 233 254
-0.10343964 0.68599999 -0.016839013 2.0285206e-38 234 254
-0.10238589 0.68699998 -0.01686356 1.9916424e-38 235 254
-0.10132864 0.68800002 -0.016888106 2.0100814e-38 236 254
-0.1004134 0.69 -0.0169372 2.0100814e-38 237 254
-0.099347368 0.69099998 -0.016961746 2.0101538e-38 238 254
-0.098135822 0.69099998 -0.016961746 2.0378124e-38 239 254
-0.097204804 0.69300002 -0.01701084 2.0469963e-38 240 254
-0.095989741 0.69300002 -0.01701084 2.074691e-38 241 254
-0.094911434 0.69400001 -0.017035386 2.1206812e-38 242 254
-0.09369462 0.69400001 -0.017035386 2.1114617e-38 243 254
-0.092477806 0.69400001 -0.017035386 2.074656e-38 244 254
-0.091260992 0.69400001 -0.017035386 1.9363626e-38 245 254
-0.090044186 0.69400001 -0.017035386 1.6235458e-38 246 254
-0.088827372 0.69400001 -0.017035386 1.1256534e-38 247 254
-0.087610558 0.69400001 -0.017035386 1.4651922e-38 248 254
-0.08664272 0.69599998 -0.017084479 1.3361183e-38 249 254
-0.085422389 0.69599998 -0.017084479 1.1786218e-38 250 254
-0.084444039 0.69800001 -0.017133573 1.0034501e-38 251 254
-0.083220214 0.69800001 -0.017133573 1.1688965e-38 252 254
-0.081996389 0.69800001 -0.017133573 1.3532877e-38 253 254
-0.080772556 0.69800001 -0.017133573 1.271829e-38 254 254
-0.079548739 0.69800001 -0.017133573 1.1888528e-38 255 254
-0.078324907 0.69800001 -0.017133573 9.1223297e-39 256 254
-0.077101074 0.69800001 -0.017133573 8.753187e-39 257 254
-0.076094657 0.69999999 -0.017182667 1.0866812e-38 258 254
-0.07486733 0.69999999 -0.017182667 1.132815e-38 259 254
-0.073639996 0.69999999 -0.017182667 1.335138e-38 260 254
-0.072723009 0.70300001 -0.017256306 1.3627607e-38 261 254
-0.071490414 0.70300001 -0.017256306 1.4086792e-38 262 254
-0.070357755 0.704 -0.017280852 1.5100586e-38 263 254
-0.06912341 0.704 -0.017280852 1.4920516e-38 264 254
-0.067889065 0.704 -0.017280852 1.5104907e-38 265 254
-0.066844068 0.70599997 -0.017329946 1.5470094e-38 266 254
-0.065606222 0.70599997 -0.017329946 1.574704e-38 267 254
-0.064368367 0.70599997 -0.017329946 1.6857347e-38 268 254
-0.063130513 0.70599997 -0.017329946 1.7410521e-38 269 254
-0.061892662 0.70599997 -0.017329946 1.6400315e-38 270 254
-0.060654808 0.70599997 -0.017329946 1.6400315e-38 271 254
-0.059501119 0.70700002 -0.017354494 1.7226466e-38 272 254
-0.05826151 0.70700002 -0.017354494 1.694952e-38 273 254
-0.057102561 0.708 -0.017379038 1.6949874e-38 274 254
-0.055861197 0.708 -0.017379038 1.6304504e-38 275 254
-0.054619838 0.708 -0.017379038 1.6301591e-38 276 254
-0.053529263 0.70999998 -0.017428132 1.5195245e-38 277 254
-0.052284397 0.70999998 -0.017428132 1.8602523e-38 278 254
-0.051039528 0.70999998 -0.017428132 2.0630827e-38 279 254
-0.049794663 0.70999998 -0.017428132 1.9988013e-38 280 254
-0.048549797 0.70999998 -0.017428132 2.0080568e-38 281 254
-0.047304932 0.70999998 -0.017428132 2.0355721e-38 282 254
-0.046060063 0.70999998 -0.017428132 1.9802906e-38 283 254
-0.044815198 0.70999998 -0.017428132 1.9618159e-38 284 254
-0.043570329 0.70999998 -0.017428132 2.0816701e-38 285 254
-0.042325463 0.70999998 -0.017428132 2.0271825e-38 286 254
-0.041080594 0.70999998 -0.017428132 2.1378173e-38 287 254
-0.039835732 0.70999998 -0.017428132 2.2020698e-38 288 254
-0.038482159 0.708 -0.017379038 2.1836305e-38 289 254
-0.0372408 0.708 -0.017379038 2.1283148e-38 290 254
-0.03599944 0.708 -0.017379038 2.0545582e-38 291 254
-0.034758076 0.708 -0.017379038 1.9531078e-38 292 254
-0.033516716 0.708 -0.017379038 1.9531078e-38 293 254
-0.03227536 0.708 -0.017379038 1.9716195e-38 294 254
-0.031034 0.708 -0.017379038 1.9531802e-38 295 254
-0.02979264 0.708 -0.017379038 1.9806594e-38 296 254
-0.02855128 0.708 -0.017379038 1.9990987e-38 297 254
-0.027309919 0.708 -0.017379038 1.8979699e-38 298 254
-0.026068559 0.708 -0.017379038 1.1880636e-38 299 254
-0.024827199 0.708 -0.017379038 1.380809e-38 300 254
-0.023585839 0.708 -0.017379038 1.6482122e-38 301 254
-0.022312919 0.70700002 -0.017354494 1.7220372e-38 302 254
-0.021043506 0.70599997 -0.017329946 1.7220372e-38 303 254
-0.019805651 0.70599997 -0.017329946 1.9798234e-38 304 254
-0.018567799 0.70599997 -0.017329946 2.0167015e-38 305 254
-0.017329946 0.70599997 -0.017329946 1.7578698e-38 306 254
-0.016092092 0.70599997 -0.017329946 1.5826982e-38 307 254
-0.014812159 0.704 -0.017280852 1.7393235e-38 308 254
-0.013558527 0.70300001 -0.017256306 1.9974712e-38 309 254
-0.012273333 0.69999999 -0.017182667 2.0813127e-38 310 254
-0.01101444 0.69800001 -0.017133573 1.9245442e-38 311 254
-0.0097765867 0.69700003 -0.017109027 1.6665403e-38 312 254
-0.0085422397 0.69599998 -0.017084479 1.3622587e-38 313 254
-0.0073008798 0.69400001 -0.017035386 1.5639372e-38 314 254
-0.0060577663 0.69099998 -0.016961746 1.5178394e-38 315 254
-0.0048462129 0.69099998 -0.016961746 1.711089e-38 316 254
-0.0036293997 0.69 -0.0169372 1.9876759e-38 317 254
-0.0024195998 0.69 -0.0169372 2.2075802e-38 318 254
-0.0012062934 0.68800002 -0.016888106 2.346234e-38 319 254
0 0.68800002 -0.016888106 2.2463329e-38 320 254
0.0012062934 0.68800002 -0.016888106 2.2463329e-38 321 254
0.0024125867 0.68800002 -0.016888106 2.1642541e-38 322 254
0.0036188802 0.68800002 -0.016888106 2.0074856e-38 323 254
0.0048181596 0.68699998 -0.01686356 2.0515992e-38 324 254
0.0060226996 0.68699998 -0.01686356 1.950184e-38 325 254
0.0072272392 0.68699998 -0.01686356 2.0510579e-38 326 254
0.0084317802 0.68699998 -0.01686356 2.0326186e-38 327 254
0.0096363192 0.68699998 -0.01686356 1.9585752e-38 328 254
0.010825079 0.68599999 -0.016839013 1.8295015e-38 329 254
0.012027865 0.68599999 -0.016839013 1.9982663e-38 330 254
0.013230653 0.68599999 -0.016839013 2.3491859e-38 331 254
0.01439136 0.68400002 -0.016789921 1.8995562e-38 332 254
0.01559064 0.68400002 -0.016789921 1.779702e-38 333 254
0.016765373 0.68300003 -0.016765373 1.7339653e-38 334 254
0.017936599 0.68199998 -0.016740825 1.7892827e-38 335 254
0.019132372 0.68199998 -0.016740825 1.8905178e-38 336 254
0.020328145 0.68199998 -0.016740825 1.9458352e-38 337 254
0.0214608 0.68000001 -0.016691733 2.0284134e-38 338 254
0.022653066 0.68000001 -0.016691733 1.9177427e-38 339 254
0.023810266 0.67900002 -0.016667187 1.7702277e-38 340 254
0.025000781 0.67900002 -0.016667187 1.6780681e-38 341 254
0.039442986 0.70300001 -0.017256306 1.5399211e-38 352 254
0.040675577 0.70300001 -0.017256306 1.263334e-38 353 254
0.041908171 0.70300001 -0.017256306 1.0978861e-38 354 254
0.043202132 0.704 -0.017280852 1.3560339e-38 355 254
0.044436477 0.704 -0.017280852 1.6324778e-38 356 254
0.045670826 0.704 -0.017280852 1.7892105e-38 357 254
0.046905171 0.704 -0.017280852 1.8716454e-38 358 254
0.048139516 0.704 -0.017280852 1.7886693e-38 359 254
0.049373865 0.704 -0.017280852 1.484785e-38 360 254
0.050608214 0.704 -0.017280852 1.4663459e-38 361 254
0.051842559 0.704 -0.017280852 1.7243867e-38 362 254
0.053076904 0.704 -0.017280852 1.761229e-38 363 254
0.054311249 0.704 -0.017280852 1.770447e-38 364 254
0.055545598 0.704 -0.017280852 1.770447e-38 365 254
0.056779943 0.704 -0.017280852 1.770447e-38 366 254
0.058179103 0.70599997 -0.017329946 1.7612274e-38 367 254
0.061184317 0.727 -0.017845426 1.7428965e-38 368 254
0.061857603 0.72000003 -0.017673599 1.7428965e-38 369 254
0.06312 0.72000003 -0.017673599 1.761264e-38 370 254
0.064382397 0.72000003 -0.017673599 1.7336413e-38 371 254
0.065644801 0.72000003 -0.017673599 1.7244215e-38 372 254
0.063097201 0.67900002 -0.016667187 1.7152019e-38 373 254
0.064287722 0.67900002 -0.016667187 1.7059826e-38 374 254
0.065188929 0.676 -0.016593546 1.6967271e-38 375 254
0.066374183 0.676 -0.016593546 1.7242416e-38 376 254
0.067459501 0.67500001 -0.016569 1.6873993e-38 377 254
0.068643004 0.67500001 -0.016569 1.6505931e-38 378 254
0.069826499 0.67500001 -0.016569 1.6413734e-38 379 254
0.071010001 0.67500001 -0.016569 1.5863081e-38 380 254
0.072193496 0.67500001 -0.016569 1.5770886e-38 381 254
0.073376998 0.67500001 -0.016569 1.5680855e-38 382 254
0.074560501 0.67500001 -0.016569 1.5773051e-38 383 254
0.075743996 0.67500001 -0.016569 1.6231157e-38 384 254
0.077041462 0.676 -0.016593546 1.6231157e-38 385 254
0.078226723 0.676 -0.016593546 1.6507018e-38 386 254
0.079411969 0.676 -0.016593546 1.6507018e-38 387 254
0.080597222 0.676 -0.016593546 1.6414454e-38 388 254
0.081782483 0.676 -0.016593546 1.5861281e-38 389 254
0.082967728 0.676 -0.016593546 1.4387951e-38 390 254
0.084152982 0.676 -0.016593546 1.4295397e-38 391 254
0.085338242 0.676 -0.016593546 1.5305961e-38 392 254
0.086907476 0.67900002 -0.016667187 1.2539732e-38 393 254
0.08809799 0.67900002 -0.016667187 8.2184165e-39 394 254
0.089288503 0.67900002 -0.016667187 9.7861009e-39 395 254
0.090479009 0.67900002 -0.016667187 1.1900133e-38 396 254
0.091669522 0.67900002 -0.016667187 1.2545503e-38 397 254
0.092860043 0.67900002 -0.016667187 1.1993051e-38 398 254
0.093635008 0.676 -0.016593546 1.1255127e-38 399 254
0.094820268 0.676 -0.016593546 8.406779e-39 400 254
0.095863499 0.67500001 -0.016569 1.135668e-38 401 254
0.09661568 0.67199999 -0.01649536 1.641627e-38 402 254
0.097793922 0.67199999 -0.01649536 1.6600663e-38 403 254
0.099413998 0.67500001 -0.016569 1.6323335e-38 404 254
0.10059749 0.67500001 -0.016569 1.5954551e-38 405 254
-0.12533177 0.69400001 -0.0182522 2.1390828e-38 217 255
-0.12393612 0.69300002 -0.018225901 2.1944002e-38 218 255
-0.12183562 0.68800002 -0.0180944 2.2220947e-38 219 255
-0.12062933 0.68800002 -0.0180944 2.2497176e-38 220 255
-0.11924946 0.68699998 -0.018068098 2.2589371e-38 221 255
-0.11804491 0.68699998 -0.018068098 2.2865235e-38 222 255
-0.1166703 0.68599999 -0.018041799 2.2957431e-38 223 255
-0.11546752 0.68599999 -0.018041799 2.2957431e-38 224 255
-0.11426473 0.68599999 -0.018041799 2.2957431e-38 225 255
-0.11273233 0.68400002 -0.0179892 2.2957431e-38 226 255
-0.11153304 0.68400002 -0.0179892 2.3049626e-38 227 255
-0.11017245 0.68300003 -0.017962901 2.341805e-38 228 255
-0.10897493 0.68300003 -0.017962901 2.3509886e-38 229 255
-0.1077774 0.68300003 -0.017962901 2.3509886e-38 230 255
-0.10657988 0.68300003 -0.017962901 2.2957434e-38 231 255
-0.10538235 0.68300003 -0.017962901 2.1484473e-38 232 255
-0.10418482 0.68300003 -0.017962901 2.0470319e-38 233 255
-0.10313808 0.68400002 -0.0179892 1.9917866e-38 234 255
-0.10223686 0.68599999 -0.018041799 1.9549442e-38 235 255
-0.10118135 0.68699998 -0.018068098 1.991678e-38 236 255
-0.10012234 0.68800002 -0.0180944 2.0100811e-38 237 255
-0.099347368 0.69099998 -0.0181733 2.0284485e-38 238 255
-0.098135822 0.69099998 -0.0181733 2.0653266e-38 239 255
-0.097204804 0.69300002 -0.018225901 2.0378121e-38 240 255
-0.095989741 0.69300002 -0.018225901 2.0655068e-38 241 255
-0.094774678 0.69300002 -0.018225901 2.1115686e-38 242 255
-0.09369462 0.69400001 -0.0182522 2.1300437e-38 243 255
-0.09234456 0.69300002 -0.018225901 2.2035847e-38 244 255
-0.091129504 0.69300002 -0.018225901 2.0099739e-38 245 255
-0.090044186 0.69400001 -0.0182522 1.5773709e-38 246 255
-0.088827372 0.69400001 -0.0182522 7.5686582e-39 247 255
-0.087610558 0.69400001 -0.0182522 1.3168098e-38 248 255
-0.086393744 0.69400001 -0.0182522 1.4274087e-38 249 255
-0.085176937 0.69400001 -0.0182522 1.3349943e-38 250 255
-0.084202074 0.69599998 -0.018304799 1.2151402e-38 251 255
-0.083100989 0.69700003 -0.018331099 1.1687561e-38 252 255
-0.081878915 0.69700003 -0.018331099 1.3254528e-38 253 255
-0.080656841 0.69700003 -0.018331099 1.3086368e-38 254 255
-0.079548739 0.69800001 -0.0183574 1.2625391e-38 255 255
-0.078324907 0.69800001 -0.0183574 1.0042467e-38 256 255
-0.077101074 0.69800001 -0.0183574 9.4892933e-39 257 255
-0.075877249 0.69800001 -0.0183574 1.1969908e-38 258 255
-0.074653424 0.69800001 -0.0183574 1.1877354e-38 259 255
-0.073429599 0.69800001 -0.0183574 1.3164483e-38 260 255
-0.072412662 0.69999999 -0.018409999 1.3717657e-38 261 255
-0.071287021 0.70099998 -0.018436298 1.3809134e-38 262 255
-0.070257813 0.70300001 -0.018488899 1.3532187e-38 263 255
-0.069025226 0.70300001 -0.018488899 1.3719083e-38 264 255
-0.067889065 0.704 -0.018515198 1.4364453e-38 265 255
-0.066654719 0.704 -0.018515198 1.5376084e-38 266 255
-0.065420374 0.704 -0.018515198 1.6113649e-38 267 255
-0.064368367 0.70599997 -0.018567799 1.6856972e-38 268 255
-0.063130513 0.70599997 -0.018567799 1.7041363e-38 269 255
-0.061892662 0.70599997 -0.018567799 1.6675457e-38 270 255
-0.060654808 0.70599997 -0.018567799 1.6675457e-38 271 255
-0.059416957 0.70599997 -0.018567799 1.722611e-38 272 255
-0.058179103 0.70599997 -0.018567799 1.6304154e-38 273 255
