# .PCD v.7 - Point Cloud Data file format
FIELDS x y z rgb imX imY
SIZE 4 4 4 4 4 4
TYPE F F F F F F
COUNT 1 1 1 1 1 1
WIDTH 835
HEIGHT 1
VIEWPOINT 0 0 0 1 0 0 0
POINTS 835
DATA ascii
-0.018066347 0.736 -0.02709952 1.3549125e-38 306 261
-0.016730307 0.73400003 -0.02702588 1.2903756e-38 307 261
-0.01544336 0.73400003 -0.02702588 1.1612667e-38 308 261
-0.014079267 0.73000002 -0.026878599 1.2534625e-38 309 261
-0.012799333 0.73000002 -0.026878599 1.3367278e-38 310 261
-0.01153518 0.73100001 -0.026915418 1.37357e-38 311 261
-0.010239467 0.73000002 -0.026878599 1.3369089e-38 312 261
-0.0089595336 0.73000002 -0.026878599 1.3184697e-38 313 261
-0.00769012 0.73100001 -0.026915418 1.2908833e-38 314 261
-0.0063996664 0.73000002 -0.026878599 1.2816637e-38 315 261
-0.0051197335 0.73000002 -0.026878599 1.355419e-38 316 261
-0.0038397999 0.73000002 -0.026878599 1.4567982e-38 317 261
-0.0025528532 0.72799999 -0.026804959 1.6777431e-38 318 261
-0.0012764266 0.72799999 -0.026804959 1.7146574e-38 319 261
0 0.72799999 -0.026804959 1.6317165e-38 320 261
0.0012764266 0.72799999 -0.026804959 1.6224611e-38 321 261
0.0025528532 0.72799999 -0.026804959 1.6315361e-38 322 261
0.0038292799 0.72799999 -0.026804959 1.5669992e-38 323 261
0.0051057064 0.72799999 -0.026804959 1.4567263e-38 324 261
-0.023165042 0.73400003 -0.028312827 1.4832636e-38 302 262
-0.021878093 0.73400003 -0.028312827 1.243555e-38 303 262
-0.020591147 0.73400003 -0.028312827 1.1687911e-38 304 262
-0.019356798 0.736 -0.028389972 1.1042542e-38 305 262
-0.018066347 0.736 -0.028389972 1.1060564e-38 306 262
-0.016730307 0.73400003 -0.028312827 1.2259105e-38 307 262
-0.01544336 0.73400003 -0.028312827 1.161015e-38 308 262
-0.014079267 0.73000002 -0.028158534 1.2900889e-38 309 262
-0.012799333 0.73000002 -0.028158534 1.3367628e-38 310 262
-0.011519399 0.73000002 -0.028158534 1.3459823e-38 311 262
-0.010239467 0.73000002 -0.028158534 1.3276527e-38 312 262
-0.0089595336 0.73000002 -0.028158534 1.3276527e-38 313 262
-0.0076795998 0.73000002 -0.028158534 1.3091779e-38 314 262
-0.0063996664 0.73000002 -0.028158534 1.2999584e-38 315 262
-0.0051197335 0.73000002 -0.028158534 1.3738574e-38 316 262
-0.0038397999 0.73000002 -0.028158534 1.5029313e-38 317 262
-0.0025528532 0.72799999 -0.028081384 1.6686671e-38 318 262
-0.0012764266 0.72799999 -0.028081384 1.6686671e-38 319 262
0 0.72799999 -0.028081384 1.6316809e-38 320 262
0.0012764266 0.72799999 -0.028081384 1.6224613e-38 321 262
0.0025528532 0.72799999 -0.028081384 1.6591951e-38 322 262
0.0038240198 0.727 -0.028042812 1.6315364e-38 323 262
0.0050986931 0.727 -0.028042812 1.5576723e-38 324 262
0.0063733663 0.727 -0.028042812 1.4839158e-38 325 262
0.0076585598 0.72799999 -0.028081384 1.4287436e-38 326 262
0.0090331733 0.736 -0.028389972 1.4563663e-38 327 262
0.010323626 0.736 -0.028389972 1.4294288e-38 328 262
0.01169298 0.741 -0.028582839 1.5677223e-38 329 262
-0.025598666 0.73000002 -0.029438468 1.5486683e-38 300 263
-0.024318734 0.73000002 -0.029438468 1.4472171e-38 301 263
-0.02307036 0.73100001 -0.029478792 1.4560017e-38 302 263
-0.021788673 0.73100001 -0.029478792 1.3177081e-38 303 263
-0.020506985 0.73100001 -0.029478792 1.3173486e-38 304 263
-0.019277899 0.73299998 -0.029559445 1.2251531e-38 305 263
-0.017992707 0.73299998 -0.029559445 1.1884942e-38 306 263
-0.016707512 0.73299998 -0.029559445 1.1515799e-38 307 263
-0.0153592 0.73000002 -0.029438468 1.1789145e-38 308 263
-0.014079267 0.73000002 -0.029438468 1.4186233e-38 309 263
-0.012799333 0.73000002 -0.029438468 1.4195944e-38 310 263
-0.011519399 0.73000002 -0.029438468 1.4011192e-38 311 263
-0.010239467 0.73000002 -0.029438468 1.3552388e-38 312 263
-0.0089595336 0.73000002 -0.029438468 1.3552388e-38 313 263
-0.0076795998 0.73000002 -0.029438468 1.3737146e-38 314 263
-0.0063996664 0.73000002 -0.029438468 1.4014092e-38 315 263
-0.0051057064 0.72799999 -0.029357811 1.5577449e-38 316 263
-0.0038292799 0.72799999 -0.029357811 1.6683796e-38 317 263
-0.0025528532 0.72799999 -0.029357811 1.6686668e-38 318 263
-0.0012764266 0.72799999 -0.029357811 1.6410081e-38 319 263
0 0.72799999 -0.029357811 1.6591954e-38 320 263
0.0012764266 0.72799999 -0.029357811 1.6591954e-38 321 263
0.0025528532 0.72799999 -0.029357811 1.6868537e-38 322 263
0.0038240198 0.727 -0.029317487 1.6499756e-38 323 263
0.0050986931 0.727 -0.029317487 1.6129531e-38 324 263
0.0063733663 0.727 -0.029317487 1.5391966e-38 325 263
0.0076585598 0.72799999 -0.029357811 1.4196312e-38 326 263
0.0089595336 0.73000002 -0.029438468 1.3089965e-38 327 263
0.010295574 0.73400003 -0.029599773 1.2725165e-38 328 263
0.011645639 0.73799998 -0.029761078 1.3923708e-38 329 263
0.012957133 0.73900002 -0.029801406 1.4755642e-38 330 263
-0.026915418 0.73100001 -0.03076048 1.4565818e-38 299 264
-0.025598666 0.73000002 -0.030718399 1.4654045e-38 300 264
-0.024318734 0.73000002 -0.030718399 1.5207219e-38 301 264
-0.02307036 0.73100001 -0.03076048 1.5114653e-38 302 264
-0.021758866 0.73000002 -0.030718399 1.391611e-38 303 264
-0.020478934 0.73000002 -0.030718399 1.3912863e-38 304 264
-0.019277899 0.73299998 -0.030844638 1.2806876e-38 305 264
-0.017992707 0.73299998 -0.030844638 1.188314e-38 306 264
-0.016707512 0.73299998 -0.030844638 1.0960825e-38 307 264
-0.0153592 0.73000002 -0.030718399 1.2250846e-38 308 264
-0.014079267 0.73000002 -0.030718399 1.4832324e-38 309 264
-0.012799333 0.73000002 -0.030718399 1.493243e-38 310 264
-0.011519399 0.73000002 -0.030718399 1.4471452e-38 311 264
-0.010239467 0.73000002 -0.030718399 1.3737136e-38 312 264
-0.0089595336 0.73000002 -0.030718399 1.3921167e-38 313 264
-0.0076585598 0.72799999 -0.030634239 1.4382869e-38 314 264
-0.0063821329 0.72799999 -0.030634239 1.5120434e-38 315 264
-0.0051057064 0.72799999 -0.030634239 1.6131343e-38 316 264
-0.0038292799 0.72799999 -0.030634239 1.6961462e-38 317 264
-0.0025528532 0.72799999 -0.030634239 1.6686671e-38 318 264
-0.0012764266 0.72799999 -0.030634239 1.6317528e-38 319 264
0 0.72799999 -0.030634239 1.6685592e-38 320 264
0.0012746733 0.727 -0.030592158 1.6777787e-38 321 264
0.0025493465 0.727 -0.030592158 1.6592676e-38 322 264
0.0038240198 0.727 -0.030592158 1.6407926e-38 323 264
0.0050846669 0.72500002 -0.030508002 1.6682717e-38 324 264
0.0063558333 0.72500002 -0.030508002 1.5945152e-38 325 264
0.0076480396 0.727 -0.030592158 1.474913e-38 326 264
0.0089227129 0.727 -0.030592158 1.2997413e-38 327 264
0.010239467 0.73000002 -0.030718399 1.2538962e-38 328 264
0.011566739 0.73299998 -0.030844638 1.2907385e-38 329 264
0.012904533 0.736 -0.030970879 1.3003912e-38 330 264
0.014233559 0.73799998 -0.031055039 1.4479403e-38 331 264
-0.028158534 0.73000002 -0.031998333 1.4750925e-38 298 265
-0.026878599 0.73000002 -0.031998333 1.484348e-38 299 265
-0.025633732 0.73100001 -0.032042164 1.658584e-38 300 265
-0.024318734 0.73000002 -0.031998333 1.5387297e-38 301 265
-0.023038799 0.73000002 -0.031998333 1.3178195e-38 302 265
-0.021758866 0.73000002 -0.031998333 1.1242086e-38 303 265
-0.020478934 0.73000002 -0.031998333 1.0687831e-38 304 265
-0.0191464 0.72799999 -0.031910665 1.0964778e-38 305 265
-0.017869972 0.72799999 -0.031910665 1.1884942e-38 306 265
-0.016639132 0.73000002 -0.031998333 1.2898734e-38 307 265
-0.01531712 0.72799999 -0.031910665 1.4006513e-38 308 265
-0.014040692 0.72799999 -0.031910665 1.5112502e-38 309 265
-0.012764266 0.72799999 -0.031910665 1.5300486e-38 310 265
-0.01148784 0.72799999 -0.031910665 1.5116455e-38 311 265
-0.010211413 0.72799999 -0.031910665 1.4473252e-38 312 265
-0.0089349858 0.72799999 -0.031910665 1.4841676e-38 313 265
-0.0076585598 0.72799999 -0.031910665 1.5393778e-38 314 265
-0.0063821329 0.72799999 -0.031910665 1.6131343e-38 315 265
-0.0050986931 0.727 -0.03186683 1.6039503e-38 316 265
-0.0038240198 0.727 -0.03186683 1.6500121e-38 317 265
-0.0025528532 0.72799999 -0.031910665 1.6041301e-38 318 265
-0.0012764266 0.72799999 -0.031910665 1.5764355e-38 319 265
0 0.727 -0.03186683 1.5947306e-38 320 265
0.0012746733 0.727 -0.03186683 1.5947306e-38 321 265
0.0025493465 0.727 -0.03186683 1.5579247e-38 322 265
0.0038135003 0.72500002 -0.031779166 1.5671442e-38 323 265
0.0050846669 0.72500002 -0.031779166 1.5946597e-38 324 265
0.0063558333 0.72500002 -0.031779166 1.5393784e-38 325 265
0.0076480396 0.727 -0.03186683 1.4841326e-38 326 265
0.0089227129 0.727 -0.03186683 1.3827533e-38 327 265
0.010197386 0.727 -0.03186683 1.355059e-38 328 265
0.011519399 0.73000002 -0.031998333 1.3458394e-38 329 265
0.012869466 0.73400003 -0.032173667 1.1897202e-38 330 265
0.014194986 0.736 -0.032261331 1.2542571e-38 331 265
0.015485439 0.736 -0.032261331 1.448085e-38 332 265
-0.029438468 0.73000002 -0.033278264 1.5212632e-38 297 266
-0.028158534 0.73000002 -0.033278264 1.4931356e-38 298 266
-0.026878599 0.73000002 -0.033278264 1.6037704e-38 299 266
-0.025598666 0.73000002 -0.033278264 1.6314292e-38 300 266
-0.024318734 0.73000002 -0.033278264 1.2995248e-38 301 266
-0.023038799 0.73000002 -0.033278264 1.0966944e-38 302 266
-0.021699252 0.72799999 -0.033187091 1.0044629e-38 303 266
-0.020394772 0.727 -0.033141505 1.0872595e-38 304 266
-0.0190675 0.72500002 -0.033050332 1.1702714e-38 305 266
-0.017649053 0.71899998 -0.032776814 1.2256608e-38 306 266
-0.016388407 0.71899998 -0.032776814 1.3455152e-38 307 266
-0.0151488 0.72000003 -0.0328224 1.4467133e-38 308 266
-0.01394426 0.72299999 -0.032959159 1.4651883e-38 309 266
-0.012676599 0.72299999 -0.032959159 1.5206123e-38 310 266
-0.0114405 0.72500002 -0.033050332 1.5022092e-38 311 266
-0.010197386 0.727 -0.033141505 1.465512e-38 312 266
-0.0089227129 0.727 -0.033141505 1.4931707e-38 313 266
-0.0076585598 0.72799999 -0.033187091 1.4198107e-38 314 266
-0.0063821329 0.72799999 -0.033187091 1.456689e-38 315 266
-0.0050986931 0.727 -0.033141505 1.5304452e-38 316 266
-0.0038240198 0.727 -0.033141505 1.6042017e-38 317 266
-0.0025493465 0.727 -0.033141505 1.5672161e-38 318 266
-0.0012746733 0.727 -0.033141505 1.5118989e-38 319 266
0 0.727 -0.033141505 1.4289951e-38 320 266
0.0012711667 0.72500002 -0.033050332 1.4197754e-38 321 266
0.0025423334 0.72500002 -0.033050332 1.4658735e-38 322 266
0.0038135003 0.72500002 -0.033050332 1.4935323e-38 323 266
0.0050846669 0.72500002 -0.033050332 1.5762203e-38 324 266
0.0063558333 0.72500002 -0.033050332 1.5301584e-38 325 266
0.0076270006 0.72500002 -0.033050332 1.4566537e-38 326 266
0.0088981669 0.72500002 -0.033050332 1.3921167e-38 327 266
0.010197386 0.727 -0.033141505 1.401014e-38 328 266
0.01148784 0.72799999 -0.033187091 1.3641716e-38 329 266
0.012851933 0.73299998 -0.033415023 1.2447506e-38 330 266
0.014194986 0.736 -0.033551786 1.1709939e-38 331 266
0.015485439 0.736 -0.033551786 1.3005361e-38 332 266
-0.029438468 0.73000002 -0.034558199 1.5856925e-38 297 267
-0.028158534 0.73000002 -0.034558199 1.6862793e-38 298 267
-0.026878599 0.73000002 -0.034558199 1.6402175e-38 299 267
-0.025598666 0.73000002 -0.034558199 1.4656552e-38 300 267
-0.024252106 0.72799999 -0.034463517 1.0322997e-38 301 267
-0.022975679 0.72799999 -0.034463517 8.8489434e-39 302 267
-0.021669446 0.727 -0.03441618 1.0324075e-38 303 267
-0.020282559 0.72299999 -0.03422682 1.2176275e-38 304 267
-0.0189886 0.722 -0.034179479 1.3097871e-38 305 267
-0.017599959 0.71700001 -0.033942781 1.3083834e-38 306 267
-0.016342819 0.71700001 -0.033942781 1.2161519e-38 307 267
-0.01512776 0.71899998 -0.03403746 1.4652952e-38 308 267
-0.0138864 0.72000003 -0.034084801 1.492954e-38 309 267
-0.012676599 0.72299999 -0.03422682 1.4744792e-38 310 267
-0.01140894 0.72299999 -0.03422682 1.3361857e-38 311 267
-0.010169334 0.72500002 -0.034321502 1.3730294e-38 312 267
-0.0089227129 0.727 -0.03441618 1.4560053e-38 313 267
-0.0076480396 0.727 -0.03441618 1.2358162e-38 314 267
-0.0063733663 0.727 -0.03441618 1.2911336e-38 315 267
-0.0050846669 0.72500002 -0.034321502 1.5029313e-38 316 267
-0.0038135003 0.72500002 -0.034321502 1.5490292e-38 317 267
-0.0025423334 0.72500002 -0.034321502 1.5121508e-38 318 267
-0.0012711667 0.72500002 -0.034321502 1.4568335e-38 319 267
0 0.72299999 -0.03422682 1.1158896e-38 320 267
0.0012676599 0.72299999 -0.03422682 1.1343287e-38 321 267
0.0025353199 0.72299999 -0.03422682 1.3553108e-38 322 267
0.0038029798 0.72299999 -0.03422682 1.456726e-38 323 267
0.0050706398 0.72299999 -0.03422682 1.5026442e-38 324 267
0.0063382997 0.72299999 -0.03422682 1.4933887e-38 325 267
0.0076059597 0.72299999 -0.03422682 1.4565462e-38 326 267
0.0088981669 0.72500002 -0.034321502 1.4104843e-38 327 267
0.010169334 0.72500002 -0.034321502 1.3919377e-38 328 267
0.01147206 0.727 -0.03441618 1.3734984e-38 329 267
0.012799333 0.73000002 -0.034558199 1.327402e-38 330 267
0.014194986 0.736 -0.034842238 1.28134e-38 331 267
0.015485439 0.736 -0.034842238 1.1897569e-38 332 267
-0.030634239 0.72799999 -0.035739943 1.6130993e-38 296 268
-0.029357811 0.72799999 -0.035739943 1.5762209e-38 297 268
-0.028158534 0.73000002 -0.035838135 1.6127027e-38 298 268
-0.026878599 0.73000002 -0.035838135 1.5389461e-38 299 268
-0.025528532 0.72799999 -0.035739943 1.382607e-38 300 268
-0.024252106 0.72799999 -0.035739943 1.1152396e-38 301 268
-0.022944121 0.727 -0.035690852 1.1978189e-38 302 268
-0.021550218 0.72299999 -0.035494477 1.3545513e-38 303 268
-0.020170346 0.71899998 -0.035298105 1.4189104e-38 304 268
-0.018909698 0.71899998 -0.035298105 1.4189104e-38 305 268
-0.017599959 0.71700001 -0.035199918 1.2249736e-38 306 268
-0.016342819 0.71700001 -0.035199918 1.2157541e-38 307 268
-0.01512776 0.71899998 -0.035298105 1.6034073e-38 308 268
-0.013867113 0.71899998 -0.035298105 1.5941876e-38 309 268
-0.012624 0.72000003 -0.035347197 1.4283823e-38 310 268
-0.01140894 0.72299999 -0.035494477 1.3453703e-38 311 268
-0.01014128 0.72299999 -0.035494477 1.3360441e-38 312 268
-0.0088981669 0.72500002 -0.035592668 1.3913256e-38 313 268
-0.0076270006 0.72500002 -0.035592668 1.3276527e-38 314 268
-0.0063558333 0.72500002 -0.035592668 1.4659461e-38 315 268
-0.0050846669 0.72500002 -0.035592668 1.6039516e-38 316 268
-0.0038135003 0.72500002 -0.035592668 1.5763288e-38 317 268
-0.0025423334 0.72500002 -0.035592668 1.5027519e-38 318 268
-0.0012711667 0.72500002 -0.035592668 1.4750931e-38 319 268
0 0.72299999 -0.035494477 1.382825e-38 320 268
0.0012676599 0.72299999 -0.035494477 1.2169087e-38 321 268
0.0025353199 0.72299999 -0.035494477 1.2169818e-38 322 268
0.0038029798 0.72299999 -0.035494477 1.3552752e-38 323 268
0.0050706398 0.72299999 -0.035494477 1.429032e-38 324 268
0.0063382997 0.72299999 -0.035494477 1.429032e-38 325 268
0.0076059597 0.72299999 -0.035494477 1.4473622e-38 326 268
0.0088736191 0.72299999 -0.035494477 1.4288871e-38 327 268
0.01014128 0.72299999 -0.035494477 1.4103764e-38 328 268
0.0114405 0.72500002 -0.035592668 1.3642785e-38 329 268
0.012746733 0.727 -0.035690852 1.3091063e-38 330 268
0.014137126 0.73299998 -0.035985414 1.2814116e-38 331 268
0.015422319 0.73299998 -0.035985414 1.1160003e-38 332 268
-0.031910665 0.72799999 -0.037016369 1.5395591e-38 295 269
-0.030634239 0.72799999 -0.037016369 1.5300136e-38 296 269
-0.029357811 0.72799999 -0.037016369 1.4931354e-38 297 269
-0.028081384 0.72799999 -0.037016369 1.502246e-38 298 269
-0.026804959 0.72799999 -0.037016369 1.4284537e-38 299 269
-0.025493465 0.727 -0.036965527 1.3179264e-38 300 269
-0.024152167 0.72500002 -0.036863834 1.3271461e-38 301 269
-0.02281788 0.72299999 -0.036762137 1.4927388e-38 302 269
-0.021460801 0.72000003 -0.036609601 1.5019584e-38 303 269
-0.020170346 0.71899998 -0.036558751 1.3632336e-38 304 269
-0.018909698 0.71899998 -0.036558751 1.1511478e-38 305 269
-0.017599959 0.71700001 -0.036457058 1.2800407e-38 306 269
-0.016342819 0.71700001 -0.036457058 1.5474081e-38 307 269
-0.015085679 0.71700001 -0.036457058 1.6770938e-38 308 269
-0.013867113 0.71899998 -0.036558751 1.5572394e-38 309 269
-0.012606465 0.71899998 -0.036558751 1.2993085e-38 310 269
-0.01139316 0.722 -0.03671129 1.2808333e-38 311 269
-0.010127253 0.722 -0.03671129 1.3543737e-38 312 269
-0.0088981669 0.72500002 -0.036863834 1.3358987e-38 313 269
-0.0076270006 0.72500002 -0.036863834 1.3180363e-38 314 269
-0.0063558333 0.72500002 -0.036863834 1.5393058e-38 315 269
-0.0050706398 0.72299999 -0.036762137 1.60388e-38 316 269
-0.0038029798 0.72299999 -0.036762137 1.5577822e-38 317 269
-0.0025353199 0.72299999 -0.036762137 1.5023919e-38 318 269
-0.0012676599 0.72299999 -0.036762137 1.4931724e-38 319 269
0 0.72299999 -0.036762137 1.5578891e-38 320 269
0.0012676599 0.72299999 -0.036762137 1.3734978e-38 321 269
0.0025353199 0.72299999 -0.036762137 1.041666e-38 322 269
0.0038029798 0.72299999 -0.036762137 1.2444965e-38 323 269
0.0050706398 0.72299999 -0.036762137 1.3829698e-38 324 269
0.0063382997 0.72299999 -0.036762137 1.4014089e-38 325 269
0.0076059597 0.72299999 -0.036762137 1.3921893e-38 326 269
0.0088736191 0.72299999 -0.036762137 1.3829698e-38 327 269
0.01014128 0.72299999 -0.036762137 1.3827544e-38 328 269
0.01140894 0.72299999 -0.036762137 1.345912e-38 329 269
0.012711667 0.72500002 -0.036863834 1.2999231e-38 330 269
0.014137126 0.73299998 -0.037270606 1.2814839e-38 331 269
0.015422319 0.73299998 -0.037270606 1.0790501e-38 332 269
-0.033187091 0.72799999 -0.038292799 1.5394146e-38 294 270
-0.03186683 0.727 -0.038240198 1.4748777e-38 295 270
-0.030592158 0.727 -0.038240198 1.456365e-38 296 270
-0.029317487 0.727 -0.038240198 1.4655846e-38 297 270
-0.028081384 0.72799999 -0.038292799 1.4929912e-38 298 270
-0.026768139 0.727 -0.038240198 1.4284542e-38 299 270
-0.025423333 0.72500002 -0.038135 1.4007232e-38 300 270
-0.024085538 0.72299999 -0.038029801 1.4560047e-38 301 270
-0.022723202 0.72000003 -0.037871998 1.3913962e-38 302 270
-0.021430992 0.71899998 -0.037819397 1.2623223e-38 303 270
-0.020114239 0.71700001 -0.037714198 1.2711103e-38 304 270
-0.018857099 0.71700001 -0.037714198 1.2157929e-38 305 270
-0.017599959 0.71700001 -0.037714198 1.4925237e-38 306 270
-0.016342819 0.71700001 -0.037714198 1.630853e-38 307 270
-0.015085679 0.71700001 -0.037714198 1.6494723e-38 308 270
-0.013867113 0.71899998 -0.037819397 1.511143e-38 309 270
-0.012606465 0.71899998 -0.037819397 1.2992004e-38 310 270
-0.011361601 0.72000003 -0.037871998 1.3176397e-38 311 270
-0.010127253 0.722 -0.0379772 1.3820317e-38 312 270
-0.0088736191 0.72299999 -0.038029801 1.3267144e-38 313 270
-0.0076059597 0.72299999 -0.038029801 1.2162964e-38 314 270
-0.0063558333 0.72500002 -0.038135 1.2347715e-38 315 270
-0.0050706398 0.72299999 -0.038029801 1.3275798e-38 316 270
-0.0038029798 0.72299999 -0.038029801 1.4289951e-38 317 270
-0.0025353199 0.72299999 -0.038029801 1.5203629e-38 318 270
-0.0012676599 0.72299999 -0.038029801 1.492704e-38 319 270
0 0.72299999 -0.038029801 1.4932079e-38 320 270
0.0012659066 0.722 -0.0379772 1.3088167e-38 321 270
0.0025318132 0.722 -0.0379772 9.6751335e-39 322 270
0.0037977197 0.722 -0.0379772 1.2717589e-38 323 270
0.0050636264 0.722 -0.0379772 1.438215e-38 324 270
0.0063295332 0.722 -0.0379772 1.4197757e-38 325 270
0.0075954394 0.722 -0.0379772 1.3737502e-38 326 270
0.0088736191 0.72299999 -0.038029801 1.3737502e-38 327 270
0.01014128 0.72299999 -0.038029801 1.3643154e-38 328 270
0.01140894 0.72299999 -0.038029801 1.3274373e-38 329 270
0.012676599 0.72299999 -0.038029801 1.2814839e-38 330 270
0.013982833 0.72500002 -0.038135 1.2814839e-38 331 270
0.015254001 0.72500002 -0.038135 1.1524826e-38 332 270
-0.03441618 0.727 -0.039514873 1.6318273e-38 293 271
-0.033141505 0.727 -0.039514873 1.4472549e-38 294 271
-0.03186683 0.727 -0.039514873 1.4195603e-38 295 271
-0.030592158 0.727 -0.039514873 1.4010123e-38 296 271
-0.029317487 0.727 -0.039514873 1.4378906e-38 297 271
-0.028042812 0.727 -0.039514873 1.4561496e-38 298 271
-0.026694499 0.72500002 -0.039406165 1.4377104e-38 299 271
-0.025248 0.72000003 -0.039134402 1.4744444e-38 300 271
-0.023952285 0.71899998 -0.039080046 1.4375663e-38 301 271
-0.022691639 0.71899998 -0.039080046 1.271614e-38 302 271
-0.021430992 0.71899998 -0.039080046 1.0780032e-38 303 271
-0.020114239 0.71700001 -0.038971342 1.2435595e-38 304 271
-0.018857099 0.71700001 -0.038971342 1.3818529e-38 305 271
-0.017599959 0.71700001 -0.038971342 1.6125584e-38 306 271
-0.016342819 0.71700001 -0.038971342 1.6770953e-38 307 271
-0.015085679 0.71700001 -0.038971342 1.5389463e-38 308 271
-0.013828539 0.71700001 -0.038971342 1.4098724e-38 309 271
-0.012606465 0.71899998 -0.039080046 1.3451554e-38 310 271
-0.01134582 0.71899998 -0.039080046 1.37285e-38 311 271
-0.010127253 0.722 -0.039243106 1.3821045e-38 312 271
-0.0088613462 0.722 -0.039243106 1.3544456e-38 313 271
-0.0076059597 0.72299999 -0.039297458 1.2068237e-38 314 271
-0.0063382997 0.72299999 -0.039297458 1.0039934e-38 315 271
-0.0050706398 0.72299999 -0.039297458 1.0786498e-38 316 271
-0.0038029798 0.72299999 -0.039297458 1.3828954e-38 317 271
-0.0025353199 0.72299999 -0.039297458 1.4742646e-38 318 271
-0.0012659066 0.722 -0.039243106 1.3728494e-38 319 271
0 0.722 -0.039243106 1.2718287e-38 320 271
0.0012659066 0.722 -0.039243106 1.0874733e-38 321 271
0.0025318132 0.722 -0.039243106 9.6711679e-39 322 271
0.0037977197 0.722 -0.039243106 1.3174242e-38 323 271
0.0050636264 0.722 -0.039243106 1.4198127e-38 324 271
0.0063295332 0.722 -0.039243106 1.3737149e-38 325 271
0.0075954394 0.722 -0.039243106 1.3369087e-38 326 271
0.0088736191 0.72299999 -0.039297458 1.3369087e-38 327 271
0.01014128 0.72299999 -0.039297458 1.3183978e-38 328 271
0.01140894 0.72299999 -0.039297458 1.2999228e-38 329 271
0.012676599 0.72299999 -0.039297458 1.2630807e-38 330 271
0.013982833 0.72500002 -0.039406165 1.2538253e-38 331 271
0.015254001 0.72500002 -0.039406165 1.1801056e-38 332 271
-0.035690852 0.727 -0.040789545 1.6779252e-38 292 272
-0.03441618 0.727 -0.040789545 1.5580708e-38 293 272
-0.033141505 0.727 -0.040789545 1.4105205e-38 294 272
-0.03186683 0.727 -0.040789545 1.3644587e-38 295 272
-0.030592158 0.727 -0.040789545 1.3823933e-38 296 272
-0.029317487 0.727 -0.040789545 1.4192717e-38 297 272
-0.027965667 0.72500002 -0.040677335 1.4375666e-38 298 272
-0.026510401 0.72000003 -0.040396802 1.428347e-38 299 272
-0.025212931 0.71899998 -0.040340692 1.4098353e-38 300 272
-0.023952285 0.71899998 -0.040340692 1.3176397e-38 301 272
-0.022691639 0.71899998 -0.040340692 1.2253362e-38 302 272
-0.021430992 0.71899998 -0.040340692 1.0962623e-38 303 272
-0.020114239 0.71700001 -0.040228479 1.2713621e-38 304 272
-0.018857099 0.71700001 -0.040228479 1.4557532e-38 305 272
-0.017599959 0.71700001 -0.040228479 1.5940118e-38 306 272
-0.016342819 0.71700001 -0.040228479 1.5386944e-38 307 272
-0.015085679 0.71700001 -0.040228479 1.3083848e-38 308 272
-0.013828539 0.71700001 -0.040228479 1.2069696e-38 309 272
-0.0125714 0.71700001 -0.040228479 1.2620708e-38 310 272
-0.01131426 0.71700001 -0.040228479 1.2620708e-38 311 272
-0.010085173 0.71899998 -0.040340692 1.2163334e-38 312 272
-0.0088613462 0.722 -0.040509012 1.2624671e-38 313 272
-0.0075954394 0.722 -0.040509012 1.2618185e-38 314 272
-0.0063295332 0.722 -0.040509012 8.7459689e-39 315 272
-0.0050636264 0.722 -0.040509012 9.4039192e-39 316 272
-0.0037977197 0.722 -0.040509012 1.2722962e-38 317 272
-0.0025318132 0.722 -0.040509012 1.373065e-38 318 272
-0.0012624001 0.72000003 -0.040396802 1.308528e-38 319 272
0 0.72000003 -0.040396802 1.0967282e-38 320 272
0.0012624001 0.72000003 -0.040396802 1.0137163e-38 321 272
0.0025248001 0.72000003 -0.040396802 1.0133218e-38 322 272
0.0037977197 0.722 -0.040509012 1.2438109e-38 323 272
0.0050636264 0.722 -0.040509012 1.2631527e-38 324 272
0.0063295332 0.722 -0.040509012 1.2815918e-38 325 272
0.0075954394 0.722 -0.040509012 1.2908836e-38 326 272
0.0088613462 0.722 -0.040509012 1.2908836e-38 327 272
0.01014128 0.72299999 -0.040565118 1.2815918e-38 328 272
0.01140894 0.72299999 -0.040565118 1.2631527e-38 329 272
0.012676599 0.72299999 -0.040565118 1.2538253e-38 330 272
0.013982833 0.72500002 -0.040677335 1.2446057e-38 331 272
-0.035690852 0.727 -0.042064216 1.6410825e-38 292 273
-0.03441618 0.727 -0.042064216 1.4935336e-38 293 273
-0.033141505 0.727 -0.042064216 1.3736783e-38 294 273
-0.03186683 0.727 -0.042064216 1.336764e-38 295 273
-0.030592158 0.727 -0.042064216 1.3087814e-38 296 273
-0.029317487 0.727 -0.042064216 1.3364401e-38 297 273
-0.02788852 0.72299999 -0.041832779 1.3731018e-38 298 273
-0.02647358 0.71899998 -0.041601337 1.3362237e-38 299 273
-0.025212931 0.71899998 -0.041601337 1.3269309e-38 300 273
-0.02388566 0.71700001 -0.041485619 1.2255517e-38 301 273
-0.02262852 0.71700001 -0.041485619 1.1884212e-38 302 273
-0.021371379 0.71700001 -0.041485619 1.0962257e-38 303 273
-0.020114239 0.71700001 -0.041485619 1.2712903e-38 304 273
-0.018857099 0.71700001 -0.041485619 1.4556816e-38 305 273
-0.017599959 0.71700001 -0.041485619 1.4098369e-38 306 273
-0.016342819 0.71700001 -0.041485619 1.3729946e-38 307 273
-0.015085679 0.71700001 -0.041485619 1.2900183e-38 308 273
-0.013828539 0.71700001 -0.041485619 1.2347009e-38 309 273
-0.0125714 0.71700001 -0.041485619 1.2528872e-38 310 273
-0.01131426 0.71700001 -0.041485619 1.2252645e-38 311 273
-0.010085173 0.71899998 -0.041601337 1.2438109e-38 312 273
-0.0088367993 0.72000003 -0.041659199 1.3452261e-38 313 273
-0.0075743999 0.72000003 -0.041659199 1.2528138e-38 314 273
-0.0063120001 0.72000003 -0.041659199 7.9183565e-39 315 273
-0.0050496003 0.72000003 -0.041659199 1.0042452e-38 316 273
-0.0037872 0.72000003 -0.041659199 1.4099059e-38 317 273
-0.0025248001 0.72000003 -0.041659199 1.4098709e-38 318 273
-0.0012624001 0.72000003 -0.041659199 1.3637371e-38 319 273
0 0.72000003 -0.041659199 1.2807592e-38 320 273
0.0012624001 0.72000003 -0.041659199 1.1240626e-38 321 273
0.0025248001 0.72000003 -0.041659199 1.1053008e-38 322 273
0.0037872 0.72000003 -0.041659199 1.225155e-38 323 273
0.0050496003 0.72000003 -0.041659199 1.1708495e-38 324 273
0.0063120001 0.72000003 -0.041659199 1.244606e-38 325 273
0.0075743999 0.72000003 -0.041659199 1.254042e-38 326 273
0.0088613462 0.722 -0.041774917 1.2356029e-38 327 273
0.010127253 0.722 -0.041774917 1.2356382e-38 328 273
0.01139316 0.722 -0.041774917 1.2079795e-38 329 273
0.012676599 0.72299999 -0.041832779 1.2353861e-38 330 273
0.01394426 0.72299999 -0.041832779 1.2353861e-38 331 273
-0.035690852 0.727 -0.043338891 1.6225712e-38 292 274
-0.03441618 0.727 -0.043338891 1.4565831e-38 293 274
-0.033187091 0.72799999 -0.043398503 1.3275445e-38 294 274
-0.03186683 0.727 -0.043338891 1.2999218e-38 295 274
-0.030592158 0.727 -0.043338891 1.3270763e-38 296 274
-0.029317487 0.727 -0.043338891 1.3178207e-38 297 274
-0.027772799 0.72000003 -0.042921603 1.3085646e-38 298 274
-0.02647358 0.71899998 -0.042861983 1.2440277e-38 299 274
-0.0251428 0.71700001 -0.042742759 1.2162613e-38 300 274
-0.02388566 0.71700001 -0.042742759 1.1148822e-38 301 274
-0.02262852 0.71700001 -0.042742759 1.1421816e-38 302 274
-0.021371379 0.71700001 -0.042742759 1.1605847e-38 303 274
-0.020114239 0.71700001 -0.042742759 1.234521e-38 304 274
-0.018857099 0.71700001 -0.042742759 1.2622157e-38 305 274
-0.017575413 0.71600002 -0.042683143 1.1519415e-38 306 274
-0.016320027 0.71600002 -0.042683143 1.1796003e-38 307 274
-0.01506464 0.71600002 -0.042683143 1.2624685e-38 308 274
-0.013809253 0.71600002 -0.042683143 1.290163e-38 309 274
-0.0125714 0.71700001 -0.042742759 1.3545552e-38 310 274
-0.01131426 0.71700001 -0.042742759 1.3729943e-38 311 274
-0.01005712 0.71700001 -0.042742759 1.3456224e-38 312 274
-0.0088245263 0.71899998 -0.042861983 1.3364028e-38 313 274
-0.0075638802 0.71899998 -0.042861983 1.2434499e-38 314 274
-0.0063032326 0.71899998 -0.042861983 8.6544782e-39 315 274
-0.0050425865 0.71899998 -0.042861983 1.0872212e-38 316 274
-0.0037819401 0.71899998 -0.042861983 1.4467483e-38 317 274
-0.0025248001 0.72000003 -0.042921603 1.418947e-38 318 274
-0.0012624001 0.72000003 -0.042921603 1.4282024e-38 319 274
0 0.72000003 -0.042921603 1.4556816e-38 320 274
0.0012606466 0.71899998 -0.042861983 1.3634501e-38 321 274
0.0025212932 0.71899998 -0.042861983 1.1974629e-38 322 274
0.0037872 0.72000003 -0.042921603 1.132926e-38 323 274
0.0050496003 0.72000003 -0.042921603 1.004825e-38 324 274
0.0063120001 0.72000003 -0.042921603 1.133863e-38 325 274
0.0075743999 0.72000003 -0.042921603 1.1709937e-38 326 274
0.0088367993 0.72000003 -0.042921603 1.2170915e-38 327 274
0.010127253 0.722 -0.043040827 1.2263466e-38 328 274
0.01139316 0.722 -0.043040827 1.2170912e-38 329 274
0.012676599 0.72299999 -0.043100435 1.2353864e-38 330 274
0.01394426 0.72299999 -0.043100435 1.2353864e-38 331 274
0.015211919 0.72299999 -0.043100435 1.2169114e-38 332 274
-0.035739943 0.72799999 -0.044674929 1.6225356e-38 292 275
-0.034463517 0.72799999 -0.044674929 1.4197052e-38 293 275
-0.033187091 0.72799999 -0.044674929 1.281519e-38 294 275
-0.03186683 0.727 -0.044613566 1.281519e-38 295 275
-0.030592158 0.727 -0.044613566 1.3272205e-38 296 275
-0.029317487 0.727 -0.044613566 1.2903421e-38 297 275
-0.027772799 0.72000003 -0.044183999 1.2442442e-38 298 275
-0.02647358 0.71899998 -0.044122629 1.1612681e-38 299 275
-0.0251428 0.71700001 -0.043999899 1.179456e-38 300 275
-0.02388566 0.71700001 -0.043999899 1.1241386e-38 301 275
-0.02262852 0.71700001 -0.043999899 1.14229e-38 302 275
-0.021371379 0.71700001 -0.043999899 1.1238869e-38 303 275
-0.020114239 0.71700001 -0.043999899 1.1606926e-38 304 275
-0.0188308 0.71600002 -0.043938532 1.2067904e-38 305 275
-0.017575413 0.71600002 -0.043938532 1.1516542e-38 306 275
-0.016320027 0.71600002 -0.043938532 1.1793488e-38 307 275
-0.01506464 0.71600002 -0.043938532 1.1428315e-38 308 275
-0.013809253 0.71600002 -0.043938532 1.2073684e-38 309 275
-0.012553867 0.71600002 -0.043938532 1.3454448e-38 310 275
-0.01131426 0.71700001 -0.043999899 1.3731034e-38 311 275
-0.01005712 0.71700001 -0.043999899 1.3362603e-38 312 275
-0.0087999795 0.71700001 -0.043999899 1.2532842e-38 313 275
-0.0075428397 0.71700001 -0.043999899 1.1604758e-38 314 275
-0.0062857 0.71700001 -0.043999899 8.838889e-39 315 275
-0.0050285598 0.71700001 -0.043999899 1.114737e-38 316 275
-0.0037714199 0.71700001 -0.043999899 1.409763e-38 317 275
-0.0025142799 0.71700001 -0.043999899 1.363702e-38 318 275
-0.0012606466 0.71899998 -0.044122629 1.3729218e-38 319 275
0 0.71899998 -0.044122629 1.3728864e-38 320 275
0.0012606466 0.71899998 -0.044122629 1.3267886e-38 321 275
0.0025212932 0.71899998 -0.044122629 1.179169e-38 322 275
0.0037872 0.72000003 -0.044183999 1.1606938e-38 323 275
0.0050496003 0.72000003 -0.044183999 1.0230838e-38 324 275
0.0063120001 0.72000003 -0.044183999 1.124535e-38 325 275
0.0075743999 0.72000003 -0.044183999 1.1157836e-38 326 275
0.0088367993 0.72000003 -0.044183999 1.189576e-38 327 275
0.010127253 0.722 -0.044306733 1.1712092e-38 328 275
0.01139316 0.722 -0.044306733 1.1896123e-38 329 275
0.012659066 0.722 -0.044306733 1.2079072e-38 330 275
0.013924973 0.722 -0.044306733 1.2079072e-38 331 275
0.015190879 0.722 -0.044306733 1.2169467e-38 332 275
-0.035838135 0.73000002 -0.046077598 1.6317908e-38 292 276
-0.034558199 0.73000002 -0.046077598 1.4381799e-38 293 276
-0.033187091 0.72799999 -0.045951359 1.2538962e-38 294 276
-0.031910665 0.72799999 -0.045951359 1.2631157e-38 295 276
-0.030592158 0.727 -0.045888241 1.3364403e-38 296 276
-0.029317487 0.727 -0.045888241 1.2903067e-38 297 276
-0.02788852 0.72299999 -0.04563576 1.1982188e-38 298 276
-0.02647358 0.71899998 -0.045383278 1.1060592e-38 299 276
-0.0251428 0.71700001 -0.045257039 1.1608738e-38 300 276
-0.02388566 0.71700001 -0.045257039 1.1148118e-38 301 276
-0.02262852 0.71700001 -0.045257039 1.0964077e-38 302 276
-0.021371379 0.71700001 -0.045257039 1.0964077e-38 303 276
-0.020114239 0.71700001 -0.045257039 1.1422532e-38 304 276
-0.0188308 0.71600002 -0.045193922 1.1606923e-38 305 276
-0.017575413 0.71600002 -0.045193922 1.1607291e-38 306 276
-0.016320027 0.71600002 -0.045193922 1.1976434e-38 307 276
-0.01506464 0.71600002 -0.045193922 1.0876213e-38 308 276
-0.013809253 0.71600002 -0.045193922 1.1060604e-38 309 276
-0.012553867 0.71600002 -0.045193922 1.1888204e-38 310 276
-0.01131426 0.71700001 -0.045257039 1.2072235e-38 311 276
-0.01005712 0.71700001 -0.045257039 1.2621801e-38 312 276
-0.0087999795 0.71700001 -0.045257039 1.1607289e-38 313 276
-0.0075428397 0.71700001 -0.045257039 1.0684594e-38 314 276
-0.0062857 0.71700001 -0.045257039 8.8410414e-39 315 276
-0.0050285598 0.71700001 -0.045257039 1.1331035e-38 316 276
-0.0037714199 0.71700001 -0.045257039 1.3174948e-38 317 276
-0.0025142799 0.71700001 -0.045257039 1.225552e-38 318 276
-0.00125714 0.71700001 -0.045257039 1.1978573e-38 319 276
0 0.71700001 -0.045257039 1.1794907e-38 320 276
0.0012606466 0.71899998 -0.045383278 1.1702712e-38 321 276
0.0025212932 0.71899998 -0.045383278 1.1517248e-38 322 276
0.0037872 0.72000003 -0.045446403 1.170164e-38 323 276
0.0050496003 0.72000003 -0.045446403 1.1245706e-38 324 276
0.0063120001 0.72000003 -0.045446403 1.1429737e-38 325 276
0.0075743999 0.72000003 -0.045446403 1.0695782e-38 326 276
0.0088367993 0.72000003 -0.045446403 1.180249e-38 327 276
0.010127253 0.722 -0.045572639 1.2078719e-38 328 276
0.01139316 0.722 -0.045572639 1.2078719e-38 329 276
0.012659066 0.722 -0.045572639 1.2170552e-38 330 276
0.013924973 0.722 -0.045572639 1.2262747e-38 331 276
0.015190879 0.722 -0.045572639 1.1893955e-38 332 276
-0.034605537 0.73100001 -0.047422405 1.4750581e-38 293 277
-0.033278264 0.73000002 -0.047357533 1.3090333e-38 294 277
-0.031910665 0.72799999 -0.047227785 1.2998138e-38 295 277
-0.030592158 0.727 -0.047162913 1.318181e-38 296 277
-0.029317487 0.727 -0.047162913 1.2259495e-38 297 277
-0.02788852 0.72299999 -0.046903417 1.188892e-38 298 277
-0.02647358 0.71899998 -0.046643924 1.1427942e-38 299 277
-0.0251428 0.71700001 -0.046514176 1.1332877e-38 300 277
-0.02388566 0.71700001 -0.046514176 1.1056288e-38 301 277
-0.02262852 0.71700001 -0.046514176 1.0963721e-38 302 277
-0.021371379 0.71700001 -0.046514176 1.1148471e-38 303 277
-0.020114239 0.71700001 -0.046514176 1.1332853e-38 304 277
-0.018857099 0.71700001 -0.046514176 1.1425048e-38 305 277
-0.017575413 0.71600002 -0.046449307 1.1242103e-38 306 277
-0.016320027 0.71600002 -0.046449307 1.1334299e-38 307 277
-0.01506464 0.71600002 -0.046449307 1.1334667e-38 308 277
-0.013809253 0.71600002 -0.046449307 1.1334667e-38 309 277
-0.012553867 0.71600002 -0.046449307 1.1151355e-38 310 277
-0.01129848 0.71600002 -0.046449307 1.0690377e-38 311 277
-0.010043093 0.71600002 -0.046449307 1.0596381e-38 312 277
-0.0087999795 0.71700001 -0.046514176 1.0135761e-38 313 277
-0.0075428397 0.71700001 -0.046514176 1.0774644e-38 314 277
-0.0062857 0.71700001 -0.046514176 9.6682966e-39 315 277
-0.0050285598 0.71700001 -0.046514176 1.1055177e-38 316 277
-0.0037714199 0.71700001 -0.046514176 1.2438112e-38 317 277
-0.0025142799 0.71700001 -0.046514176 1.1610513e-38 318 277
-0.00125714 0.71700001 -0.046514176 1.1518317e-38 319 277
0 0.71700001 -0.046514176 1.1609797e-38 320 277
0.00125714 0.71700001 -0.046514176 1.1609797e-38 321 277
0.0025212932 0.71899998 -0.046643924 1.1333936e-38 322 277
0.0037872 0.72000003 -0.0467088 1.1610163e-38 323 277
0.0050496003 0.72000003 -0.0467088 1.1060602e-38 324 277
0.0063120001 0.72000003 -0.0467088 1.0784015e-38 325 277
0.0075743999 0.72000003 -0.0467088 1.023157e-38 326 277
0.0088367993 0.72000003 -0.0467088 1.2075482e-38 327 277
0.010127253 0.722 -0.046838548 1.1711013e-38 328 277
0.01139316 0.722 -0.046838548 1.1895404e-38 329 277
0.012659066 0.722 -0.046838548 1.2080151e-38 330 277
0.013924973 0.722 -0.046838548 1.2264182e-38 331 277
0.015190879 0.722 -0.046838548 1.1893955e-38 332 277
-0.034605537 0.73100001 -0.048704091 1.5027169e-38 293 278
-0.033323854 0.73100001 -0.048704091 1.3090333e-38 294 278
-0.031998333 0.73000002 -0.048637468 1.318253e-38 295 278
-0.030718399 0.73000002 -0.048637468 1.327401e-38 296 278
-0.029438468 0.73000002 -0.048637468 1.2443889e-38 297 278
-0.027734226 0.71899998 -0.04790457 1.188892e-38 298 278
-0.02647358 0.71899998 -0.04790457 1.1427942e-38 299 278
-0.0251428 0.71700001 -0.04777132 1.1333951e-38 300 278
-0.02388566 0.71700001 -0.04777132 1.0872973e-38 301 278
-0.02262852 0.71700001 -0.04777132 1.0964443e-38 302 278
-0.021371379 0.71700001 -0.04777132 1.1148834e-38 303 278
-0.020114239 0.71700001 -0.04777132 1.1333933e-38 304 278
-0.018857099 0.71700001 -0.04777132 1.1333933e-38 305 278
-0.017575413 0.71600002 -0.047704693 1.1517967e-38 306 278
-0.016320027 0.71600002 -0.047704693 1.1610163e-38 307 278
-0.01506464 0.71600002 -0.047704693 1.1151355e-38 308 278
-0.013809253 0.71600002 -0.047704693 1.1151355e-38 309 278
-0.012553867 0.71600002 -0.047704693 1.0966611e-38 310 278
-0.01129848 0.71600002 -0.047704693 1.0413437e-38 311 278
-0.010043093 0.71600002 -0.047704693 1.0319799e-38 312 278
-0.0087877065 0.71600002 -0.047704693 9.951017e-39 313 278
-0.00753232 0.71600002 -0.047704693 1.0407291e-38 314 278
-0.0062769335 0.71600002 -0.047704693 1.0038148e-38 315 278
-0.0050215465 0.71600002 -0.047704693 1.0871862e-38 316 278
-0.00376616 0.71600002 -0.047704693 1.2070405e-38 317 278
-0.0025142799 0.71700001 -0.04777132 1.1334299e-38 318 278
-0.00125714 0.71700001 -0.04777132 1.1334299e-38 319 278
0 0.71700001 -0.04777132 1.1058788e-38 320 278
0.00125714 0.71700001 -0.04777132 1.1058788e-38 321 278
0.0025142799 0.71700001 -0.04777132 1.0782926e-38 322 278
0.0037819401 0.71899998 -0.04790457 1.1059154e-38 323 278
0.0050496003 0.72000003 -0.0479712 1.0875141e-38 324 278
0.0063120001 0.72000003 -0.0479712 1.0414163e-38 325 278
0.0075743999 0.72000003 -0.0479712 1.0320891e-38 326 278
0.0088367993 0.72000003 -0.0479712 1.2533586e-38 327 278
0.010127253 0.722 -0.048104454 1.171101e-38 328 278
0.01139316 0.722 -0.048104454 1.1987956e-38 329 278
0.012659066 0.722 -0.048104454 1.2355659e-38 330 278
0.013924973 0.722 -0.048104454 1.2540411e-38 331 278
-0.033323854 0.73100001 -0.049985781 1.3272211e-38 294 279
-0.032042164 0.73100001 -0.049985781 1.3640634e-38 295 279
-0.030634239 0.72799999 -0.049780637 1.3459117e-38 296 279
-0.029357811 0.72799999 -0.049780637 1.2537161e-38 297 279
-0.028042812 0.727 -0.049712259 1.179852e-38 298 279
-0.02647358 0.71899998 -0.049165215 1.1521933e-38 299 279
-0.0251428 0.71700001 -0.04902846 1.1058804e-38 300 279
-0.02388566 0.71700001 -0.04902846 1.069038e-38 301 279
-0.02262852 0.71700001 -0.04902846 1.1147034e-38 302 279
-0.021371379 0.71700001 -0.04902846 1.1423979e-38 303 279
-0.020114239 0.71700001 -0.04902846 1.1425051e-38 304 279
-0.018857099 0.71700001 -0.04902846 1.1609444e-38 305 279
-0.017575413 0.71600002 -0.048960082 1.1517614e-38 306 279
-0.016320027 0.71600002 -0.048960082 1.1517614e-38 307 279
-0.01506464 0.71600002 -0.048960082 1.1151352e-38 308 279
-0.013809253 0.71600002 -0.048960082 1.1059157e-38 309 279
-0.012553867 0.71600002 -0.048960082 1.0782575e-38 310 279
-0.01129848 0.71600002 -0.048960082 1.050563e-38 311 279
-0.010043093 0.71600002 -0.048960082 1.0502393e-38 312 279
-0.0087877065 0.71600002 -0.048960082 1.0318002e-38 313 279
-0.00753232 0.71600002 -0.048960082 1.040838e-38 314 279
-0.0062769335 0.71600002 -0.048960082 1.0316184e-38 315 279
-0.0050215465 0.71600002 -0.048960082 1.0594566e-38 316 279
-0.00376616 0.71600002 -0.048960082 1.114774e-38 317 279
-0.0025142799 0.71700001 -0.04902846 1.1148471e-38 318 279
-0.00125714 0.71700001 -0.04902846 1.1424698e-38 319 279
0 0.71700001 -0.04902846 1.0966241e-38 320 279
0.00125714 0.71700001 -0.04902846 1.0966241e-38 321 279
0.0025142799 0.71700001 -0.04902846 1.0782929e-38 322 279
0.0037819401 0.71899998 -0.049165215 1.1059157e-38 323 279
0.0050496003 0.72000003 -0.0492336 1.0875847e-38 324 279
0.0063120001 0.72000003 -0.0492336 1.0322674e-38 325 279
0.0075743999 0.72000003 -0.0492336 1.050527e-38 326 279
0.0088367993 0.72000003 -0.0492336 1.2533574e-38 327 279
0.010127253 0.722 -0.04937036 1.1711366e-38 328 279
0.01139316 0.722 -0.04937036 1.1987953e-38 329 279
0.012659066 0.722 -0.04937036 1.2540408e-38 330 279
0.013924973 0.722 -0.04937036 1.2448212e-38 331 279
-0.030634239 0.72799999 -0.051057063 1.3918646e-38 296 280
-0.029357811 0.72799999 -0.051057063 1.2904855e-38 297 280
-0.027965667 0.72500002 -0.050846666 1.2075457e-38 298 280
-0.02647358 0.71899998 -0.050425861 1.1430087e-38 299 280
-0.0251428 0.71700001 -0.0502856 1.1427569e-38 300 280
-0.02388566 0.71700001 -0.0502856 1.0874396e-38 301 280
-0.02262852 0.71700001 -0.0502856 1.1055917e-38 302 280
-0.021371379 0.71700001 -0.0502856 1.1148471e-38 303 280
-0.020114239 0.71700001 -0.0502856 1.124103e-38 304 280
-0.018857099 0.71700001 -0.0502856 1.1333227e-38 305 280
-0.017575413 0.71600002 -0.050215468 1.1058438e-38 306 280
-0.016320027 0.71600002 -0.050215468 1.1150634e-38 307 280
-0.01506464 0.71600002 -0.050215468 1.0599984e-38 308 280
-0.013809253 0.71600002 -0.050215468 1.0507786e-38 309 280
-0.012553867 0.71600002 -0.050215468 1.0230488e-38 310 280
-0.01129848 0.71600002 -0.050215468 9.7698683e-39 311 280
-0.010043093 0.71600002 -0.050215468 1.0043213e-38 312 280
-0.0087877065 0.71600002 -0.050215468 9.6744301e-39 313 280
-0.00753232 0.71600002 -0.050215468 9.949568e-39 314 280
-0.0062769335 0.71600002 -0.050215468 9.7651782e-39 315 280
-0.0050215465 0.71600002 -0.050215468 9.765897e-39 316 280
-0.00376616 0.71600002 -0.050215468 1.0226875e-38 317 280
-0.0025142799 0.71700001 -0.0502856 1.0321239e-38 318 280
-0.00125714 0.71700001 -0.0502856 1.0598184e-38 319 280
0 0.71700001 -0.0502856 1.0597828e-38 320 280
0.00125714 0.71700001 -0.0502856 1.0597828e-38 321 280
0.0025212932 0.71899998 -0.050425861 1.0232639e-38 322 280
0.0037819401 0.71899998 -0.050425861 1.041739e-38 323 280
0.0050496003 0.72000003 -0.050496001 1.0508151e-38 324 280
0.0063120001 0.72000003 -0.050496001 1.0139727e-38 325 280
0.0075743999 0.72000003 -0.050496001 1.0325204e-38 326 280
0.0088367993 0.72000003 -0.050496001 1.1247519e-38 327 280
0.010127253 0.722 -0.050636265 1.1343305e-38 328 280
0.01139316 0.722 -0.050636265 1.2357458e-38 329 280
0.012659066 0.722 -0.050636265 1.3091063e-38 330 280
-0.02788852 0.72299999 -0.051974058 1.2075104e-38 298 281
-0.02647358 0.71899998 -0.05168651 1.1614126e-38 299 281
-0.0251428 0.71700001 -0.051542737 1.1428295e-38 300 281
-0.02388566 0.71700001 -0.051542737 1.069073e-38 301 281
-0.02262852 0.71700001 -0.051542737 1.1238864e-38 302 281
-0.021371379 0.71700001 -0.051542737 1.1423253e-38 303 281
-0.020114239 0.71700001 -0.051542737 1.1148466e-38 304 281
-0.018857099 0.71700001 -0.051542737 1.1425051e-38 305 281
-0.017575413 0.71600002 -0.051470853 1.1149909e-38 306 281
-0.016320027 0.71600002 -0.051470853 1.0965519e-38 307 281
-0.01506464 0.71600002 -0.051470853 1.0598181e-38 308 281
-0.013809253 0.71600002 -0.051470853 1.0505986e-38 309 281
-0.012553867 0.71600002 -0.051470853 1.0321241e-38 310 281
-0.01129848 0.71600002 -0.051470853 9.9524589e-39 311 281
-0.010043093 0.71600002 -0.051470853 9.767346e-39 312 281
-0.0087877065 0.71600002 -0.051470853 9.5829533e-39 313 281
-0.00753232 0.71600002 -0.051470853 9.765181e-39 314 281
-0.0062769335 0.71600002 -0.051470853 9.6729853e-39 315 281
-0.0050215465 0.71600002 -0.051470853 1.013144e-38 316 281
-0.0037714199 0.71700001 -0.051542737 1.0684614e-38 317 281
-0.0025142799 0.71700001 -0.051542737 1.0415222e-38 318 281
-0.00125714 0.71700001 -0.051542737 1.0415222e-38 319 281
0 0.71700001 -0.051542737 1.0598181e-38 320 281
0.0012606466 0.71899998 -0.05168651 1.0598181e-38 321 281
0.0025212932 0.71899998 -0.05168651 1.0231923e-38 322 281
0.0037872 0.72000003 -0.051758397 1.0508151e-38 323 281
0.0050496003 0.72000003 -0.051758397 1.0599628e-38 324 281
0.0063120001 0.72000003 -0.051758397 1.0323039e-38 325 281
0.0075743999 0.72000003 -0.051758397 1.0781496e-38 326 281
0.0088613462 0.722 -0.051902171 1.2441019e-38 327 281
0.010127253 0.722 -0.051902171 1.2170546e-38 328 281
0.01139316 0.722 -0.051902171 1.272372e-38 329 281
0.012659066 0.722 -0.051902171 1.2721924e-38 330 281
-0.02788852 0.72299999 -0.053241719 1.2535362e-38 298 282
-0.026510401 0.72000003 -0.053020801 1.2074385e-38 299 282
-0.025212931 0.71899998 -0.05294716 1.1796359e-38 300 282
-0.02388566 0.71700001 -0.052799881 1.0966238e-38 301 282
-0.02262852 0.71700001 -0.052799881 1.1054838e-38 302 282
-0.021371379 0.71700001 -0.052799881 1.1147034e-38 303 282
-0.020114239 0.71700001 -0.052799881 1.1055917e-38 304 282
-0.018857099 0.71700001 -0.052799881 1.1148471e-38 305 282
-0.017599959 0.71700001 -0.052799881 1.1056639e-38 306 282
-0.016342819 0.71700001 -0.052799881 1.0964443e-38 307 282
-0.015085679 0.71700001 -0.052799881 1.0780778e-38 308 282
-0.013828539 0.71700001 -0.052799881 1.0688582e-38 309 282
-0.0125714 0.71700001 -0.052799881 9.9535337e-39 310 282
-0.01131426 0.71700001 -0.052799881 9.6769482e-39 311 282
-0.01005712 0.71700001 -0.052799881 9.7687739e-39 312 282
-0.0087999795 0.71700001 -0.052799881 9.492187e-39 313 282
-0.0075428397 0.71700001 -0.052799881 9.6737014e-39 314 282
-0.0062857 0.71700001 -0.052799881 9.3052776e-39 315 282
-0.0050285598 0.71700001 -0.052799881 9.5825848e-39 316 282
-0.0037714199 0.71700001 -0.052799881 1.032015e-38 317 282
-0.0025142799 0.71700001 -0.052799881 1.0231191e-38 318 282
-0.00125714 0.71700001 -0.052799881 1.0231191e-38 319 282
0 0.71899998 -0.05294716 1.0414513e-38 320 282
0.0012606466 0.71899998 -0.05294716 1.0414513e-38 321 282
0.0025212932 0.71899998 -0.05294716 1.0231567e-38 322 282
0.0037872 0.72000003 -0.053020801 1.0415957e-38 323 282
0.0050496003 0.72000003 -0.053020801 1.0507077e-38 324 282
0.0063120001 0.72000003 -0.053020801 1.0230491e-38 325 282
0.0075954394 0.722 -0.053168077 1.0320165e-38 326 282
0.0088613462 0.722 -0.053168077 1.2441025e-38 327 282
0.010127253 0.722 -0.053168077 1.2535011e-38 328 282
0.01139316 0.722 -0.053168077 1.2258426e-38 329 282
-0.026510401 0.72000003 -0.054283202 1.2809798e-38 299 283
-0.025212931 0.71899998 -0.054207806 1.1981116e-38 300 283
-0.023952285 0.71899998 -0.054207806 1.1151355e-38 301 283
-0.022691639 0.71899998 -0.054207806 1.1239585e-38 302 283
-0.021371379 0.71700001 -0.054057021 1.114739e-38 303 283
-0.020114239 0.71700001 -0.054057021 1.1055191e-38 304 283
-0.018857099 0.71700001 -0.054057021 1.1147387e-38 305 283
-0.017599959 0.71700001 -0.054057021 1.0688576e-38 306 283
-0.016342819 0.71700001 -0.054057021 1.0596381e-38 307 283
-0.015085679 0.71700001 -0.054057021 1.0137206e-38 308 283
-0.013828539 0.71700001 -0.054057021 1.0137206e-38 309 283
-0.0125714 0.71700001 -0.054057021 9.9535309e-39 310 283
-0.01131426 0.71700001 -0.054057021 9.8613353e-39 311 283
-0.01005712 0.71700001 -0.054057021 9.7687739e-39 312 283
-0.0087999795 0.71700001 -0.054057021 9.6762195e-39 313 283
-0.0075428397 0.71700001 -0.054057021 9.7651782e-39 314 283
-0.0062857 0.71700001 -0.054057021 9.6729825e-39 315 283
-0.0050285598 0.71700001 -0.054057021 9.9513645e-39 316 283
-0.0037714199 0.71700001 -0.054057021 1.0596734e-38 317 283
-0.0025212932 0.71899998 -0.054207806 1.0413787e-38 318 283
-0.0012606466 0.71899998 -0.054207806 1.0413787e-38 319 283
0 0.71899998 -0.054207806 1.0322323e-38 320 283
0.0012606466 0.71899998 -0.054207806 1.0414519e-38 321 283
0.0025212932 0.71899998 -0.054207806 1.0232288e-38 322 283
0.0037872 0.72000003 -0.054283202 1.0232288e-38 323 283
0.0050496003 0.72000003 -0.054283202 1.059855e-38 324 283
0.0063295332 0.722 -0.054433983 1.0322323e-38 325 283
0.0075954394 0.722 -0.054433983 1.0413084e-38 326 283
0.0088613462 0.722 -0.054433983 1.1888214e-38 327 283
0.010127253 0.722 -0.054433983 1.1428312e-38 328 283
-0.025212931 0.71899998 -0.055468451 1.2532845e-38 300 284
-0.023952285 0.71899998 -0.055468451 1.1610889e-38 301 284
-0.022691639 0.71899998 -0.055468451 1.1241383e-38 302 284
-0.021430992 0.71899998 -0.055468451 1.0964796e-38 303 284
-0.020170346 0.71899998 -0.055468451 1.0596367e-38 304 284
-0.018909698 0.71899998 -0.055468451 1.0227226e-38 305 284
-0.017649053 0.71899998 -0.055468451 1.0318708e-38 306 284
-0.016342819 0.71700001 -0.055314157 1.0041761e-38 307 284
-0.015085679 0.71700001 -0.055314157 9.9510114e-39 308 284
-0.013828539 0.71700001 -0.055314157 1.0135761e-38 309 284
-0.0125714 0.71700001 -0.055314157 9.9531652e-39 310 284
-0.01131426 0.71700001 -0.055314157 9.8609695e-39 311 284
-0.01005712 0.71700001 -0.055314157 9.8609667e-39 312 284
