# .PCD v.7 - Point Cloud Data file format
FIELDS x y z rgb imX imY
SIZE 4 4 4 4 4 4
TYPE F F F F F F
COUNT 1 1 1 1 1 1
WIDTH 750
HEIGHT 1
VIEWPOINT 0 0 0 1 0 0 0
POINTS 750
DATA ascii
-0.0024932399 0.71100003 0.0186993 1.4932805e-38 318 225
-0.00124662 0.71100003 0.0186993 1.4103045e-38 319 225
0 0.713 0.018751899 1.3176747e-38 320 225
-0.0062330998 0.71100003 0.01745268 1.7150558e-38 315 226
-0.0049864799 0.71100003 0.01745268 1.8070343e-38 316 226
-0.0037503797 0.713 0.017501773 1.8162539e-38 317 226
-0.0024932399 0.71100003 0.01745268 1.8437315e-38 318 226
-0.00124662 0.71100003 0.01745268 1.8068173e-38 319 226
0 0.71100003 0.01745268 1.7050761e-38 320 226
0.00124662 0.71100003 0.01745268 1.4008307e-38 321 226
-0.0074691991 0.70999998 0.016183265 1.8532057e-38 314 227
-0.0062243328 0.70999998 0.016183265 1.7979242e-38 315 227
-0.0049864799 0.71100003 0.01620606 1.7887394e-38 316 227
-0.0037398601 0.71100003 0.01620606 1.7703363e-38 317 227
-0.0024932399 0.71100003 0.01620606 1.8162536e-38 318 227
-0.00124662 0.71100003 0.01620606 1.8070341e-38 319 227
0 0.70999998 0.016183265 1.9356396e-38 320 227
0.0012448666 0.70999998 0.016183265 1.7051507e-38 321 227
0.0024897333 0.70999998 0.016183265 1.3268595e-38 322 227
-0.0087263398 0.71100003 0.014959441 1.7519713e-38 313 228
-0.0074691991 0.70999998 0.014938398 1.7703022e-38 314 228
-0.0062243328 0.70999998 0.014938398 1.7334599e-38 315 228
-0.0049794666 0.70999998 0.014938398 1.7243825e-38 316 228
-0.0037398601 0.71100003 0.014959441 1.7243825e-38 317 228
-0.0024932399 0.71100003 0.014959441 1.7242022e-38 318 228
-0.00124662 0.71100003 0.014959441 1.6965794e-38 319 228
0 0.70999998 0.014938398 1.705656e-38 320 228
0.0012448666 0.70999998 0.014938398 1.5489594e-38 321 228
0.0024897333 0.70999998 0.014938398 1.2076198e-38 322 228
0.0037345996 0.70999998 0.014938398 9.4947206e-39 323 228
-0.0087263398 0.71100003 0.01371282 1.4665609e-38 313 229
-0.0074691991 0.70999998 0.013693533 1.5676169e-38 314 229
-0.0062243328 0.70999998 0.013693533 1.5676169e-38 315 229
-0.0049794666 0.70999998 0.013693533 1.5678674e-38 316 229
-0.0037345996 0.70999998 0.013693533 1.558612e-38 317 229
-0.0024932399 0.71100003 0.01371282 1.5399564e-38 318 229
-0.00124662 0.71100003 0.01371282 1.4754194e-38 319 229
0 0.70999998 0.013693533 1.3925513e-38 320 229
0.0012448666 0.70999998 0.013693533 1.2818805e-38 321 229
0.0024897333 0.70999998 0.013693533 1.0422791e-38 322 229
0.0037345996 0.70999998 0.013693533 8.1179014e-39 323 229
-0.0087140659 0.70999998 0.012448666 1.3280872e-38 313 230
-0.0074691991 0.70999998 0.012448666 1.3189052e-38 314 230
-0.0062243328 0.70999998 0.012448666 1.3096856e-38 315 230
-0.0049794666 0.70999998 0.012448666 1.2638752e-38 316 230
-0.0037345996 0.70999998 0.012448666 1.2638752e-38 317 230
-0.0024897333 0.70999998 0.012448666 1.2820618e-38 318 230
-0.0012448666 0.70999998 0.012448666 1.2636587e-38 319 230
0 0.70999998 0.012448666 1.2359995e-38 320 230
0.00124136 0.708 0.0124136 1.162243e-38 321 230
0.00248272 0.708 0.0124136 9.9636118e-39 322 230
0.0037345996 0.70999998 0.012448666 7.935308e-39 323 230
-0.0087140659 0.70999998 0.011203799 1.2910648e-38 313 231
-0.0074691991 0.70999998 0.011203799 1.1992304e-38 314 231
-0.0062243328 0.70999998 0.011203799 1.1716076e-38 315 231
-0.0049794666 0.70999998 0.011203799 1.1165423e-38 316 231
-0.0037345996 0.70999998 0.011203799 1.1072868e-38 317 231
-0.0024897333 0.70999998 0.011203799 1.1255821e-38 318 231
-0.0012448666 0.70999998 0.011203799 1.1163266e-38 319 231
0 0.70999998 0.011203799 1.1530957e-38 320 231
0.00124136 0.708 0.01117224 1.1162173e-38 321 231
0.00248272 0.708 0.01117224 1.0147283e-38 322 231
0.00372408 0.708 0.01117224 8.2111746e-39 323 231
-0.0099589331 0.70999998 0.0099589331 1.327871e-38 312 232
-0.0087140659 0.70999998 0.0099589331 1.3002124e-38 313 232
-0.0074691991 0.70999998 0.0099589331 1.2268172e-38 314 232
-0.0062243328 0.70999998 0.0099589331 1.2083781e-38 315 232
-0.0049794666 0.70999998 0.0099589331 1.171644e-38 316 232
-0.0037345996 0.70999998 0.0099589331 1.171644e-38 317 232
-0.0024897333 0.70999998 0.0099589331 1.1623524e-38 318 232
-0.0012448666 0.70999998 0.0099589331 1.1531329e-38 319 232
0 0.70999998 0.0099589331 1.1806468e-38 320 232
0.00124136 0.708 0.0099308798 1.1253653e-38 321 232
0.00248272 0.708 0.0099308798 1.0607183e-38 322 232
0.00372408 0.708 0.0099308798 8.4866825e-39 323 232
-0.0099589331 0.70999998 0.0087140659 1.3371626e-38 312 233
-0.0087140659 0.70999998 0.0087140659 1.3002843e-38 313 233
-0.0074797203 0.71100003 0.0087263398 1.2268175e-38 314 233
-0.0062243328 0.70999998 0.0087140659 1.2175979e-38 315 233
-0.0049794666 0.70999998 0.0087140659 1.1808636e-38 316 233
-0.0037345996 0.70999998 0.0087140659 1.171644e-38 317 233
-0.0024897333 0.70999998 0.0087140659 1.1716076e-38 318 233
-0.0012448666 0.70999998 0.0087140659 1.1623521e-38 319 233
0 0.70999998 0.0087140659 1.1623156e-38 320 233
0.00124136 0.708 0.008689519 1.153096e-38 321 233
0.00248272 0.708 0.008689519 1.1159637e-38 322 233
0.00372408 0.708 0.008689519 8.9469418e-39 323 233
-0.011156459 0.70700002 0.0074376399 1.3181807e-38 311 234
-0.0099308798 0.708 0.0074481601 1.3556017e-38 312 234
-0.0087140659 0.70999998 0.0074691991 1.3095039e-38 313 234
-0.0074691991 0.70999998 0.0074691991 1.2176695e-38 314 234
-0.0062243328 0.70999998 0.0074691991 1.2084499e-38 315 234
-0.0049794666 0.70999998 0.0074691991 1.190119e-38 316 234
-0.0037345996 0.70999998 0.0074691991 1.171644e-38 317 234
-0.0024897333 0.70999998 0.0074691991 1.1533128e-38 318 234
-0.0012448666 0.70999998 0.0074691991 1.1348735e-38 319 234
0 0.70999998 0.0074691991 1.1348011e-38 320 234
0.0012448666 0.70999998 0.0074691991 1.1255815e-38 321 234
0.0024897333 0.70999998 0.0074691991 1.1528063e-38 322 234
0.0037345996 0.70999998 0.0074691991 9.3157271e-39 323 234
0.0049794666 0.70999998 0.0074691991 8.8496917e-39 324 234
-0.012396066 0.70700002 0.0061980332 9.495424e-39 310 235
-0.011156459 0.70700002 0.0061980332 1.2999218e-38 311 235
-0.0099308798 0.708 0.0062067998 1.3648569e-38 312 235
-0.0087140659 0.70999998 0.0062243328 1.3003199e-38 313 235
-0.0074691991 0.70999998 0.0062243328 1.2544036e-38 314 235
-0.0062243328 0.70999998 0.0062243328 1.245184e-38 315 235
-0.0049794666 0.70999998 0.0062243328 1.190119e-38 316 235
-0.0037345996 0.70999998 0.0062243328 1.1808636e-38 317 235
-0.0024897333 0.70999998 0.0062243328 1.1716796e-38 318 235
-0.0012448666 0.70999998 0.0062243328 1.162424e-38 319 235
0 0.70999998 0.0062243328 1.1531679e-38 320 235
0.0012448666 0.70999998 0.0062243328 1.1623874e-38 321 235
0.0024897333 0.70999998 0.0062243328 1.1804653e-38 322 235
0.0037345996 0.70999998 0.0062243328 9.5919581e-39 323 235
0.0049794666 0.70999998 0.0062243328 8.757859e-39 324 235
-0.012396066 0.70700002 0.0049584266 9.4046801e-39 310 236
-0.011156459 0.70700002 0.0049584266 1.2908114e-38 311 236
-0.0099308798 0.708 0.0049654399 1.3464903e-38 312 236
-0.0087140659 0.70999998 0.0049794666 1.3003565e-38 313 236
-0.0074691991 0.70999998 0.0049794666 1.2269247e-38 314 236
-0.0062243328 0.70999998 0.0049794666 1.2177051e-38 315 236
-0.0049794666 0.70999998 0.0049794666 1.1809355e-38 316 236
-0.0037345996 0.70999998 0.0049794666 1.1625323e-38 317 236
-0.0024897333 0.70999998 0.0049794666 1.1533128e-38 318 236
-0.0012448666 0.70999998 0.0049794666 1.1440931e-38 319 236
0 0.70999998 0.0049794666 1.1623877e-38 320 236
0.0012448666 0.70999998 0.0049794666 1.180827e-38 321 236
0.0024897333 0.70999998 0.0049794666 1.1805375e-38 322 236
0.0037345996 0.70999998 0.0049794666 9.5930399e-39 323 236
0.0049794666 0.70999998 0.0049794666 8.5749096e-39 324 236
0.0062330998 0.71100003 0.0049864799 8.482714e-39 325 236
-0.0124136 0.708 0.00372408 8.8540259e-39 310 237
-0.01117224 0.708 0.00372408 1.1896123e-38 311 237
-0.0099589331 0.70999998 0.0037345996 1.2912099e-38 312 237
-0.0087140659 0.70999998 0.0037345996 1.2912099e-38 313 237
-0.0074797203 0.71100003 0.0037398601 1.2268891e-38 314 237
-0.0062243328 0.70999998 0.0037345996 1.2176695e-38 315 237
-0.0049794666 0.70999998 0.0037345996 1.2176695e-38 316 237
-0.0037345996 0.70999998 0.0037345996 1.2084499e-38 317 237
-0.0024897333 0.70999998 0.0037345996 1.1992301e-38 318 237
-0.0012448666 0.70999998 0.0037345996 1.180827e-38 319 237
0 0.70999998 0.0037345996 1.2174527e-38 320 237
0.0012448666 0.70999998 0.0037345996 1.189794e-38 321 237
0.0024897333 0.70999998 0.0037345996 1.0423518e-38 322 237
0.0037398601 0.71100003 0.0037398601 8.6717996e-39 323 237
0.0049864799 0.71100003 0.0037398601 8.2064873e-39 324 237
0.0062330998 0.71100003 0.0037398601 8.2986829e-39 325 237
-0.012448666 0.70999998 0.0024897333 8.7600268e-39 310 238
-0.011203799 0.70999998 0.0024897333 1.0696135e-38 311 238
-0.0099589331 0.70999998 0.0024897333 1.079484e-38 312 238
-0.0087140659 0.70999998 0.0024897333 1.1716796e-38 313 238
-0.0074797203 0.71100003 0.0024932399 1.245184e-38 314 238
-0.0062243328 0.70999998 0.0024897333 1.2359644e-38 315 238
-0.0049794666 0.70999998 0.0024897333 1.190119e-38 316 238
-0.0037345996 0.70999998 0.0024897333 1.1808636e-38 317 238
-0.0024897333 0.70999998 0.0024897333 1.2175979e-38 318 238
-0.0012448666 0.70999998 0.0024897333 1.2083783e-38 319 238
0 0.70999998 0.0024897333 1.1714623e-38 320 238
0.0012448666 0.70999998 0.0024897333 1.0608634e-38 321 238
0.0024897333 0.70999998 0.0024897333 7.5711932e-39 322 238
0.0037398601 0.71100003 0.0024932399 6.1879e-39 323 238
0.0049864799 0.71100003 0.0024932399 7.9302437e-39 324 238
0.0062330998 0.71100003 0.0024932399 8.4834175e-39 325 238
-0.012448666 0.70999998 0.0012448666 8.6663892e-39 310 239
-0.011203799 0.70999998 0.0012448666 8.3898023e-39 311 239
-0.0099589331 0.70999998 0.0012448666 5.1827724e-39 312 239
-0.0087263398 0.71100003 0.00124662 7.211435e-39 313 239
-0.0074797203 0.71100003 0.00124662 1.0333507e-38 314 239
-0.0062330998 0.71100003 0.00124662 1.0610095e-38 315 239
-0.0049864799 0.71100003 0.00124662 1.0610448e-38 316 239
-0.0037398601 0.71100003 0.00124662 1.0426057e-38 317 239
-0.0024932399 0.71100003 0.00124662 1.0423533e-38 318 239
-0.0012448666 0.70999998 0.0012448666 9.4097402e-39 319 239
0 0.70999998 0.0012448666 5.820928e-39 320 239
0.0012448666 0.70999998 0.0012448666 4.0688523e-39 321 239
0.0024897333 0.70999998 0.0012448666 2.3253973e-39 322 239
0.0037398601 0.71100003 0.00124662 2.5097886e-39 323 239
0.0049864799 0.71100003 0.00124662 6.547689e-39 324 239
-0.0124662 0.71100003 -0 1.3534735e-38 310 240
-0.01121958 0.71100003 -0 1.2151442e-38 311 240
-0.0099729598 0.71100003 -0 4.6263224e-39 312 240
-0.0087263398 0.71100003 -0 7.3921927e-39 313 240
-0.0074797203 0.71100003 -0 9.3197124e-39 314 240
-0.0062330998 0.71100003 -0 9.7803318e-39 315 240
-0.0049864799 0.71100003 -0 1.0056196e-38 316 240
-0.0037398601 0.71100003 -0 1.0056196e-38 317 240
-0.0024932399 0.71100003 -0 8.858709e-39 318 240
-0.00124662 0.71100003 -0 7.0147964e-39 319 240
0 0.71100003 -0 1.4974163e-39 320 240
0.00124662 0.71100003 -0 8.5204692e-40 321 240
0.0024932399 0.71100003 -0 1.2208491e-39 322 240
0.0037398601 0.71100003 -0 3.8023267e-39 323 240
0.0050005065 0.713 -0 1.087551e-38 324 240
-0.012501267 0.713 -0.0012501266 1.6848375e-38 310 241
-0.011251139 0.713 -0.0012501266 1.4267256e-38 311 241
-0.010001013 0.713 -0.0012501266 6.3712025e-39 312 241
-0.0087508867 0.713 -0.0012501266 8.768649e-39 313 241
-0.0075007593 0.713 -0.0012501266 9.2275112e-39 314 241
-0.0062506334 0.713 -0.0012501266 9.5044568e-39 315 241
-0.0050005065 0.713 -0.0012501266 1.005511e-38 316 241
-0.0037503797 0.713 -0.0012501266 9.962914e-39 317 241
-0.0025002533 0.713 -0.0012501266 8.2151403e-39 318 241
-0.0012501266 0.713 -0.0012501266 6.9244015e-39 319 241
0 0.713 -0.0012501266 2.9696751e-39 320 241
0.0012501266 0.713 -0.0012501266 2.9696751e-39 321 241
0.0025002533 0.713 -0.0012501266 2.783486e-39 322 241
0.0037503797 0.713 -0.0012501266 9.6059626e-39 323 241
-0.013828539 0.71700001 -0.0025142799 1.8596486e-38 309 242
-0.01129848 0.71600002 -0.0025107733 1.4176858e-38 311 242
-0.01001504 0.71399999 -0.0025037599 5.8205468e-39 312 242
-0.0087631596 0.71399999 -0.0025037599 8.2179933e-39 313 242
-0.0075112795 0.71399999 -0.0025037599 8.5846585e-39 314 242
-0.0062593995 0.71399999 -0.0025037599 9.0456366e-39 315 242
-0.0050075199 0.71399999 -0.0025037599 9.8710841e-39 316 242
-0.0037503797 0.713 -0.0025002533 9.9632797e-39 317 242
-0.0025002533 0.713 -0.0025002533 8.7661603e-39 318 242
-0.00125188 0.71399999 -0.0025037599 7.1991933e-39 319 242
0 0.713 -0.0025002533 3.2459061e-39 320 242
0.0012501266 0.713 -0.0025002533 2.784928e-39 321 242
0.0025002533 0.713 -0.0025002533 1.6814573e-39 322 242
0.0037503797 0.713 -0.0025002533 8.7805208e-39 323 242
-0.01512776 0.71899998 -0.0037819401 1.777069e-38 308 243
-0.013828539 0.71700001 -0.0037714199 1.7955082e-38 309 243
-0.0125714 0.71700001 -0.0037714199 1.7220756e-38 310 243
-0.01129848 0.71600002 -0.00376616 1.399391e-38 311 243
-0.010043093 0.71600002 -0.00376616 5.269894e-39 312 243
-0.0087877065 0.71600002 -0.00376616 7.6673405e-39 313 243
-0.00753232 0.71600002 -0.00376616 8.8601706e-39 314 243
-0.0062769335 0.71600002 -0.00376616 9.1371162e-39 315 243
-0.0050075199 0.71399999 -0.0037556398 9.8710841e-39 316 243
-0.0037556398 0.71399999 -0.0037556398 9.9632797e-39 317 243
-0.0025037599 0.71399999 -0.0037556398 8.9498327e-39 318 243
-0.00125188 0.71399999 -0.0037556398 7.4747026e-39 319 243
0 0.713 -0.0037503797 3.0625966e-39 320 243
0.0012501266 0.713 -0.0037503797 2.5094229e-39 321 243
0.0025002533 0.713 -0.0037503797 1.2219182e-39 322 243
0.0037503797 0.713 -0.0037503797 8.0447536e-39 323 243
-0.013867113 0.71899998 -0.0050425865 1.8521228e-38 309 244
-0.0125714 0.71700001 -0.0050285598 1.8059168e-38 310 244
-0.01131426 0.71700001 -0.0050285598 1.2896213e-38 311 244
-0.01005712 0.71700001 -0.0050285598 4.8107151e-39 312 244
-0.0087999795 0.71700001 -0.0050285598 7.4847471e-39 313 244
-0.00753232 0.71600002 -0.0050215465 9.0441961e-39 314 244
-0.0062769335 0.71600002 -0.0050215465 9.5051728e-39 315 244
-0.0050215465 0.71600002 -0.0050215465 1.0239145e-38 316 244
-0.00376616 0.71600002 -0.0050215465 1.0239145e-38 317 244
-0.0025107733 0.71600002 -0.0050215465 8.582848e-39 318 244
-0.00125188 0.71399999 -0.0050075199 7.1999135e-39 319 244
0 0.71399999 -0.0050075199 2.9700451e-39 320 244
0.00125188 0.71399999 -0.0050075199 2.5090669e-39 321 244
0.0025107733 0.71600002 -0.0050215465 1.4977849e-39 322 244
0.00376616 0.71600002 -0.0050215465 8.2280659e-39 323 244
-0.0151488 0.72000003 -0.0063120001 1.963335e-38 308 245
-0.013867113 0.71899998 -0.0063032326 1.9725546e-38 309 245
-0.012606465 0.71899998 -0.0063032326 1.8528078e-38 310 245
-0.01134582 0.71899998 -0.0063032326 1.1982188e-38 311 245
-0.01005712 0.71700001 -0.0062857 4.6263392e-39 312 245
-0.0087999795 0.71700001 -0.0062857 7.3922081e-39 313 245
-0.0075428397 0.71700001 -0.0062857 9.3197068e-39 314 245
-0.0062769335 0.71600002 -0.0062769335 1.0057631e-38 315 245
-0.0050215465 0.71600002 -0.0062769335 1.1892906e-38 316 245
-0.00376616 0.71600002 -0.0062769335 1.1616319e-38 317 245
-0.0025107733 0.71600002 -0.0062769335 9.4082955e-39 318 245
-0.0012553866 0.71600002 -0.0062769335 8.0250023e-39 319 245
0 0.71600002 -0.0062769335 3.245553e-39 320 245
0.0012553866 0.71600002 -0.0062769335 2.9693262e-39 321 245
0.0025107733 0.71600002 -0.0062769335 2.0495181e-39 322 245
0.00376616 0.71600002 -0.0062769335 8.6876035e-39 323 245
-0.0151488 0.72000003 -0.0075743999 1.8529524e-38 308 246
-0.0138864 0.72000003 -0.0075743999 1.8621719e-38 309 246
-0.012606465 0.71899998 -0.0075638802 1.7609363e-38 310 246
-0.01134582 0.71899998 -0.0075638802 1.0879082e-38 311 246
-0.010085173 0.71899998 -0.0075638802 4.2571938e-39 312 246
-0.0088245263 0.71899998 -0.0075638802 7.2074525e-39 313 246
-0.0075428397 0.71700001 -0.0075428397 9.861006e-39 314 246
-0.0062857 0.71700001 -0.0075428397 9.5844177e-39 315 246
-0.0050285598 0.71700001 -0.0075428397 1.0777206e-38 316 246
-0.0037714199 0.71700001 -0.0075428397 1.0777206e-38 317 246
-0.0025142799 0.71700001 -0.0075428397 9.3099762e-39 318 246
-0.00125714 0.71700001 -0.0075428397 8.6646068e-39 319 246
0 0.71600002 -0.00753232 3.9809558e-39 320 246
0.0012553866 0.71600002 -0.00753232 3.2433908e-39 321 246
0.0025107733 0.71600002 -0.00753232 2.6930883e-39 322 246
0.00376616 0.71600002 -0.00753232 8.8701969e-39 323 246
-0.0151488 0.72000003 -0.0088367993 1.7977069e-38 308 247
-0.0138864 0.72000003 -0.0088367993 1.816182e-38 309 247
-0.012624 0.72000003 -0.0088367993 1.7609718e-38 310 247
-0.01134582 0.71899998 -0.0088245263 1.1156024e-38 311 247
-0.010085173 0.71899998 -0.0088245263 4.1653513e-39 312 247
-0.0088245263 0.71899998 -0.0088245263 6.1936551e-39 313 247
-0.0075428397 0.71700001 -0.0087999795 9.4842977e-39 314 247
-0.0062857 0.71700001 -0.0087999795 9.299905e-39 315 247
-0.0050285598 0.71700001 -0.0087999795 9.7572903e-39 316 247
-0.0037714199 0.71700001 -0.0087999795 1.0033518e-38 317 247
-0.0025142799 0.71700001 -0.0087999795 9.0323005e-39 318 247
-0.00125714 0.71700001 -0.0087999795 8.6635193e-39 319 247
0 0.71700001 -0.0087999795 4.8085501e-39 320 247
0.00125714 0.71700001 -0.0087999795 4.1631807e-39 321 247
0.0025142799 0.71700001 -0.0087999795 1.7743704e-39 322 247
0.0037714199 0.71700001 -0.0087999795 8.1358674e-39 323 247
-0.0164112 0.72000003 -0.010099201 1.7977074e-38 307 248
-0.0151488 0.72000003 -0.010099201 1.7793759e-38 308 248
-0.0138864 0.72000003 -0.010099201 1.8162183e-38 309 248
-0.012624 0.72000003 -0.010099201 1.7702277e-38 310 248
-0.01134582 0.71899998 -0.010085173 1.152553e-38 311 248
-0.010085173 0.71899998 -0.010085173 4.7185209e-39 312 248
-0.0088245263 0.71899998 -0.010085173 6.0092597e-39 313 248
-0.0075428397 0.71700001 -0.01005712 1.0497727e-38 314 248
-0.0062857 0.71700001 -0.01005712 1.0405531e-38 315 248
-0.0050285598 0.71700001 -0.01005712 1.068032e-38 316 248
-0.0037714199 0.71700001 -0.01005712 1.1141298e-38 317 248
-0.0025142799 0.71700001 -0.01005712 9.8645793e-39 318 248
-0.00125714 0.71700001 -0.01005712 8.7585904e-39 319 248
0 0.71700001 -0.01005712 4.1660673e-39 320 248
0.00125714 0.71700001 -0.01005712 3.4285023e-39 321 248
0.0025142799 0.71700001 -0.01005712 1.1315205e-39 322 248
0.0037714199 0.71700001 -0.01005712 7.4930189e-39 323 248
-0.0151488 0.72000003 -0.011361601 1.7701564e-38 308 249
-0.0138864 0.72000003 -0.011361601 1.7885955e-38 309 249
-0.012624 0.72000003 -0.011361601 1.7518968e-38 310 249
-0.01134582 0.71899998 -0.01134582 1.2079067e-38 311 249
-0.010085173 0.71899998 -0.01134582 7.1998911e-39 312 249
-0.0088245263 0.71899998 -0.01134582 8.1218474e-39 313 249
-0.0075638802 0.71899998 -0.01134582 1.0864707e-38 314 249
-0.0062857 0.71700001 -0.01131426 1.0311533e-38 315 249
-0.0050285598 0.71700001 -0.01131426 1.0683913e-38 316 249
-0.0037714199 0.71700001 -0.01131426 1.1237085e-38 317 249
-0.0025142799 0.71700001 -0.01131426 8.5810333e-39 318 249
-0.00125714 0.71700001 -0.01131426 7.7509139e-39 319 249
0 0.71700001 -0.01131426 3.9834739e-39 320 249
0.0012606466 0.71899998 -0.01134582 3.2459089e-39 321 249
0.0025212932 0.71899998 -0.01134582 8.5673146e-40 322 249
0.0037872 0.72000003 -0.011361601 7.1260357e-39 323 249
0.0050496003 0.72000003 -0.011361601 1.7793759e-38 324 249
-0.0138864 0.72000003 -0.012624 1.8069988e-38 309 250
-0.012624 0.72000003 -0.012624 1.7518617e-38 310 250
-0.01134582 0.71899998 -0.012606465 1.2540055e-38 311 250
-0.010085173 0.71899998 -0.012606465 8.6725255e-39 312 250
-0.0088245263 0.71899998 -0.012606465 8.7647211e-39 313 250
-0.0075638802 0.71899998 -0.012606465 1.058884e-38 314 250
-0.0062857 0.71700001 -0.0125714 9.4828516e-39 315 250
-0.0050285598 0.71700001 -0.0125714 1.0776825e-38 316 250
-0.0037714199 0.71700001 -0.0125714 1.1145967e-38 317 250
-0.0025142799 0.71700001 -0.0125714 7.2949762e-39 318 250
-0.00125714 0.71700001 -0.0125714 6.7418039e-39 319 250
0 0.71700001 -0.0125714 4.0756668e-39 320 250
0.0012606466 0.71899998 -0.012606465 2.9696793e-39 321 250
0.0025212932 0.71899998 -0.012606465 3.9790851e-40 322 250
0.0037872 0.72000003 -0.012624 6.8512439e-39 323 250
0.0050496003 0.72000003 -0.012624 1.7517896e-38 324 250
-0.0138864 0.72000003 -0.0138864 1.7885955e-38 309 251
-0.012624 0.72000003 -0.0138864 1.7517542e-38 310 251
-0.011361601 0.72000003 -0.0138864 1.272337e-38 311 251
-0.010099201 0.72000003 -0.0138864 8.5810487e-39 312 251
-0.0088367993 0.72000003 -0.0138864 8.3044632e-39 313 251
-0.0075638802 0.71899998 -0.013867113 1.0589194e-38 314 251
-0.0063032326 0.71899998 -0.013867113 9.2984547e-39 315 251
-0.0050285598 0.71700001 -0.013828539 1.0683907e-38 316 251
-0.0037714199 0.71700001 -0.013828539 1.1053049e-38 317 251
-0.0025142799 0.71700001 -0.013828539 6.3766143e-39 318 251
-0.0012606466 0.71899998 -0.013867113 5.8234405e-39 319 251
0 0.71899998 -0.013867113 3.8934237e-39 320 251
0.0012606466 0.71899998 -0.013867113 2.6026849e-39 321 251
0.0025248001 0.72000003 -0.0138864 2.948332e-41 322 251
0.0037872 0.72000003 -0.0138864 6.5760919e-39 323 251
0.0050636264 0.722 -0.013924973 1.74257e-38 324 251
0.0063382997 0.72299999 -0.01394426 1.7517896e-38 325 251
-0.012624 0.72000003 -0.0151488 1.7793403e-38 310 252
-0.011361601 0.72000003 -0.0151488 1.2999231e-38 311 252
-0.010099201 0.72000003 -0.0151488 7.938182e-39 312 252
-0.0088367993 0.72000003 -0.0151488 8.0303777e-39 313 252
-0.0075743999 0.72000003 -0.0151488 1.0771773e-38 314 252
-0.0063032326 0.71899998 -0.01512776 9.8498166e-39 315 252
-0.0050425865 0.71899998 -0.01512776 1.068426e-38 316 252
-0.0037819401 0.71899998 -0.01512776 1.0961206e-38 317 252
-0.0025212932 0.71899998 -0.01512776 5.7341175e-39 318 252
-0.0012606466 0.71899998 -0.01512776 5.6419219e-39 319 252
0 0.71899998 -0.01512776 3.8919818e-39 320 252
0.0012606466 0.71899998 -0.01512776 2.8778298e-39 321 252
0.0025248001 0.72000003 -0.0151488 3.0558116e-41 322 252
0.0037977197 0.722 -0.015190879 6.4846123e-39 323 252
0.0050636264 0.722 -0.015190879 1.7517893e-38 324 252
0.0063382997 0.72299999 -0.015211919 1.7425697e-38 325 252
0.0076059597 0.72299999 -0.015211919 1.7149109e-38 326 252
-0.012676599 0.72299999 -0.01647958 1.7885958e-38 310 253
-0.01140894 0.72299999 -0.01647958 1.3183622e-38 311 253
-0.010127253 0.722 -0.016456785 7.5722736e-39 312 253
-0.0088367993 0.72000003 -0.0164112 7.7563047e-39 313 253
-0.0075743999 0.72000003 -0.0164112 1.1322427e-38 314 253
-0.0063120001 0.72000003 -0.0164112 1.0400469e-38 315 253
-0.0050425865 0.71899998 -0.016388407 1.0869729e-38 316 253
-0.0037819401 0.71899998 -0.016388407 1.1238513e-38 317 253
-0.0025212932 0.71899998 -0.016388407 5.919229e-39 318 253
-0.0012606466 0.71899998 -0.016388407 5.5508053e-39 319 253
0 0.72000003 -0.0164112 2.4208146e-39 320 253
0.0012624001 0.72000003 -0.0164112 2.1442277e-39 321 253
0.0025318132 0.722 -0.016456785 3.0560918e-41 322 253
0.0037977197 0.722 -0.016456785 6.3009442e-39 323 253
0.0050636264 0.722 -0.016456785 1.7517893e-38 324 253
0.0063382997 0.72299999 -0.01647958 1.7517893e-38 325 253
0.0076059597 0.72299999 -0.01647958 1.7241309e-38 326 253
-0.012676599 0.72299999 -0.017747238 1.7885958e-38 310 254
-0.01140894 0.72299999 -0.017747238 1.3460209e-38 311 254
-0.010127253 0.722 -0.017722692 8.9508892e-39 312 254
-0.0088613462 0.722 -0.017722692 8.6743009e-39 313 254
-0.0075954394 0.722 -0.017722692 1.0956534e-38 314 254
-0.0063120001 0.72000003 -0.017673599 1.0772143e-38 315 254
-0.0050496003 0.72000003 -0.017673599 1.0502045e-38 316 254
-0.0037872 0.72000003 -0.017673599 1.0870469e-38 317 254
-0.0025248001 0.72000003 -0.017673599 5.919229e-39 318 254
-0.0012624001 0.72000003 -0.017673599 5.8270334e-39 319 254
0 0.72000003 -0.017673599 3.891979e-39 320 254
0.0012659066 0.722 -0.017722692 3.1544139e-39 321 254
0.0025318132 0.722 -0.017722692 3.1990243e-41 322 254
0.0037977197 0.722 -0.017722692 6.2090974e-39 323 254
0.0050706398 0.72299999 -0.017747238 1.733422e-38 324 254
0.0063382997 0.72299999 -0.017747238 1.733422e-38 325 254
-0.012676599 0.72299999 -0.019014901 1.7885958e-38 310 255
-0.01140894 0.72299999 -0.019014901 1.3552404e-38 311 255
-0.010127253 0.722 -0.0189886 9.5923056e-39 312 255
-0.0088613462 0.722 -0.0189886 9.6848599e-39 313 255
-0.0076059597 0.72299999 -0.019014901 1.0963371e-38 314 255
-0.0063120001 0.72000003 -0.018935999 1.0410197e-38 315 255
-0.0050496003 0.72000003 -0.018935999 1.0502764e-38 316 255
-0.0037872 0.72000003 -0.018935999 1.0687157e-38 317 255
-0.0025248001 0.72000003 -0.018935999 6.0117904e-39 318 255
-0.0012624001 0.72000003 -0.018935999 5.8277593e-39 319 255
0 0.72000003 -0.018935999 2.9725464e-39 320 255
0.0012659066 0.722 -0.0189886 2.6034038e-39 321 255
0.0025318132 0.722 -0.0189886 3.1639918e-41 322 255
0.0037977197 0.722 -0.0189886 6.0254363e-39 323 255
0.0050706398 0.72299999 -0.019014901 1.7242028e-38 324 255
-0.012711667 0.72500002 -0.020338668 1.7886675e-38 310 256
-0.0114405 0.72500002 -0.020338668 1.3276894e-38 311 256
-0.01014128 0.72299999 -0.020282559 8.5813963e-39 312 256
-0.0088736191 0.72299999 -0.020282559 9.3189613e-39 313 256
-0.0076059597 0.72299999 -0.020282559 1.0873342e-38 314 256
-0.0063295332 0.722 -0.020254506 9.582603e-39 315 256
-0.0050636264 0.722 -0.020254506 1.0505285e-38 316 256
-0.0037977197 0.722 -0.020254506 1.0505285e-38 317 256
-0.0025248001 0.72000003 -0.020198401 6.3791352e-39 318 256
-0.0012624001 0.72000003 -0.020198401 6.1947425e-39 319 256
0 0.722 -0.020254506 2.6970385e-39 320 256
0.0012659066 0.722 -0.020254506 2.5122885e-39 321 256
0.0025318132 0.722 -0.020254506 3.1995848e-41 322 256
0.0037977197 0.722 -0.020254506 6.2094646e-39 323 256
0.0050636264 0.722 -0.020254506 1.7334223e-38 324 256
0.0063295332 0.722 -0.020254506 1.7334223e-38 325 256
-0.0114405 0.72500002 -0.021609833 1.3183622e-38 311 257
-0.010169334 0.72500002 -0.021609833 8.122939e-39 312 257
-0.0088736191 0.72299999 -0.021550218 9.0452555e-39 313 257
-0.0076059597 0.72299999 -0.021550218 1.0507431e-38 314 257
-0.0063382997 0.72299999 -0.021550218 9.3088888e-39 315 257
-0.0050636264 0.722 -0.021520413 1.0416307e-38 316 257
-0.0037977197 0.722 -0.021520413 1.0416307e-38 317 257
-0.0025318132 0.722 -0.021520413 7.5722708e-39 318 257
-0.0012659066 0.722 -0.021520413 7.2031281e-39 319 257
0 0.722 -0.021520413 2.3296979e-39 320 257
0.0012659066 0.722 -0.021520413 1.7765242e-39 321 257
0.0025318132 0.722 -0.021520413 3.1639918e-41 322 257
0.0037977197 0.722 -0.021520413 5.9332392e-39 323 257
0.0050636264 0.722 -0.021520413 1.7333857e-38 324 257
0.0063295332 0.722 -0.021520413 1.7333857e-38 325 257
-0.01147206 0.727 -0.022944121 1.3183622e-38 311 258
-0.010169334 0.72500002 -0.022880999 7.9392737e-39 312 258
-0.0088981669 0.72500002 -0.022880999 9.2300125e-39 313 258
-0.0076059597 0.72299999 -0.02281788 1.0602869e-38 314 258
-0.0063382997 0.72299999 -0.02281788 1.0234088e-38 315 258
-0.0050706398 0.72299999 -0.02281788 1.0878731e-38 316 258
-0.0037977197 0.722 -0.022786319 1.1063122e-38 317 258
-0.0025318132 0.722 -0.022786319 9.410794e-39 318 258
-0.0012659066 0.722 -0.022786319 8.3040863e-39 319 258
0 0.722 -0.022786319 2.2378652e-39 320 258
0.0012676599 0.72299999 -0.02281788 1.4084647e-39 321 258
0.0025353199 0.72299999 -0.02281788 3.0922453e-41 322 258
0.0038029798 0.72299999 -0.02281788 5.8406877e-39 323 258
0.0050706398 0.72299999 -0.02281788 1.7057991e-38 324 258
0.0063382997 0.72299999 -0.02281788 1.7334576e-38 325 258
-0.01147206 0.727 -0.024218792 1.3552402e-38 311 259
-0.010197386 0.727 -0.024218792 7.9392737e-39 312 259
-0.0088981669 0.72500002 -0.024152167 9.1378168e-39 313 259
-0.0076059597 0.72299999 -0.024085538 1.1522678e-38 314 259
-0.0063382997 0.72299999 -0.024085538 1.0969505e-38 315 259
-0.0050706398 0.72299999 -0.024085538 1.1340085e-38 316 259
-0.0038029798 0.72299999 -0.024085538 1.1985454e-38 317 259
-0.0025353199 0.72299999 -0.024085538 9.9639832e-39 318 259
-0.0012659066 0.722 -0.024052227 8.4888531e-39 319 259
0 0.722 -0.024052227 1.962007e-39 320 259
0.0012676599 0.72299999 -0.024085538 1.224442e-39 321 259
0.0025353199 0.72299999 -0.024085538 3.1286791e-41 322 259
0.0038029798 0.72299999 -0.024085538 5.8406905e-39 323 259
0.0050846669 0.72500002 -0.024152167 1.705691e-38 324 259
0.0063558333 0.72500002 -0.024152167 1.7333857e-38 325 259
-0.01147206 0.727 -0.025493465 1.3828991e-38 311 260
-0.010197386 0.727 -0.025493465 7.9403456e-39 312 260
-0.0088981669 0.72500002 -0.025423333 7.7559544e-39 313 260
-0.0076270006 0.72500002 -0.025423333 1.0966986e-38 314 260
-0.0063382997 0.72299999 -0.025353199 1.0690041e-38 315 260
-0.0050706398 0.72299999 -0.025353199 1.1246816e-38 316 260
-0.0038029798 0.72299999 -0.025353199 1.2168413e-38 317 260
-0.0025353199 0.72299999 -0.025353199 9.4133275e-39 318 260
-0.0012676599 0.72299999 -0.025353199 8.0303931e-39 319 260
0 0.72299999 -0.025353199 1.5031813e-39 320 260
0.0012676599 0.72299999 -0.025353199 1.1340386e-39 321 260
0.0025353199 0.72299999 -0.025353199 6.7413526e-40 322 260
0.0038135003 0.72500002 -0.025423333 6.2984288e-39 323 260
0.0050846669 0.72500002 -0.025423333 1.7241309e-38 324 260
0.0063558333 0.72500002 -0.025423333 1.7517896e-38 325 260
0.0076270006 0.72500002 -0.025423333 1.7148753e-38 326 260
-0.01147206 0.727 -0.026768139 1.3736077e-38 311 261
-0.010197386 0.727 -0.026768139 7.7570306e-39 312 261
-0.0088981669 0.72500002 -0.026694499 7.8492262e-39 313 261
-0.0076270006 0.72500002 -0.026694499 1.0599633e-38 314 261
-0.0063558333 0.72500002 -0.026694499 1.0138295e-38 315 261
-0.0050706398 0.72299999 -0.026620859 1.1704549e-38 316 261
-0.0038029798 0.72299999 -0.026620859 1.2995287e-38 317 261
-0.0025353199 0.72299999 -0.026620859 9.6902718e-39 318 261
-0.0012676599 0.72299999 -0.026620859 8.1229446e-39 319 261
0 0.72299999 -0.026620859 2.0541999e-39 320 261
0.0012676599 0.72299999 -0.026620859 1.4088304e-39 321 261
0.0025423334 0.72500002 -0.026694499 3.2005657e-41 322 261
0.0038135003 0.72500002 -0.026694499 5.8406905e-39 323 261
0.0050846669 0.72500002 -0.026694499 1.7150555e-38 324 261
0.0063558333 0.72500002 -0.026694499 1.7335305e-38 325 261
-0.01147206 0.727 -0.028042812 1.3736799e-38 311 262
-0.010197386 0.727 -0.028042812 8.2154906e-39 312 262
-0.0089227129 0.727 -0.028042812 8.5839144e-39 313 262
-0.0076270006 0.72500002 -0.027965667 1.1241403e-38 314 262
-0.0063558333 0.72500002 -0.027965667 1.087262e-38 315 262
-0.0050706398 0.72299999 -0.02788852 1.1888936e-38 316 262
-0.0038029798 0.72299999 -0.02788852 1.2903448e-38 317 262
-0.0025353199 0.72299999 -0.02788852 9.7813842e-39 318 262
-0.0012676599 0.72299999 -0.02788852 8.3062541e-39 319 262
0 0.72299999 -0.02788852 2.4215404e-39 320 262
0.0012711667 0.72500002 -0.027965667 1.4995841e-39 321 262
0.0025493465 0.727 -0.028042812 3.1641319e-41 322 262
0.0038135003 0.72500002 -0.027965667 5.5651798e-39 323 262
0.0050846669 0.72500002 -0.027965667 1.705764e-38 324 262
0.0063558333 0.72500002 -0.027965667 1.7333867e-38 325 262
-0.01147206 0.727 -0.029317487 1.3922266e-38 311 263
-0.010197386 0.727 -0.029317487 9.5933902e-39 312 263
-0.0089227129 0.727 -0.029317487 9.4086402e-39 313 263
-0.0076270006 0.72500002 -0.029236834 1.1333961e-38 314 263
-0.0063558333 0.72500002 -0.029236834 1.1057734e-38 315 263
-0.0050846669 0.72500002 -0.029236834 1.1614871e-38 316 263
-0.0038135003 0.72500002 -0.029236834 1.2444991e-38 317 263
-0.0025423334 0.72500002 -0.029236834 9.8739399e-39 318 263
-0.0012711667 0.72500002 -0.029236834 8.3062541e-39 319 263
0 0.72500002 -0.029236834 2.2378652e-39 320 263
0.0012711667 0.72500002 -0.029236834 1.224072e-39 321 263
0.0025493465 0.727 -0.029317487 3.0923855e-41 322 263
0.0038135003 0.72500002 -0.029236834 5.9318043e-39 323 263
0.0050846669 0.72500002 -0.029236834 1.6873245e-38 324 263
0.0063558333 0.72500002 -0.029236834 1.7334223e-38 325 263
-0.010197386 0.727 -0.030592158 9.2285705e-39 312 264
-0.0089227129 0.727 -0.030592158 8.7675924e-39 313 264
-0.0076480396 0.727 -0.030592158 1.1703472e-38 314 264
-0.0063733663 0.727 -0.030592158 1.1703472e-38 315 264
-0.0050846669 0.72500002 -0.030508002 1.1341527e-38 316 264
-0.0038135003 0.72500002 -0.030508002 1.1618114e-38 317 264
-0.0025493465 0.727 -0.030592158 9.8732197e-39 318 264
-0.0012746733 0.727 -0.030592158 8.4899265e-39 319 264
0 0.727 -0.030592158 2.3293448e-39 320 264
0.0012746733 0.727 -0.030592158 1.4073871e-39 321 264
0.0025493465 0.727 -0.030592158 2.2346282e-39 322 264
0.0038240198 0.727 -0.030592158 7.8585617e-39 323 264
0.0050846669 0.72500002 -0.030508002 1.7149109e-38 324 264
0.0063558333 0.72500002 -0.030508002 1.7425697e-38 325 264
-0.010253493 0.73100001 -0.032042164 7.2063777e-39 312 265
-0.0089349858 0.72799999 -0.031910665 7.6673559e-39 313 265
-0.0076585598 0.72799999 -0.031910665 1.1060251e-38 314 265
-0.0063821329 0.72799999 -0.031910665 1.1152447e-38 315 265
-0.0051057064 0.72799999 -0.031910665 1.1249687e-38 316 265
-0.0038292799 0.72799999 -0.031910665 1.1710307e-38 317 265
-0.0025528532 0.72799999 -0.031910665 1.0240925e-38 318 265
-0.0012764266 0.72799999 -0.031910665 8.7657945e-39 319 265
0 0.72799999 -0.031910665 1.8698114e-39 320 265
0.0012764266 0.72799999 -0.031910665 1.224442e-39 321 265
0.0025528532 0.72799999 -0.031910665 5.4492504e-39 322 265
0.0038240198 0.727 -0.03186683 1.0704401e-38 323 265
0.0050986931 0.727 -0.03186683 1.7424251e-38 324 265
0.0063733663 0.727 -0.03186683 1.7792675e-38 325 265
-0.010253493 0.73100001 -0.033323854 7.1112884e-39 312 266
-0.0089595336 0.73000002 -0.033278264 8.0332447e-39 313 266
-0.0076795998 0.73000002 -0.033278264 1.0693614e-38 314 266
-0.0063821329 0.72799999 -0.033187091 1.014044e-38 315 266
-0.0051057064 0.72799999 -0.033187091 1.1521955e-38 316 266
-0.0038292799 0.72799999 -0.033187091 1.2443912e-38 317 266
-0.0025528532 0.72799999 -0.033187091 1.042424e-38 318 266
-0.0012764266 0.72799999 -0.033187091 9.0413052e-39 319 266
0 0.72799999 -0.033187091 3.0629596e-39 320 266
0.0012764266 0.72799999 -0.033187091 2.970764e-39 321 266
0.0025528532 0.72799999 -0.033187091 7.4710858e-39 322 266
0.0038292799 0.72799999 -0.033187091 1.2080867e-38 323 266
0.0051057064 0.72799999 -0.033187091 1.7239504e-38 324 266
-0.011582521 0.73400003 -0.03474756 1.3736433e-38 311 267
-0.010281546 0.73299998 -0.034700219 7.5711932e-39 312 267
-0.0089963535 0.73299998 -0.034700219 8.861932e-39 313 267
-0.00769012 0.73100001 -0.034605537 1.0967687e-38 314 267
-0.006408433 0.73100001 -0.034605537 1.0691099e-38 315 267
-0.0051197335 0.73000002 -0.034558199 1.1797816e-38 316 267
-0.0038397999 0.73000002 -0.034558199 1.2811968e-38 317 267
-0.0025598668 0.73000002 -0.034558199 1.0240925e-38 318 267
-0.0012799334 0.73000002 -0.034558199 8.8579901e-39 319 267
0 0.73000002 -0.034558199 4.5327017e-39 320 267
0.0012764266 0.72799999 -0.034463517 4.625256e-39 321 267
0.0025528532 0.72799999 -0.034463517 9.2192099e-39 322 267
0.0038292799 0.72799999 -0.034463517 1.3183622e-38 323 267
0.0051057064 0.72799999 -0.034463517 1.7239507e-38 324 267
-0.011582521 0.73400003 -0.036034506 1.3737868e-38 311 268
-0.010295574 0.73400003 -0.036034506 7.387525e-39 312 268
-0.0090086265 0.73400003 -0.036034506 8.4938726e-39 313 268
-0.0077216802 0.73400003 -0.036034506 1.0875494e-38 314 268
-0.006408433 0.73100001 -0.035887226 1.0230125e-38 315 268
-0.0051197335 0.73000002 -0.035838135 1.1704905e-38 316 268
-0.0038397999 0.73000002 -0.035838135 1.2718698e-38 317 268
-0.0025598668 0.73000002 -0.035838135 1.0148376e-38 318 268
-0.0012799334 0.73000002 -0.035838135 8.9498327e-39 319 268
0 0.73000002 -0.035838135 4.8082152e-39 320 268
0.0012799334 0.73000002 -0.035838135 5.0851622e-39 321 268
0.0025528532 0.72799999 -0.035739943 9.129182e-39 322 268
0.0038292799 0.72799999 -0.035739943 1.3093594e-38 323 268
0.0051057064 0.72799999 -0.035739943 1.7331705e-38 324 268
-0.011582521 0.73400003 -0.037321456 1.3737152e-38 311 269
-0.010295574 0.73400003 -0.037321456 7.2956825e-39 312 269
-0.0090086265 0.73400003 -0.037321456 8.0332475e-39 313 269
-0.0077216802 0.73400003 -0.037321456 1.0690377e-38 314 269
-0.0064259665 0.73299998 -0.037270606 1.0137203e-38 315 269
-0.0051267464 0.73100001 -0.037168913 1.1429034e-38 316 269
-0.00384506 0.73100001 -0.037168913 1.2627937e-38 317 269
-0.0025633732 0.73100001 -0.037168913 1.0149451e-38 318 269
-0.0012799334 0.73000002 -0.037118066 8.9509074e-39 319 269
0 0.73000002 -0.037118066 4.8082152e-39 320 269
0.0012799334 0.73000002 -0.037118066 4.9926078e-39 321 269
0.0025528532 0.72799999 -0.037016369 8.2104655e-39 322 269
0.0038292799 0.72799999 -0.037016369 1.2359629e-38 323 269
0.0051057064 0.72799999 -0.037016369 1.7423545e-38 324 269
-0.012869466 0.73400003 -0.038608398 1.8069988e-38 310 270
-0.011582521 0.73400003 -0.038608398 1.3921543e-38 311 270
-0.010295574 0.73400003 -0.038608398 7.2045631e-39 312 270
-0.0090086265 0.73400003 -0.038608398 8.4953019e-39 313 270
-0.0077216802 0.73400003 -0.038608398 1.1060955e-38 314 270
-0.0064259665 0.73299998 -0.038555797 1.0600337e-38 315 270
-0.0051267464 0.73100001 -0.038450599 1.1340435e-38 316 270
-0.00384506 0.73100001 -0.038450599 1.2078e-38 317 270
-0.0025633732 0.73100001 -0.038450599 1.0149451e-38 318 270
-0.0012816866 0.73100001 -0.038450599 8.9509074e-39 319 270
0 0.73100001 -0.038450599 3.7079815e-39 320 270
0.0012799334 0.73000002 -0.038398001 3.0626121e-39 321 270
0.0025598668 0.73000002 -0.038398001 4.4419536e-39 322 270
0.0038292799 0.72799999 -0.038292799 9.4205176e-39 323 270
0.0051057064 0.72799999 -0.038292799 1.6872529e-38 324 270
-0.012869466 0.73400003 -0.039895348 1.8254019e-38 310 271
-0.011582521 0.73400003 -0.039895348 1.4104855e-38 311 271
-0.010295574 0.73400003 -0.039895348 7.2056491e-39 312 271
-0.0090086265 0.73400003 -0.039895348 8.9577262e-39 313 271
-0.0077216802 0.73400003 -0.039895348 1.1800334e-38 314 271
-0.0064259665 0.73299998 -0.039840993 1.1708139e-38 315 271
-0.005140773 0.73299998 -0.039840993 1.1251482e-38 316 271
-0.00384506 0.73100001 -0.039732285 1.1435515e-38 317 271
-0.0025633732 0.73100001 -0.039732285 1.0240927e-38 318 271
-0.0012816866 0.73100001 -0.039732285 9.1342197e-39 319 271
0 0.73100001 -0.039732285 3.0665623e-39 320 271
0.0012799334 0.73000002 -0.039677933 1.8680191e-39 321 271
0.0025598668 0.73000002 -0.039677933 1.9587672e-39 322 271
0.0038397999 0.73000002 -0.039677933 7.1217225e-39 323 271
0.0051197335 0.73000002 -0.039677933 1.6688132e-38 324 271
-0.012869466 0.73400003 -0.041182294 1.8162183e-38 310 272
-0.011582521 0.73400003 -0.041182294 1.3829347e-38 311 272
-0.010295574 0.73400003 -0.041182294 7.2056519e-39 312 272
-0.0090086265 0.73400003 -0.041182294 9.1417601e-39 313 272
-0.0077111595 0.73299998 -0.041126184 1.0884495e-38 314 272
-0.0064259665 0.73299998 -0.041126184 1.097669e-38 315 272
-0.005140773 0.73299998 -0.041126184 1.0977058e-38 316 272
-0.0038555798 0.73299998 -0.041126184 1.1069253e-38 317 272
-0.0025633732 0.73100001 -0.041013971 1.0057975e-38 318 272
-0.0012816866 0.73100001 -0.041013971 8.7675952e-39 319 272
0 0.73100001 -0.041013971 2.6988504e-39 320 272
0.0012799334 0.73000002 -0.040957868 1.9612854e-39 321 272
0.0025598668 0.73000002 -0.040957868 1.2311388e-40 322 272
0.0038397999 0.73000002 -0.040957868 5.1016779e-39 323 272
-0.012869466 0.73400003 -0.042469237 1.8346211e-38 310 273
-0.011582521 0.73400003 -0.042469237 1.4381799e-38 311 273
-0.010295574 0.73400003 -0.042469237 7.8474311e-39 312 273
-0.0090086265 0.73400003 -0.042469237 9.5991481e-39 313 273
-0.0077111595 0.73299998 -0.042411376 1.0608997e-38 314 273
-0.0064259665 0.73299998 -0.042411376 1.0793748e-38 315 273
-0.005140773 0.73299998 -0.042411376 1.106889e-38 316 273
-0.0038555798 0.73299998 -0.042411376 1.1252921e-38 317 273
-0.0025703865 0.73299998 -0.042411376 1.0425312e-38 318 273
-0.0012851933 0.73299998 -0.042411376 9.2267685e-39 319 273
0 0.73299998 -0.042411376 2.5148109e-39 320 273
0.0012816866 0.73100001 -0.042295661 1.5924958e-39 321 273
0.0025633732 0.73100001 -0.042295661 7.6631548e-40 322 273
0.00384506 0.73100001 -0.042295661 5.9292708e-39 323 273
-0.012869466 0.73400003 -0.043756187 1.8346214e-38 310 274
-0.011582521 0.73400003 -0.043756187 1.4934617e-38 311 274
-0.010295574 0.73400003 -0.043756187 9.0441723e-39 312 274
-0.0090086265 0.73400003 -0.043756187 9.7817373e-39 313 274
-0.0077111595 0.73299998 -0.043696571 1.1160005e-38 314 274
-0.0064259665 0.73299998 -0.043696571 1.1252202e-38 315 274
-0.005140773 0.73299998 -0.043696571 1.1069256e-38 316 274
-0.0038555798 0.73299998 -0.043696571 1.097706e-38 317 274
-0.0025703865 0.73299998 -0.043696571 1.042459e-38 318 274
-0.0012851933 0.73299998 -0.043696571 9.3182424e-39 319 274
0 0.73299998 -0.043696571 1.4091864e-39 320 274
0.0012816866 0.73100001 -0.043577347 8.5601259e-40 321 274
0.0025633732 0.73100001 -0.043577347 2.1463983e-39 322 274
0.0038608401 0.73400003 -0.043756187 7.5859404e-39 323 274
0.005161813 0.736 -0.043875411 1.6872173e-38 324 274
-0.012869466 0.73400003 -0.045043133 1.806927e-38 310 275
-0.011582521 0.73400003 -0.045043133 1.4750227e-38 311 275
-0.010295574 0.73400003 -0.045043133 1.2444262e-38 312 275
-0.0090331733 0.736 -0.045165867 1.2997434e-38 313 275
-0.0077216802 0.73400003 -0.045043133 1.1987252e-38 314 275
-0.006434733 0.73400003 -0.045043133 1.1987252e-38 315 275
-0.0051477868 0.73400003 -0.045043133 1.1528795e-38 316 275
-0.0038555798 0.73299998 -0.044981763 1.1436599e-38 317 275
-0.0025703865 0.73299998 -0.044981763 1.0885567e-38 318 275
-0.0012851933 0.73299998 -0.044981763 9.7792206e-39 319 275
0 0.73299998 -0.044981763 5.3639071e-39 320 275
0.0012851933 0.73299998 -0.044981763 5.5482983e-39 321 275
0.0025738934 0.73400003 -0.045043133 8.9498355e-39 322 275
0.0038713599 0.736 -0.045165867 1.180754e-38 323 275
0.005161813 0.736 -0.045165867 1.650267e-38 324 275
-0.011582521 0.73400003 -0.046330083 1.3827196e-38 311 276
-0.010323626 0.736 -0.046456318 1.455542e-38 312 276
-0.0090331733 0.736 -0.046456318 1.5753962e-38 313 276
-0.0077427197 0.736 -0.046456318 1.3643544e-38 314 276
-0.006434733 0.73400003 -0.046330083 1.3459152e-38 315 276
-0.0051477868 0.73400003 -0.046330083 1.2724831e-38 316 276
-0.0038555798 0.73299998 -0.046266954 1.2632634e-38 317 276
-0.0025703865 0.73299998 -0.046266954 1.1897587e-38 318 276
-0.0012869467 0.73400003 -0.046330083 1.1529163e-38 319 276
0 0.73400003 -0.046330083 1.1436599e-38 320 276
0.0012904532 0.736 -0.046456318 1.1897219e-38 321 276
0.0025809065 0.736 -0.046456318 1.2629019e-38 322 276
0.0038713599 0.736 -0.046456318 1.3090357e-38 323 276
-0.010323626 0.736 -0.047746774 1.3621225e-38 312 277
-0.0090331733 0.736 -0.047746774 1.5741725e-38 313 277
-0.0077427197 0.736 -0.047746774 1.3729261e-38 314 277
-0.0064522666 0.736 -0.047746774 1.418988e-38 315 277
-0.005161813 0.736 -0.047746774 1.336588e-38 316 277
-0.0038555798 0.73299998 -0.04755215 1.336588e-38 317 277
-0.0025703865 0.73299998 -0.04755215 1.2814865e-38 318 277
-0.0012904532 0.736 -0.047746774 1.2445722e-38 319 277
0 0.736 -0.047746774 1.3084608e-38 320 277
0.0012904532 0.736 -0.047746774 1.1886066e-38 321 277
0.0025809065 0.736 -0.047746774 1.1419679e-38 322 277
