# .PCD v.7 - Point Cloud Data file format
FIELDS x y z rgb imX imY
SIZE 4 4 4 4 4 4
TYPE F F F F F F
COUNT 1 1 1 1 1 1
WIDTH 832
HEIGHT 1
VIEWPOINT 0 0 0 1 0 0 0
POINTS 832
DATA ascii
-0.085394338 0.76099998 -0.013342866 1.14397e-38 256 250
-0.084722824 0.76700002 -0.013448066 1.0978721e-38 257 250
-0.08381284 0.77100003 -0.013518199 9.5993933e-39 258 250
-0.082461022 0.77100003 -0.013518199 9.1387739e-39 259 250
-0.081109203 0.77100003 -0.013518199 9.0465783e-39 260 250
-0.079757385 0.77100003 -0.013518199 9.3231666e-39 261 250
-0.078405559 0.77100003 -0.013518199 1.0060734e-38 262 250
-0.076853856 0.76899999 -0.013483133 1.0982331e-38 263 250
-0.07550554 0.76899999 -0.013483133 1.1442943e-38 264 250
-0.074350104 0.77100003 -0.013518199 1.171953e-38 265 250
-0.072998285 0.77100003 -0.013518199 1.1442217e-38 266 250
-0.071646459 0.77100003 -0.013518199 1.0059283e-38 267 250
-0.070294641 0.77100003 -0.013518199 5.2741105e-39 268 250
-0.068942823 0.77100003 -0.013518199 4.2603187e-39 269 250
-0.067591004 0.77100003 -0.013518199 5.4563409e-39 270 250
-0.066239186 0.77100003 -0.013518199 6.193906e-39 271 250
-0.064887367 0.77100003 -0.013518199 6.6516415e-39 272 250
-0.063535534 0.77100003 -0.013518199 6.3750532e-39 273 250
-0.062183715 0.77100003 -0.013518199 4.1659594e-39 274 250
-0.060674097 0.76899999 -0.013483133 2.9674345e-39 275 250
-0.059325781 0.76899999 -0.013483133 3.9765487e-39 276 250
-0.057826683 0.76700002 -0.013448066 4.1612959e-39 277 250
-0.056481879 0.76700002 -0.013448066 3.3412491e-39 278 250
-0.055137072 0.76700002 -0.013448066 3.8022272e-39 279 250
-0.053792264 0.76700002 -0.013448066 3.8908257e-39 280 250
-0.052447457 0.76700002 -0.013448066 3.6142402e-39 281 250
-0.051102653 0.76700002 -0.013448066 5.2676267e-39 282 250
-0.049757849 0.76700002 -0.013448066 5.3598237e-39 283 250
-0.048539277 0.76899999 -0.013483133 4.5315106e-39 284 250
-0.047190964 0.76899999 -0.013483133 4.7159018e-39 285 250
-0.045961879 0.77100003 -0.013518199 4.5344071e-39 286 250
-0.044725779 0.773 -0.013553266 4.9950265e-39 287 250
-0.043370452 0.773 -0.013553266 4.6280376e-39 288 250
-0.042015124 0.773 -0.013553266 4.0748652e-39 289 250
-0.040712398 0.77399999 -0.013570799 4.2545902e-39 290 250
-0.039304473 0.773 -0.013553266 3.7939708e-39 291 250
-0.037949149 0.773 -0.013553266 3.9765641e-39 292 250
-0.036641158 0.77399999 -0.013570799 4.8981603e-39 293 250
-0.035375252 0.77600002 -0.013605867 4.6276873e-39 294 250
-0.034102332 0.778 -0.013640933 5.734395e-39 295 250
-0.031770397 0.755 -0.013237666 8.2204274e-39 296 250
-0.030446632 0.755 -0.013237666 9.050188e-39 297 250
-0.029122867 0.755 -0.013237666 9.2345443e-39 298 250
-0.027799098 0.755 -0.013237666 9.0497943e-39 299 250
-0.026545467 0.75700003 -0.013272733 9.2345443e-39 300 250
-0.025284819 0.759 -0.0133078 8.4044249e-39 301 250
-0.023954039 0.759 -0.0133078 6.5637675e-39 302 250
-0.022682872 0.76099998 -0.013342866 4.903886e-39 303 250
-0.02137664 0.76200002 -0.0133604 4.8095254e-39 304 250
-0.0200406 0.76200002 -0.0133604 4.8095254e-39 305 250
-0.018680012 0.76099998 -0.013342866 8.2182413e-39 306 250
-0.017300138 0.759 -0.0133078 1.015435e-38 307 250
-0.015885198 0.755 -0.013237666 1.1259275e-38 308 250
-0.014503572 0.75199997 -0.013185065 1.0429513e-38 309 250
-0.01315 0.75 -0.01315 1.088797e-38 310 250
-0.01181922 0.74900001 -0.013132467 1.0795774e-38 311 250
-0.010505973 0.74900001 -0.013132467 1.0338021e-38 312 250
-0.0091927266 0.74900001 -0.013132467 1.0061435e-38 313 250
-0.00789 0.75 -0.01315 9.8773955e-39 314 250
-0.006575 0.75 -0.01315 9.4164188e-39 315 250
-0.0052740262 0.75199997 -0.013185065 7.9459733e-39 316 250
-0.0039555198 0.75199997 -0.013185065 7.3927995e-39 317 250
-0.0026475333 0.755 -0.013237666 7.9420272e-39 318 250
-0.0013237667 0.755 -0.013237666 7.6654389e-39 319 250
0 0.755 -0.013237666 8.0320774e-39 320 250
0.0013272733 0.75700003 -0.013272733 8.0320774e-39 321 250
0.0026545466 0.75700003 -0.013272733 8.2168372e-39 322 250
0.0040081199 0.76200002 -0.0133604 8.9544023e-39 323 250
0.0053441599 0.76200002 -0.0133604 9.0498195e-39 324 250
0.0066801999 0.76200002 -0.0133604 8.8654282e-39 325 250
0.0080162399 0.76200002 -0.0133604 9.0458538e-39 326 250
0.0093522798 0.76200002 -0.0133604 7.3863311e-39 327 250
0.010716373 0.764 -0.013395466 3.4284252e-39 328 250
0.01210326 0.76700002 -0.013448066 1.2914367e-41 329 250
0.013483133 0.76899999 -0.013483133 7.4688087e-40 330 250
0.0150436 0.77999997 -0.013675999 2.4060267e-39 331 250
0.016432239 0.78100002 -0.013693534 2.9584788e-39 332 250
0.017801592 0.78100002 -0.013693534 3.2354244e-39 333 250
0.019170946 0.78100002 -0.013693534 6.6268946e-39 334 250
0.020513998 0.77999997 -0.013675999 6.7190902e-39 335 250
0.021881599 0.77999997 -0.013675999 1.0383557e-38 336 250
0.02333862 0.78299999 -0.013728599 1.029136e-38 337 250
0.024711479 0.78299999 -0.013728599 1.1206849e-38 338 250
0.026084339 0.78299999 -0.013728599 1.1206849e-38 339 250
0.027457198 0.78299999 -0.013728599 1.1390518e-38 340 250
0.028830061 0.78299999 -0.013728599 1.175966e-38 341 250
0.030280067 0.78500003 -0.013763667 1.0021239e-38 342 250
0.031938717 0.792 -0.0138864 1.020563e-38 343 250
0.033495679 0.796 -0.013956533 6.9074247e-39 344 250
0.03489133 0.796 -0.013956533 7.1840116e-39 345 250
0.036378156 0.79799998 -0.013991599 5.631059e-39 346 250
0.061717331 0.80000001 -0.014026666 1.0427753e-38 364 250
0.06312 0.80000001 -0.014026666 9.3214066e-39 365 250
0.064361356 0.79799998 -0.013991599 9.9635193e-39 366 250
0.065760516 0.79799998 -0.013991599 9.9635193e-39 367 250
0.067159683 0.79799998 -0.013991599 9.6883716e-39 368 250
-0.097402923 0.76099998 -0.014677152 8.6860971e-39 247 251
-0.095816158 0.759 -0.014638579 1.0151848e-38 248 251
-0.09448538 0.759 -0.014638579 8.8611094e-39 249 251
-0.092909135 0.75700003 -0.014600007 8.1256982e-39 250 251
-0.091581859 0.75700003 -0.014600007 9.3238827e-39 251 251
-0.09025459 0.75700003 -0.014600007 1.0524229e-38 252 251
-0.08916226 0.759 -0.014638579 1.0708621e-38 253 251
-0.088062912 0.76099998 -0.014677152 1.1711967e-38 254 251
-0.086728632 0.76099998 -0.014677152 1.0882567e-38 255 251
-0.085394338 0.76099998 -0.014677152 9.0447748e-39 256 251
-0.084722824 0.76700002 -0.014792874 9.2295248e-39 257 251
-0.08381284 0.77100003 -0.01487002 9.1391369e-39 258 251
-0.082461022 0.77100003 -0.01487002 9.2316926e-39 259 251
-0.081109203 0.77100003 -0.01487002 9.4157125e-39 260 251
-0.079757385 0.77100003 -0.01487002 9.692298e-39 261 251
-0.078405559 0.77100003 -0.01487002 1.0612456e-38 262 251
-0.076853856 0.76899999 -0.014831445 1.1350022e-38 263 251
-0.07550554 0.76899999 -0.014831445 1.1811002e-38 264 251
-0.074157231 0.76899999 -0.014831445 1.1718448e-38 265 251
-0.072808921 0.76899999 -0.014831445 9.0472817e-39 266 251
-0.071460605 0.76899999 -0.014831445 7.1111735e-39 267 251
-0.070112288 0.76899999 -0.014831445 3.2504757e-39 268 251
-0.068942823 0.77100003 -0.01487002 4.2649878e-39 269 251
-0.067591004 0.77100003 -0.01487002 6.2861044e-39 270 251
-0.066239186 0.77100003 -0.01487002 6.8389194e-39 271 251
-0.064887367 0.77100003 -0.01487002 7.6665123e-39 272 251
-0.063535534 0.77100003 -0.01487002 6.8371104e-39 273 251
-0.062183715 0.77100003 -0.01487002 5.9140793e-39 274 251
-0.060674097 0.76899999 -0.014831445 5.1765142e-39 275 251
-0.059325781 0.76899999 -0.014831445 3.6160227e-39 276 251
-0.057826683 0.76700002 -0.014792874 3.33944e-39 277 251
-0.056481879 0.76700002 -0.014792874 2.9699456e-39 278 251
-0.055137072 0.76700002 -0.014792874 2.8777514e-39 279 251
-0.053792264 0.76700002 -0.014792874 3.3344177e-39 280 251
-0.052447457 0.76700002 -0.014792874 4.5329553e-39 281 251
-0.051102653 0.76700002 -0.014792874 9.0397231e-39 282 251
-0.049757849 0.76700002 -0.014792874 7.84118e-39 283 251
-0.048539277 0.76899999 -0.014831445 4.0708954e-39 284 251
-0.047190964 0.76899999 -0.014831445 4.2556425e-39 285 251
-0.045842651 0.76899999 -0.014831445 4.532605e-39 286 251
-0.044610061 0.77100003 -0.01487002 4.7169976e-39 287 251
-0.043258239 0.77100003 -0.01487002 4.5326078e-39 288 251
-0.042015124 0.773 -0.014908593 3.9794354e-39 289 251
-0.0406598 0.773 -0.014908593 3.8843685e-39 290 251
-0.03920278 0.77100003 -0.01487002 4.1605953e-39 291 251
-0.037850961 0.77100003 -0.01487002 4.1652644e-39 292 251
-0.036499143 0.77100003 -0.01487002 6.009177e-39 293 251
-0.035375252 0.77600002 -0.014966453 8.034597e-39 294 251
-0.033050332 0.75400001 -0.014542146 8.9561945e-39 295 251
-0.03172832 0.75400001 -0.014542146 9.878141e-39 296 251
-0.030406307 0.75400001 -0.014542146 9.5089984e-39 297 251
-0.029122867 0.755 -0.014561433 9.23491e-39 298 251
-0.027799098 0.755 -0.014561433 9.5114983e-39 299 251
-0.026545467 0.75700003 -0.014600007 9.5104319e-39 300 251
-0.025218192 0.75700003 -0.014600007 7.7583548e-39 301 251
-0.023954039 0.759 -0.014638579 4.9085748e-39 302 251
-0.022682872 0.76099998 -0.014677152 2.603684e-39 303 251
-0.02137664 0.76200002 -0.01469644 4.4414659e-39 304 251
-0.0200406 0.76200002 -0.01469644 5.7321991e-39 305 251
-0.01863092 0.759 -0.014638579 1.015255e-38 306 251
-0.017254554 0.75700003 -0.014600007 1.1258898e-38 307 251
-0.01586416 0.75400001 -0.014542146 1.1258922e-38 308 251
-0.014465 0.75 -0.014465 1.0705748e-38 309 251
-0.013132467 0.74900001 -0.014445714 1.0706104e-38 310 251
-0.011787659 0.74699998 -0.014407139 1.0890135e-38 311 251
-0.010477919 0.74699998 -0.014407139 1.0614977e-38 312 251
-0.0091681797 0.74699998 -0.014407139 1.0246195e-38 313 251
-0.0078794798 0.74900001 -0.014445714 9.0494468e-39 314 251
-0.0065662335 0.74900001 -0.014445714 7.7587079e-39 315 251
-0.00526 0.75 -0.014465 5.5521239e-39 316 251
-0.0039555198 0.75199997 -0.014503572 4.3535807e-39 317 251
-0.0026440267 0.75400001 -0.014542146 3.8929781e-39 318 251
-0.0013237667 0.755 -0.014561433 5.1837169e-39 319 251
0 0.755 -0.014561433 8.2128744e-39 320 251
0.0013272733 0.75700003 -0.014600007 8.6734938e-39 321 251
0.0026545466 0.75700003 -0.014600007 8.5863176e-39 322 251
0.0040081199 0.76200002 -0.01469644 8.6785132e-39 323 251
0.0053441599 0.76200002 -0.01469644 8.4019123e-39 324 251
0.0066801999 0.76200002 -0.01469644 7.5717929e-39 325 251
0.0080162399 0.76200002 -0.01469644 6.649845e-39 326 251
0.0093522798 0.76200002 -0.01469644 4.9899678e-39 327 251
0.01068832 0.76200002 -0.01469644 1.9547441e-39 328 251
0.012087479 0.76599997 -0.014773586 1.4349296e-41 329 251
0.013483133 0.76899999 -0.014831445 1.9457744e-39 330 251
0.015062887 0.78100002 -0.015062887 2.8677307e-39 331 251
0.016432239 0.78100002 -0.015062887 3.0531953e-39 332 251
0.017847179 0.78299999 -0.01510146 2.9609983e-39 333 251
0.019220039 0.78299999 -0.01510146 5.3426354e-39 334 251
0.020513998 0.77999997 -0.0150436 4.4210392e-39 335 251
0.021881599 0.77999997 -0.0150436 8.2724113e-39 336 251
0.023279008 0.78100002 -0.015062887 8.364607e-39 337 251
0.024648361 0.78100002 -0.015062887 1.0931692e-38 338 251
0.026017714 0.78100002 -0.015062887 1.0931692e-38 339 251
0.027387068 0.78100002 -0.015062887 1.1207558e-38 340 251
0.028756421 0.78100002 -0.015062887 1.1391951e-38 341 251
0.03020292 0.78299999 -0.01510146 1.0294585e-38 342 251
0.032019373 0.79400003 -0.015313613 1.08474e-38 343 251
0.033495679 0.796 -0.015352187 8.1027253e-39 344 251
0.034978997 0.79799998 -0.015390759 8.9328447e-39 345 251
0.061563037 0.79799998 -0.015390759 8.8593522e-39 364 251
0.062962197 0.79799998 -0.015390759 9.0441022e-39 365 251
0.064361356 0.79799998 -0.015390759 9.5036258e-39 366 251
0.065760516 0.79799998 -0.015390759 9.5036258e-39 367 251
-0.099126451 0.764 -0.016074561 1.1529709e-38 246 252
-0.097530924 0.76200002 -0.01603248 1.0423361e-38 247 252
-0.095816158 0.759 -0.015969358 7.3006038e-39 248 252
-0.09448538 0.759 -0.015969358 6.1942563e-39 249 252
-0.093154602 0.759 -0.015969358 6.005549e-39 250 252
-0.091823816 0.759 -0.015969358 6.2821359e-39 251 252
-0.090493038 0.759 -0.015969358 8.3075853e-39 252 252
-0.08916226 0.759 -0.015969358 9.3217359e-39 253 252
-0.088062912 0.76099998 -0.016011439 9.3152493e-39 254 252
-0.086728632 0.76099998 -0.016011439 8.0245104e-39 255 252
-0.086067624 0.76700002 -0.01613768 5.3612712e-39 256 252
-0.084722824 0.76700002 -0.01613768 6.3754232e-39 257 252
-0.08381284 0.77100003 -0.016221842 7.9416769e-39 258 252
-0.082674921 0.773 -0.016263919 8.4948507e-39 259 252
-0.081109203 0.77100003 -0.016221842 8.9554589e-39 260 252
-0.079757385 0.77100003 -0.016221842 9.5086326e-39 261 252
-0.078405559 0.77100003 -0.016221842 1.1255325e-38 262 252
-0.076853856 0.76899999 -0.016179759 1.2362031e-38 263 252
-0.07550554 0.76899999 -0.016179759 1.2453145e-38 264 252
-0.074157231 0.76899999 -0.016179759 1.1347157e-38 265 252
-0.072808921 0.76899999 -0.016179759 6.4711921e-39 266 252
-0.071460605 0.76899999 -0.016179759 5.2726503e-39 267 252
-0.070112288 0.76899999 -0.016179759 5.4588422e-39 268 252
-0.068763971 0.76899999 -0.016179759 6.5648311e-39 269 252
-0.067415662 0.76899999 -0.016179759 8.4955513e-39 270 252
-0.066067353 0.76899999 -0.016179759 8.8643324e-39 271 252
-0.064719036 0.76899999 -0.016179759 8.8636164e-39 272 252
-0.063370727 0.76899999 -0.016179759 7.5728775e-39 273 252
-0.062022414 0.76899999 -0.016179759 7.2012154e-39 274 252
-0.060674097 0.76899999 -0.016179759 6.9249872e-39 275 252
-0.059325781 0.76899999 -0.016179759 5.5477967e-39 276 252
-0.057826683 0.76700002 -0.01613768 4.6254957e-39 277 252
-0.056481879 0.76700002 -0.01613768 2.6022449e-39 278 252
-0.055137072 0.76700002 -0.01613768 1.9568853e-39 279 252
-0.053792264 0.76700002 -0.01613768 3.2465339e-39 280 252
-0.052447457 0.76700002 -0.01613768 4.9982495e-39 281 252
-0.051102653 0.76700002 -0.01613768 1.0700323e-38 282 252
-0.049757849 0.76700002 -0.01613768 9.4095847e-39 283 252
-0.048413042 0.76700002 -0.01613768 4.5304358e-39 284 252
-0.047068235 0.76700002 -0.01613768 3.9776249e-39 285 252
-0.045842651 0.76899999 -0.016179759 4.3467914e-39 286 252
-0.044494338 0.76899999 -0.016179759 4.1620414e-39 287 252
-0.043258239 0.77100003 -0.016221842 4.1627477e-39 288 252
-0.04190642 0.77100003 -0.016221842 3.978355e-39 289 252
-0.040554602 0.77100003 -0.016221842 3.7031946e-39 290 252
-0.039101087 0.76899999 -0.016179759 4.6251523e-39 291 252
-0.03775277 0.76899999 -0.016179759 7.7533185e-39 292 252
-0.036499143 0.77100003 -0.016221842 8.5830806e-39 293 252
-0.034372345 0.75400001 -0.01586416 9.3245917e-39 294 252
-0.033050332 0.75400001 -0.01586416 9.8774068e-39 295 252
-0.03172832 0.75400001 -0.01586416 9.7866461e-39 296 252
-0.030406307 0.75400001 -0.01586416 9.694449e-39 297 252
-0.029122867 0.755 -0.015885198 9.8784914e-39 298 252
-0.027799098 0.755 -0.015885198 1.0431665e-38 299 252
-0.026545467 0.75700003 -0.015927281 9.6033618e-39 300 252
-0.025218192 0.75700003 -0.015927281 6.5609074e-39 301 252
-0.023954039 0.759 -0.015969358 4.8120827e-39 302 252
-0.022682872 0.76099998 -0.016011439 3.7057352e-39 303 252
-0.021348584 0.76099998 -0.016011439 6.3747029e-39 304 252
-0.020014299 0.76099998 -0.016011439 7.7576387e-39 305 252
-0.018581826 0.75700003 -0.015927281 1.079792e-38 306 252
-0.017186172 0.75400001 -0.01586416 1.1258898e-38 307 252
-0.01578 0.75 -0.01578 1.0707186e-38 308 252
-0.014445714 0.74900001 -0.01575896 1.0523155e-38 309 252
-0.013097399 0.74699998 -0.015716879 1.0981968e-38 310 252
-0.011771879 0.74599999 -0.015695838 1.1074163e-38 311 252
-0.010463892 0.74599999 -0.015695838 1.1258545e-38 312 252
-0.0091559067 0.74599999 -0.015695838 1.0429144e-38 313 252
-0.0078584393 0.74699998 -0.015716879 8.4955667e-39 314 252
-0.0065486995 0.74699998 -0.015716879 6.0066434e-39 315 252
-0.00526 0.75 -0.01578 5.3623825e-39 316 252
-0.0039555198 0.75199997 -0.015822079 5.1779912e-39 317 252
-0.0026440267 0.75400001 -0.01586416 5.0865243e-39 318 252
-0.0013237667 0.755 -0.015885198 5.8240893e-39 319 252
0 0.755 -0.015885198 6.74567e-39 320 252
0.0013272733 0.75700003 -0.015927281 7.1144526e-39 321 252
0.0026545466 0.75700003 -0.015927281 7.2084278e-39 322 252
0.0040028598 0.76099998 -0.016011439 7.0240366e-39 323 252
0.0053441599 0.76200002 -0.01603248 6.8353069e-39 324 252
0.0066801999 0.76200002 -0.01603248 5.4523739e-39 325 252
0.0080162399 0.76200002 -0.01603248 5.4495194e-39 326 252
0.0093522798 0.76200002 -0.01603248 5.4495194e-39 327 252
0.01068832 0.76200002 -0.01603248 2.7859453e-39 328 252
0.012087479 0.76599997 -0.016116638 1.6795991e-39 329 252
0.013448066 0.76700002 -0.01613768 4.1580673e-39 330 252
0.014792874 0.76700002 -0.01613768 4.6186839e-39 331 252
0.01613768 0.76700002 -0.01613768 4.5239744e-39 332 252
0.017847179 0.78299999 -0.01647432 4.1551975e-39 333 252
0.019220039 0.78299999 -0.01647432 4.6065039e-39 334 252
0.0205929 0.78299999 -0.01647432 4.1451656e-39 335 252
0.021909652 0.78100002 -0.016432239 6.6204486e-39 336 252
0.023279008 0.78100002 -0.016432239 6.8048413e-39 337 252
0.024648361 0.78100002 -0.016432239 9.096784e-39 338 252
0.026017714 0.78100002 -0.016432239 9.4655651e-39 339 252
0.027387068 0.78100002 -0.016432239 9.9240195e-39 340 252
0.028756421 0.78100002 -0.016432239 1.0016215e-38 341 252
0.03020292 0.78299999 -0.01647432 1.0567225e-38 342 252
0.031858064 0.79000002 -0.016621601 1.130479e-38 343 252
0.033411518 0.79400003 -0.016705759 9.4799242e-39 344 252
0.03489133 0.796 -0.01674784 1.1323835e-38 345 252
0.036378156 0.79799998 -0.016789921 8.9468661e-39 346 252
0.061563037 0.79799998 -0.016789921 8.2143359e-39 364 252
0.062962197 0.79799998 -0.016789921 8.6753127e-39 365 252
0.064361356 0.79799998 -0.016789921 9.0426645e-39 366 252
-0.099126451 0.764 -0.017414106 1.7148686e-38 246 253
-0.097530924 0.76200002 -0.01736852 9.5882852e-39 247 253
-0.096194878 0.76200002 -0.01736852 1.3212283e-39 248 253
-0.094734348 0.76099998 -0.017345725 2.977479e-41 249 253
-0.093154602 0.759 -0.017300138 4.4324976e-39 250 253
-0.091823816 0.759 -0.017300138 4.8938275e-39 251 253
-0.090493038 0.759 -0.017300138 5.1711276e-39 252 253
-0.08916226 0.759 -0.017300138 4.894545e-39 253 253
-0.088062912 0.76099998 -0.017345725 5.6295877e-39 254 253
-0.086728632 0.76099998 -0.017345725 5.260452e-39 255 253
-0.086292051 0.76899999 -0.017528072 4.525768e-39 256 253
-0.084943734 0.76899999 -0.017528072 5.5399172e-39 257 253
-0.08381284 0.77100003 -0.01757366 4.3503605e-39 258 253
-0.082247108 0.76899999 -0.017528072 4.1659678e-39 259 253
-0.080688395 0.76700002 -0.017482487 4.356452e-39 260 253
-0.079343595 0.76700002 -0.017482487 6.2925602e-39 261 253
-0.078202173 0.76899999 -0.017528072 9.6919421e-39 262 253
-0.076853856 0.76899999 -0.017528072 1.0706454e-38 263 253
-0.07550554 0.76899999 -0.017528072 1.1256031e-38 264 253
-0.074157231 0.76899999 -0.017528072 1.0057488e-38 265 253
-0.072808921 0.76899999 -0.017528072 5.0907828e-39 266 253
-0.071460605 0.76899999 -0.017528072 5.9201833e-39 267 253
-0.070112288 0.76899999 -0.017528072 7.022938e-39 268 253
-0.068763971 0.76899999 -0.017528072 8.4984268e-39 269 253
-0.067415662 0.76899999 -0.017528072 9.510778e-39 270 253
-0.066067353 0.76899999 -0.017528072 8.9572455e-39 271 253
-0.064719036 0.76899999 -0.017528072 7.0272568e-39 272 253
-0.063370727 0.76899999 -0.017528072 4.2613879e-39 273 253
-0.062022414 0.76899999 -0.017528072 6.6473381e-39 274 253
-0.060674097 0.76899999 -0.017528072 6.8320881e-39 275 253
-0.059325781 0.76899999 -0.017528072 5.8229781e-39 276 253
-0.057826683 0.76700002 -0.017482487 6.0992062e-39 277 253
-0.056481879 0.76700002 -0.017482487 5.9205785e-39 278 253
-0.055137072 0.76700002 -0.017482487 6.7503392e-39 279 253
-0.053792264 0.76700002 -0.017482487 9.6915946e-39 280 253
-0.052379075 0.76599997 -0.017459691 9.5993989e-39 281 253
-0.051036026 0.76599997 -0.017459691 9.5060865e-39 282 253
-0.04969297 0.76599997 -0.017459691 8.3075433e-39 283 253
-0.048413042 0.76700002 -0.017482487 5.9129863e-39 284 253
-0.047068235 0.76700002 -0.017482487 3.2393536e-39 285 253
-0.045723427 0.76700002 -0.017482487 3.2393536e-39 286 253
-0.04437862 0.76700002 -0.017482487 3.5155776e-39 287 253
-0.043146025 0.76899999 -0.017528072 4.436822e-39 288 253
-0.04190642 0.77100003 -0.01757366 5.4506152e-39 289 253
-0.040554602 0.77100003 -0.01757366 6.3768707e-39 290 253
-0.038999394 0.76700002 -0.017482487 7.1144357e-39 291 253
-0.037654586 0.76700002 -0.017482487 1.0243331e-38 292 253
-0.036309779 0.76700002 -0.017482487 1.0243331e-38 293 253
-0.034372345 0.75400001 -0.017186172 9.4178818e-39 294 253
-0.032962665 0.75199997 -0.017140586 9.5100788e-39 295 253
-0.031644158 0.75199997 -0.017140586 9.7870118e-39 296 253
-0.030325651 0.75199997 -0.017140586 9.9714031e-39 297 253
-0.029084291 0.75400001 -0.017186172 9.9714087e-39 298 253
-0.027762281 0.75400001 -0.017186172 1.0339832e-38 299 253
-0.026545467 0.75700003 -0.017254554 9.5104473e-39 300 253
-0.025284819 0.759 -0.017300138 5.5460352e-39 301 253
-0.023954039 0.759 -0.017300138 2.8784786e-39 302 253
-0.02262326 0.759 -0.017300138 3.0625098e-39 303 253
-0.02129248 0.759 -0.017300138 7.8494812e-39 304 253
-0.019909101 0.75700003 -0.017254554 1.0246566e-38 305 253
-0.018532733 0.755 -0.017208965 1.0429876e-38 306 253
-0.017095 0.75 -0.017095 1.0614627e-38 307 253
-0.01575896 0.74900001 -0.017072206 1.0890132e-38 308 253
-0.014407139 0.74699998 -0.017026618 1.0890132e-38 309 253
-0.013079867 0.74599999 -0.017003827 1.1072365e-38 310 253
-0.011771879 0.74599999 -0.017003827 1.1256757e-38 311 253
-0.01043584 0.74400002 -0.016958239 1.1074176e-38 312 253
-0.0091313599 0.74400002 -0.016958239 1.0613199e-38 313 253
-0.0078479191 0.74599999 -0.017003827 7.5779264e-39 314 253
-0.0065486995 0.74699998 -0.017026618 3.3372876e-39 315 253
-0.00526 0.75 -0.017095 4.351085e-39 316 253
-0.0039555198 0.75199997 -0.017140586 5.4574339e-39 317 253
-0.0026440267 0.75400001 -0.017186172 6.1013698e-39 318 253
-0.0013237667 0.755 -0.017208965 6.2861212e-39 319 253
0 0.755 -0.017208965 6.2861044e-39 320 253
0.0013272733 0.75700003 -0.017254554 6.0091588e-39 321 253
0.0026545466 0.75700003 -0.017254554 6.0973915e-39 322 253
0.0039923396 0.759 -0.017300138 5.2676295e-39 323 253
0.0053371461 0.76099998 -0.017345725 3.0603462e-39 324 253
0.0066801999 0.76200002 -0.01736852 2.8763164e-39 325 253
0.0080162399 0.76200002 -0.01736852 4.9003281e-39 326 253
0.0093522798 0.76200002 -0.01736852 8.4041208e-39 327 253
0.01068832 0.76200002 -0.01736852 7.6705186e-39 328 253
0.01205592 0.764 -0.017414106 7.0251492e-39 329 253
0.013430533 0.76599997 -0.017459691 7.8423066e-39 330 253
0.014773586 0.76599997 -0.017459691 6.1831454e-39 331 253
0.021965759 0.78299999 -0.017847179 6.8033923e-39 336 253
0.02333862 0.78299999 -0.017847179 6.7111967e-39 337 253
0.024711479 0.78299999 -0.017847179 8.5454011e-39 338 253
0.026084339 0.78299999 -0.017847179 8.5454011e-39 339 253
0.027387068 0.78100002 -0.017801592 9.5563104e-39 340 253
0.028756421 0.78100002 -0.017801592 9.5563104e-39 341 253
0.03020292 0.78299999 -0.017847179 1.1024959e-38 342 253
0.031858064 0.79000002 -0.018006733 1.1209352e-38 343 253
0.033411518 0.79400003 -0.018097907 1.0942105e-38 344 253
0.03489133 0.796 -0.018143492 1.2140289e-38 345 253
-0.098866954 0.76200002 -0.01870456 1.9089165e-38 246 254
-0.097530924 0.76200002 -0.01870456 8.3944714e-39 247 254
-0.096194878 0.76200002 -0.01870456 2.7642014e-41 248 254
-0.094734348 0.76099998 -0.018680012 2.440081e-41 249 254
-0.093400061 0.76099998 -0.018680012 3.6981752e-39 250 254
-0.092065774 0.76099998 -0.018680012 4.1591547e-39 251 254
-0.090731487 0.76099998 -0.018680012 3.9729614e-39 252 254
-0.089397199 0.76099998 -0.018680012 3.3276018e-39 253 254
-0.088062912 0.76099998 -0.018680012 3.9758579e-39 254 254
-0.086842604 0.76200002 -0.01870456 3.9758579e-39 255 254
-0.086067624 0.76700002 -0.018827293 3.6071006e-39 256 254
-0.084722824 0.76700002 -0.018827293 3.6071006e-39 257 254
-0.083378009 0.76700002 -0.018827293 2.8734536e-39 258 254
-0.08203321 0.76700002 -0.018827293 4.9017574e-39 259 254
-0.080688395 0.76700002 -0.018827293 4.9982186e-39 260 254
-0.079240143 0.76599997 -0.018802745 6.288949e-39 261 254
-0.077897087 0.76599997 -0.018802745 7.7612065e-39 262 254
-0.07665398 0.76700002 -0.018827293 9.5129234e-39 263 254
-0.075309172 0.76700002 -0.018827293 1.098015e-38 264 254
-0.074157231 0.76899999 -0.018876385 9.8734425e-39 265 254
-0.072619557 0.76700002 -0.018827293 6.2871582e-39 266 254
-0.07127475 0.76700002 -0.018827293 6.1949625e-39 267 254
-0.070112288 0.76899999 -0.018876385 8.2196693e-39 268 254
-0.068763971 0.76899999 -0.018876385 8.7724843e-39 269 254
-0.067415662 0.76899999 -0.018876385 9.9685066e-39 270 254
-0.066067353 0.76899999 -0.018876385 8.7703221e-39 271 254
-0.064719036 0.76899999 -0.018876385 5.2776824e-39 272 254
-0.063370727 0.76899999 -0.018876385 4.0795049e-39 273 254
-0.062022414 0.76899999 -0.018876385 6.1910123e-39 274 254
-0.060674097 0.76899999 -0.018876385 6.4676006e-39 275 254
-0.059325781 0.76899999 -0.018876385 6.8356754e-39 276 254
-0.057826683 0.76700002 -0.018827293 7.0200667e-39 277 254
-0.056481879 0.76700002 -0.018827293 8.4948535e-39 278 254
-0.055137072 0.76700002 -0.018827293 9.7855923e-39 279 254
-0.053722132 0.76599997 -0.018802745 1.0889403e-38 280 254
-0.052379075 0.76599997 -0.018802745 1.0612456e-38 281 254
-0.051036026 0.76599997 -0.018802745 1.0517346e-38 282 254
-0.04969297 0.76599997 -0.018802745 9.5035529e-39 283 254
-0.048349917 0.76599997 -0.018802745 7.4799308e-39 284 254
-0.047068235 0.76700002 -0.018827293 6.4661516e-39 285 254
-0.045723427 0.76700002 -0.018827293 5.0846815e-39 286 254
-0.04437862 0.76700002 -0.018827293 4.900649e-39 287 254
-0.043146025 0.76899999 -0.018876385 5.4513187e-39 288 254
-0.041797712 0.76899999 -0.018876385 6.9264488e-39 289 254
-0.0404494 0.76899999 -0.018876385 8.4916067e-39 290 254
-0.038999394 0.76700002 -0.018827293 9.5057586e-39 291 254
-0.037654586 0.76700002 -0.018827293 1.042916e-38 292 254
-0.035505001 0.75 -0.018409999 1.042916e-38 293 254
-0.034144413 0.74900001 -0.018385453 9.8781354e-39 294 254
-0.032831166 0.74900001 -0.018385453 1.0062525e-38 295 254
-0.03156 0.75 -0.018409999 9.9721121e-39 296 254
-0.030244999 0.75 -0.018409999 1.0156503e-38 297 254
-0.028929999 0.75 -0.018409999 1.0889766e-38 298 254
-0.027762281 0.75400001 -0.018508185 1.0429147e-38 299 254
-0.026475333 0.755 -0.018532733 8.4066179e-39 300 254
-0.025218192 0.75700003 -0.018581826 3.4280525e-39 301 254
-0.02389092 0.75700003 -0.018581826 2.0501557e-39 302 254
-0.021669446 0.727 -0.017845426 4.2628326e-39 303 254
-0.020394772 0.727 -0.017845426 9.5983087e-39 304 254
-0.0191464 0.72799999 -0.017869972 1.1257829e-38 305 254
-0.017869972 0.72799999 -0.017869972 1.0063974e-38 306 254
-0.017026618 0.74699998 -0.018336359 1.0063974e-38 307 254
-0.015716879 0.74699998 -0.018336359 1.0523508e-38 308 254
-0.014407139 0.74699998 -0.018336359 9.7859426e-39 309 254
-0.013079867 0.74599999 -0.018311813 7.5790054e-39 310 254
-0.011771879 0.74599999 -0.018311813 8.8697442e-39 311 254
-0.01043584 0.74400002 -0.01826272 1.1993984e-38 312 254
-0.0091313599 0.74400002 -0.01826272 1.1256419e-38 313 254
-0.0078479191 0.74599999 -0.018311813 8.8654282e-39 314 254
-0.0065486995 0.74699998 -0.018336359 5.8233312e-39 315 254
-0.0052529867 0.74900001 -0.018385453 5.5470918e-39 316 254
-0.003945 0.75 -0.018409999 6.0999055e-39 317 254
-0.0026370131 0.75199997 -0.018459093 5.7329446e-39 318 254
-0.0013237667 0.755 -0.018532733 5.640749e-39 319 254
0 0.755 -0.018532733 6.1910347e-39 320 254
0.0013272733 0.75700003 -0.018581826 5.7296978e-39 321 254
0.0026545466 0.75700003 -0.018581826 5.4506026e-39 322 254
0.0039923396 0.759 -0.01863092 4.7126788e-39 323 254
0.0053371461 0.76099998 -0.018680012 2.6908574e-39 324 254
0.0066801999 0.76200002 -0.01870456 3.8894006e-39 325 254
0.0080162399 0.76200002 -0.01870456 6.3747169e-39 326 254
0.0093522798 0.76200002 -0.01870456 8.587412e-39 327 254
0.01068832 0.76200002 -0.01870456 8.4041026e-39 328 254
0.01202436 0.76200002 -0.01870456 8.1271569e-39 329 254
0.013430533 0.76599997 -0.018802745 8.7663985e-39 330 254
0.014773586 0.76599997 -0.018802745 7.383464e-39 331 254
0.02333862 0.78299999 -0.019220039 5.8861024e-39 337 254
0.024711479 0.78299999 -0.019220039 5.7024524e-39 338 254
0.026084339 0.78299999 -0.019220039 5.5184213e-39 339 254
0.027387068 0.78100002 -0.019170946 5.794648e-39 340 254
0.028756421 0.78100002 -0.019170946 6.5325718e-39 341 254
0.03020292 0.78299999 -0.019220039 1.0382477e-38 342 254
0.031858064 0.79000002 -0.019391866 1.0659424e-38 343 254
0.033411518 0.79400003 -0.019490054 1.1488103e-38 344 254
0.034803666 0.79400003 -0.019490054 1.2225668e-38 345 254
0.036286984 0.796 -0.019539146 1.0670927e-38 346 254
-0.098866954 0.76200002 -0.0200406 1.9917863e-38 246 255
-0.097530924 0.76200002 -0.0200406 8.4859636e-39 247 255
-0.096194878 0.76200002 -0.0200406 1.1264464e-39 248 255
-0.09485884 0.76200002 -0.0200406 7.5766526e-40 249 255
-0.093522795 0.76200002 -0.0200406 4.0647969e-39 250 255
-0.092186764 0.76200002 -0.0200406 4.0647969e-39 251 255
-0.090850718 0.76200002 -0.0200406 4.0647969e-39 252 255
-0.08951468 0.76200002 -0.0200406 3.8804084e-39 253 255
-0.088410079 0.764 -0.020093199 3.5148601e-39 254 255
-0.08729846 0.76599997 -0.020145798 3.4226659e-39 255 255
-0.086067624 0.76700002 -0.020172099 3.4226659e-39 256 255
-0.084722824 0.76700002 -0.020172099 3.2382774e-39 257 255
-0.083378009 0.76700002 -0.020172099 4.3442494e-39 258 255
-0.08203321 0.76700002 -0.020172099 8.1238933e-39 259 255
-0.080688395 0.76700002 -0.020172099 8.4944429e-39 260 255
-0.079240143 0.76599997 -0.020145798 7.6646822e-39 261 255
-0.077897087 0.76599997 -0.020145798 6.6573798e-39 262 255
-0.076554038 0.76599997 -0.020145798 8.6860424e-39 263 255
-0.075210981 0.76599997 -0.020145798 1.0429147e-38 264 255
-0.073964365 0.76700002 -0.020172099 9.7837776e-39 265 255
-0.072524875 0.76599997 -0.020145798 8.1264115e-39 266 255
-0.071181826 0.76599997 -0.020145798 8.5877497e-39 267 255
-0.06992995 0.76700002 -0.020172099 8.8657814e-39 268 255
-0.068585135 0.76700002 -0.020172099 9.2342038e-39 269 255
-0.067240335 0.76700002 -0.020172099 9.5111312e-39 270 255
-0.066067353 0.76899999 -0.0202247 7.3906317e-39 271 255
-0.064719036 0.76899999 -0.0202247 3.8972787e-39 272 255
-0.063370727 0.76899999 -0.0202247 4.7266792e-39 273 255
-0.062022414 0.76899999 -0.0202247 6.3768651e-39 274 255
-0.060674097 0.76899999 -0.0202247 7.0222345e-39 275 255
-0.059171494 0.76700002 -0.020172099 7.7583548e-39 276 255
-0.057826683 0.76700002 -0.020172099 7.9427461e-39 277 255
-0.056481879 0.76700002 -0.020172099 9.7848622e-39 278 255
-0.055065181 0.76599997 -0.020145798 1.006145e-38 279 255
-0.053722132 0.76599997 -0.020145798 9.7873649e-39 280 255
-0.052379075 0.76599997 -0.020145798 9.9717562e-39 281 255
-0.051036026 0.76599997 -0.020145798 1.1622996e-38 282 255
-0.04969297 0.76599997 -0.020145798 1.0793235e-38 283 255
-0.048349917 0.76599997 -0.020145798 8.9536582e-39 284 255
-0.047068235 0.76700002 -0.020172099 9.6912232e-39 285 255
-0.045723427 0.76700002 -0.020172099 1.0056781e-38 286 255
-0.04437862 0.76700002 -0.020172099 8.6738469e-39 287 255
-0.043033812 0.76700002 -0.020172099 7.6614732e-39 288 255
-0.041689005 0.76700002 -0.020172099 7.7536689e-39 289 255
-0.0404494 0.76899999 -0.0202247 8.8603696e-39 290 255
-0.039101087 0.76899999 -0.0202247 9.9667185e-39 291 255
-0.036819998 0.75 -0.019724999 1.0705727e-38 292 255
-0.035505001 0.75 -0.019724999 1.0429141e-38 293 255
-0.034144413 0.74900001 -0.0196987 9.5136549e-39 294 255
-0.032831166 0.74900001 -0.0196987 9.697686e-39 295 255
-0.031517919 0.74900001 -0.0196987 9.78916e-39 296 255
-0.030204674 0.74900001 -0.0196987 9.9739114e-39 297 255
-0.028891427 0.74900001 -0.0196987 1.0799725e-38 298 255
-0.027578179 0.74900001 -0.0196987 9.4164314e-39 299 255
-0.02637013 0.75199997 -0.0197776 6.5662954e-39 300 255
-0.024252106 0.72799999 -0.0191464 1.5881084e-39 301 255
-0.022975679 0.72799999 -0.0191464 3.8886593e-39 302 255
-0.021669446 0.727 -0.019120099 7.5768404e-39 303 255
-0.020394772 0.727 -0.019120099 1.0612822e-38 304 255
-0.0191464 0.72799999 -0.0191464 1.0797574e-38 305 255
-0.017869972 0.72799999 -0.0191464 9.7888265e-39 306 255
-0.016912652 0.74199998 -0.0195146 9.8810221e-39 307 255
-0.015611678 0.74199998 -0.0195146 1.0524592e-38 308 255
-0.014387853 0.74599999 -0.019619798 8.7732354e-39 309 255
-0.0130448 0.74400002 -0.019567199 5.7365334e-39 310 255
-0.011740319 0.74400002 -0.019567199 8.1339799e-39 311 255
-0.01043584 0.74400002 -0.019567199 1.2085807e-38 312 255
-0.0091313599 0.74400002 -0.019567199 1.1164211e-38 313 255
-0.0078268806 0.74400002 -0.019567199 9.8774068e-39 314 255
-0.0065223998 0.74400002 -0.019567199 8.3104398e-39 315 255
-0.0052319462 0.74599999 -0.019619798 7.2055187e-39 316 255
-0.0039397399 0.74900001 -0.0196987 5.9147799e-39 317 255
-0.0026370131 0.75199997 -0.0197776 5.730051e-39 318 255
-0.0013220133 0.75400001 -0.019830201 6.0991922e-39 319 255
0 0.755 -0.0198565 6.6476941e-39 320 255
0.0013272733 0.75700003 -0.019909101 5.910129e-39 321 255
0.00266156 0.759 -0.0199617 5.0792921e-39 322 255
0.0039923396 0.759 -0.0199617 4.3417383e-39 323 255
0.0053371461 0.76099998 -0.020014299 2.7823285e-39 324 255
0.0066801999 0.76200002 -0.0200406 5.640735e-39 325 255
0.0080162399 0.76200002 -0.0200406 8.6770671e-39 326 255
0.0093522798 0.76200002 -0.0200406 8.3086447e-39 327 255
0.01068832 0.76200002 -0.0200406 7.2970137e-39 328 255
0.01202436 0.76200002 -0.0200406 7.1126225e-39 329 255
0.0133604 0.76200002 -0.0200406 7.7572884e-39 330 255
0.026084339 0.78299999 -0.0205929 4.5075119e-39 339 255
0.027457198 0.78299999 -0.0205929 2.7651402e-39 340 255
0.028830061 0.78299999 -0.0205929 4.3328247e-39 341 255
0.030280067 0.78500003 -0.020645501 9.7432128e-39 342 255
0.031858064 0.79000002 -0.020777 1.0111635e-38 343 255
0.033411518 0.79400003 -0.0208822 1.1305857e-38 344 255
0.034803666 0.79400003 -0.0208822 1.1490607e-38 345 255
-0.098866954 0.76200002 -0.02137664 1.6148608e-38 246 256
-0.097530924 0.76200002 -0.02137664 4.9929371e-39 247 256
-0.096194878 0.76200002 -0.02137664 2.2298834e-39 248 256
-0.09485884 0.76200002 -0.02137664 2.7830572e-39 249 256
-0.093522795 0.76200002 -0.02137664 3.1500293e-39 250 256
-0.092186764 0.76200002 -0.02137664 2.9656408e-39 251 256
-0.090850718 0.76200002 -0.02137664 2.7798174e-39 252 256
-0.089749627 0.764 -0.021432746 2.6876232e-39 253 256
-0.088641517 0.76599997 -0.021488851 2.228087e-39 254 256
-0.08729846 0.76599997 -0.021488851 2.228087e-39 255 256
-0.086067624 0.76700002 -0.021516906 1.5855972e-39 256 256
-0.084722824 0.76700002 -0.021516906 1.7703444e-39 257 256
-0.083378009 0.76700002 -0.021516906 4.8970561e-39 258 256
-0.08203321 0.76700002 -0.021516906 9.2302255e-39 259 256
-0.080583192 0.76599997 -0.021488851 1.042443e-38 260 256
-0.079240143 0.76599997 -0.021488851 9.5946696e-39 261 256
-0.077897087 0.76599997 -0.021488851 7.5761117e-39 262 256
-0.076554038 0.76599997 -0.021488851 8.9590462e-39 263 256
-0.075210981 0.76599997 -0.021488851 1.0154365e-38 264 256
-0.073867925 0.76599997 -0.021488851 9.7859426e-39 265 256
-0.072524875 0.76599997 -0.021488851 9.1416452e-39 266 256
-0.071181826 0.76599997 -0.021488851 9.1416452e-39 267 256
-0.069838762 0.76599997 -0.021488851 8.8665002e-39 268 256
-0.068585135 0.76700002 -0.021516906 9.0508915e-39 269 256
-0.067240335 0.76700002 -0.021516906 9.051232e-39 270 256
-0.065895528 0.76700002 -0.021516906 7.7604932e-39 271 256
-0.06455072 0.76700002 -0.021516906 6.656682e-39 272 256
-0.063205913 0.76700002 -0.021516906 7.8548664e-39 273 256
-0.061861109 0.76700002 -0.021516906 9.5061285e-39 274 256
-0.060516298 0.76700002 -0.021516906 9.3217359e-39 275 256
-0.059171494 0.76700002 -0.021516906 8.4937576e-39 276 256
-0.057826683 0.76700002 -0.021516906 8.3090077e-39 277 256
-0.056408234 0.76599997 -0.021488851 8.6803139e-39 278 256
-0.055065181 0.76599997 -0.021488851 9.3256833e-39 279 256
-0.053722132 0.76599997 -0.021488851 1.0613175e-38 280 256
-0.052379075 0.76599997 -0.021488851 1.0429144e-38 281 256
-0.051036026 0.76599997 -0.021488851 1.03355e-38 282 256
-0.04969297 0.76599997 -0.021488851 9.6901302e-39 283 256
-0.048349917 0.76599997 -0.021488851 8.4916038e-39 284 256
-0.047006864 0.76599997 -0.021488851 8.0306257e-39 285 256
-0.045663811 0.76599997 -0.021488851 7.2923446e-39 286 256
-0.044320758 0.76599997 -0.021488851 5.1718451e-39 287 256
-0.043033812 0.76700002 -0.021516906 2.9756853e-39 288 256
-0.041689005 0.76700002 -0.021516906 4.2664101e-39 289 256
-0.0404494 0.76899999 -0.021573013 8.7717683e-39 290 256
-0.038084153 0.74900001 -0.021011947 1.0062507e-38 291 256
-0.036770906 0.74900001 -0.021011947 1.0062876e-38 292 256
-0.03531564 0.74599999 -0.020927785 1.0247267e-38 293 256
-0.034007654 0.74599999 -0.020927785 1.0065024e-38 294 256
-0.032743499 0.74699998 -0.020955838 9.9728282e-39 295 256
-0.031433757 0.74699998 -0.020955838 9.7895131e-39 296 256
-0.030124018 0.74699998 -0.020955838 9.8817087e-39 297 256
-0.028775707 0.74599999 -0.020927785 1.0615328e-38 298 256
-0.027467718 0.74599999 -0.020927785 8.7714151e-39 299 256
-0.026159734 0.74599999 -0.020927785 5.5535714e-39 300 256
-0.024252106 0.72799999 -0.020422826 1.0360192e-39 301 256
-0.022975679 0.72799999 -0.020422826 4.1674042e-39 302 256
-0.021699252 0.72799999 -0.020422826 9.0534124e-39 303 256
-0.020422826 0.72799999 -0.020422826 1.0063248e-38 304 256
-0.0191464 0.72799999 -0.020422826 9.9710527e-39 305 256
-0.017869972 0.72799999 -0.020422826 9.8806592e-39 306 256
-0.016889861 0.741 -0.020787518 9.8806592e-39 307 256
-0.01559064 0.741 -0.020787518 9.7881062e-39 308 256
-0.014310705 0.74199998 -0.020815572 7.7598024e-39 309 256
-0.013009733 0.74199998 -0.020815572 6.3761518e-39 310 256
-0.01170876 0.74199998 -0.020815572 9.4182489e-39 311 256
-0.010407786 0.74199998 -0.020815572 1.2361675e-38 312 256
-0.009106813 0.74199998 -0.020815572 1.1255327e-38 313 256
-0.0078058392 0.74199998 -0.020815572 9.8774096e-39 314 256
-0.0065048663 0.74199998 -0.020815572 8.955812e-39 315 256
-0.0052179201 0.74400002 -0.02087168 9.1344369e-39 316 256
-0.0039292197 0.74699998 -0.020955838 7.7515025e-39 317 256
-0.0026264933 0.74900001 -0.021011947 5.7339984e-39 318 256
-0.0013220133 0.75400001 -0.021152213 6.1027795e-39 319 256
0 0.755 -0.021180267 6.9235523e-39 320 256
0.0013237667 0.755 -0.021180267 6.3707372e-39 321 256
0.0026545466 0.75700003 -0.021236373 5.4502215e-39 322 256
0.0039923396 0.759 -0.02129248 5.2661917e-39 323 256
0.0053371461 0.76099998 -0.021348584 4.9942838e-39 324 256
0.0066714329 0.76099998 -0.021348584 7.0225876e-39 325 256
0.0080057196 0.76099998 -0.021348584 7.7605086e-39 326 256
0.0093400059 0.76099998 -0.021348584 7.1151392e-39 327 256
0.010674292 0.76099998 -0.021348584 7.1126197e-39 328 256
0.012008579 0.76099998 -0.021348584 7.2970109e-39 329 256
0.013342866 0.76099998 -0.021348584 9.5976081e-39 330 256
0.02897734 0.787 -0.022077972 5.528128e-39 341 256
0.03035721 0.787 -0.022077972 8.5543708e-39 342 256
0.031938717 0.792 -0.022218239 8.9231533e-39 343 256
0.033411518 0.79400003 -0.022274347 1.1123263e-38 344 256
-0.10072899 0.76599997 -0.022831906 1.7981738e-38 245 257
-0.09938594 0.76599997 -0.022831906 1.3098167e-38 246 257
-0.097530924 0.76200002 -0.02271268 6.5522768e-39 247 257
-0.096194878 0.76200002 -0.02271268 4.1620134e-39 248 257
-0.09485884 0.76200002 -0.02271268 5.2679854e-39 249 257
-0.093768261 0.764 -0.022772292 4.71482e-39 250 257
-0.092428714 0.764 -0.022772292 4.1616547e-39 251 257
-0.091089167 0.764 -0.022772292 3.4233834e-39 252 257
-0.089984566 0.76599997 -0.022831906 3.0546064e-39 253 257
-0.088641517 0.76599997 -0.022831906 2.1362515e-39 254 257
-0.087412432 0.76700002 -0.022861714 2.0436985e-39 255 257
-0.086067624 0.76700002 -0.022861714 1.1264198e-39 256 257
-0.084722824 0.76700002 -0.022861714 1.4951967e-39 257 257
-0.083378009 0.76700002 -0.022861714 5.0832382e-39 258 257
-0.08203321 0.76700002 -0.022861714 9.4167719e-39 259 257
-0.080688395 0.76700002 -0.022861714 1.1433546e-38 260 257
-0.078309126 0.75700003 -0.022563647 1.0880374e-38 261 257
-0.077998787 0.76700002 -0.022861714 8.9543771e-39 262 257
-0.07665398 0.76700002 -0.022861714 9.4157153e-39 263 257
-0.075309172 0.76700002 -0.022861714 9.878504e-39 264 257
-0.073675066 0.764 -0.022772292 9.7863083e-39 265 257
-0.072335519 0.764 -0.022772292 9.7852125e-39 266 257
-0.070995972 0.764 -0.022772292 9.6011814e-39 267 257
-0.069838762 0.76599997 -0.022831906 9.4175034e-39 268 257
-0.068495713 0.76599997 -0.022831906 9.4175034e-39 269 257
-0.067240335 0.76700002 -0.022861714 9.3245861e-39 270 257
-0.065895528 0.76700002 -0.022861714 8.9561623e-39 271 257
-0.06455072 0.76700002 -0.022861714 9.1423486e-39 272 257
-0.063205913 0.76700002 -0.022861714 1.0064305e-38 273 257
-0.061861109 0.76700002 -0.022861714 1.1072696e-38 274 257
-0.060516298 0.76700002 -0.022861714 1.0611358e-38 275 257
-0.059171494 0.76700002 -0.022861714 9.3234931e-39 276 257
-0.057751291 0.76599997 -0.022831906 8.4940926e-39 277 257
-0.056408234 0.76599997 -0.022831906 9.3235169e-39 278 257
-0.055065181 0.76599997 -0.022831906 1.0245472e-38 279 257
-0.053722132 0.76599997 -0.022831906 1.0979812e-38 280 257
-0.052379075 0.76599997 -0.022831906 1.0518836e-38 281 257
-0.051036026 0.76599997 -0.022831906 9.2291563e-39 282 257
-0.04969297 0.76599997 -0.022831906 8.3990355e-39 283 257
-0.048349917 0.76599997 -0.022831906 7.7533031e-39 284 257
-0.047006864 0.76599997 -0.022831906 5.7250105e-39 285 257
-0.045663811 0.76599997 -0.022831906 2.1358928e-39 286 257
-0.044320758 0.76599997 -0.022831906 2.5046697e-39 287 257
-0.042977702 0.76599997 -0.022831906 2.3339341e-39 288 257
-0.041689005 0.76700002 -0.022861714 5.2841942e-39 289 257
-0.0390292 0.74199998 -0.022116546 1.0062522e-38 290 257
-0.037728224 0.74199998 -0.022116546 1.0246914e-38 291 257
-0.036623627 0.74599999 -0.022235774 9.9724778e-39 292 257
-0.035220962 0.74400002 -0.022176161 1.0156871e-38 293 257
-0.033916477 0.74400002 -0.022176161 1.0340536e-38 294 257
-0.032699663 0.74599999 -0.022235774 1.0340536e-38 295 257
-0.031433757 0.74699998 -0.022265578 9.8813556e-39 296 257
-0.030124018 0.74699998 -0.022265578 9.78916e-39 297 257
-0.028775707 0.74599999 -0.022235774 1.0614607e-38 298 257
-0.027467718 0.74599999 -0.022235774 8.494108e-39 299 257
-0.026089599 0.74400002 -0.022176161 4.6319654e-39 300 257
-0.02478512 0.74400002 -0.022176161 2.0505144e-39 301 257
-0.022975679 0.72799999 -0.021699252 6.3747029e-39 302 257
-0.021699252 0.72799999 -0.021699252 1.089193e-38 303 257
-0.020478934 0.73000002 -0.021758866 1.015617e-38 304 257
-0.019199001 0.73000002 -0.021758866 9.9714185e-39 305 257
-0.017919067 0.73000002 -0.021758866 1.0063251e-38 306 257
-0.016821479 0.73799998 -0.021997318 9.9710555e-39 307 257
-0.01559064 0.741 -0.02208674 8.7735857e-39 308 257
-0.014310705 0.74199998 -0.022116546 7.0218688e-39 309 257
-0.013009733 0.74199998 -0.022116546 6.9250166e-39 310 257
-0.01170876 0.74199998 -0.022116546 9.9678325e-39 311 257
-0.010407786 0.74199998 -0.022116546 1.1626646e-38 312 257
-0.009106813 0.74199998 -0.022116546 1.05203e-38 313 257
-0.0078058392 0.74199998 -0.022116546 1.0060028e-38 314 257
-0.0065048663 0.74199998 -0.022116546 1.0336614e-38 315 257
-0.0052038929 0.74199998 -0.022116546 1.0334075e-38 316 257
-0.0039134403 0.74400002 -0.022176161 9.0433357e-39 317 257
-0.0026159731 0.74599999 -0.022235774 7.4835476e-39 318 257
-0.0013132467 0.74900001 -0.022325192 7.2991549e-39 319 257
0 0.755 -0.022504034 7.4792302e-39 320 257
0.0013237667 0.755 -0.022504034 7.110449e-39 321 257
0.0026545466 0.75700003 -0.022563647 6.4697488e-39 322 257
0.0039923396 0.759 -0.02262326 6.3775531e-39 323 257
0.0053371461 0.76099998 -0.022682872 6.9300207e-39 324 257
0.0066714329 0.76099998 -0.022682872 7.7601401e-39 325 257
0.0080057196 0.76099998 -0.022682872 7.393168e-39 326 257
0.0093400059 0.76099998 -0.022682872 7.393168e-39 327 257
0.010674292 0.76099998 -0.022682872 7.4846448e-39 328 257
0.012008579 0.76099998 -0.022682872 8.2222098e-39 329 257
0.013342866 0.76099998 -0.022682872 1.0887994e-38 330 257
-0.10072899 0.76599997 -0.024174958 1.9269966e-38 245 258
-0.09938594 0.76599997 -0.024174958 1.6227815e-38 246 258
-0.097786903 0.764 -0.024111839 1.3738893e-38 247 258
-0.096447356 0.764 -0.024111839 1.1155572e-38 248 258
-0.095107809 0.764 -0.024111839 8.3897028e-39 249 258
-0.094013728 0.76599997 -0.024174958 5.9097577e-39 250 258
-0.092670672 0.76599997 -0.024174958 4.9878154e-39 251 258
-0.091327623 0.76599997 -0.024174958 3.3329828e-39 252 258
-0.089984566 0.76599997 -0.024174958 2.6876232e-39 253 258
-0.088641517 0.76599997 -0.024174958 1.9515043e-39 254 258
-0.087412432 0.76700002 -0.024206521 1.8593101e-39 255 258
-0.086067624 0.76700002 -0.024206521 1.2175378e-39 256 258
-0.084722824 0.76700002 -0.024206521 1.7707032e-39 257 258
-0.083378009 0.76700002 -0.024206521 4.4407597e-39 258 258
-0.08203321 0.76700002 -0.024206521 9.2349338e-39 259 258
-0.078309126 0.75700003 -0.02389092 1.0511253e-38 261 258
-0.076981857 0.75700003 -0.02389092 8.9540113e-39 262 258
-0.075654581 0.75700003 -0.02389092 9.5071851e-39 263 258
-0.074818239 0.76200002 -0.02404872 1.0154371e-38 264 258
-0.073482201 0.76200002 -0.02404872 1.0061816e-38 265 258
-0.072146162 0.76200002 -0.02404872 1.0428065e-38 266 258
-0.070995972 0.764 -0.024111839 1.0151478e-38 267 258
-0.069656424 0.764 -0.024111839 1.0060352e-38 268 258
-0.068495713 0.76599997 -0.024174958 9.9681562e-39 269 258
-0.067152664 0.76599997 -0.024174958 9.5097018e-39 270 258
-0.065809615 0.76599997 -0.024174958 1.0062876e-38 271 258
-0.064466551 0.76599997 -0.024174958 1.0614624e-38 272 258
-0.063205913 0.76700002 -0.024206521 1.1167798e-38 273 258
-0.061861109 0.76700002 -0.024206521 1.0889769e-38 274 258
-0.060516298 0.76700002 -0.024206521 1.0797574e-38 275 258
-0.059094343 0.76599997 -0.024174958 1.1074511e-38 276 258
-0.057751291 0.76599997 -0.024174958 1.0982315e-38 277 258
-0.056408234 0.76599997 -0.024174958 1.1532267e-38 278 258
-0.055065181 0.76599997 -0.024174958 1.1624463e-38 279 258
-0.053722132 0.76599997 -0.024174958 9.5043293e-39 280 258
-0.052242316 0.764 -0.024111839 8.4905375e-39 281 258
-0.050902773 0.764 -0.024111839 7.0179031e-39 282 258
-0.049563225 0.764 -0.024111839 5.8193599e-39 283 258
-0.048223678 0.764 -0.024111839 4.7115914e-39 284 258
-0.047006864 0.76599997 -0.024174958 3.6052607e-39 285 258
-0.045544583 0.764 -0.024111839 2.7808936e-39 286 258
-0.04420504 0.764 -0.024111839 7.7590961e-39 287 258
-0.041575037 0.741 -0.023385961 9.3267819e-39 288 258
-0.04027582 0.741 -0.023385961 1.0617521e-38 289 258
-0.038976599 0.741 -0.023385961 1.0156886e-38 290 258
-0.037677377 0.741 -0.023385961 9.7884621e-39 291 258
-0.036427252 0.74199998 -0.023417519 1.0156871e-38 292 258
-0.03512628 0.74199998 -0.023417519 1.0156871e-38 293 258
-0.033916477 0.74400002 -0.023480639 1.0432381e-38 294 258
-0.032612 0.74400002 -0.023480639 1.0340186e-38 295 258
-0.031391677 0.74599999 -0.023543758 9.8813612e-39 296 258
-0.03008369 0.74599999 -0.023543758 9.6966112e-39 297 258
-0.028775707 0.74599999 -0.023543758 9.2367121e-39 298 258
-0.027467718 0.74599999 -0.023543758 7.3927995e-39 299 258
-0.026089599 0.74400002 -0.023480639 3.8954794e-39 300 258
-0.024718491 0.74199998 -0.023417519 3.987675e-39 301 258
-0.023417519 0.74199998 -0.023417519 9.2259319e-39 302 258
-0.021848286 0.73299998 -0.023133477 1.1715214e-38 303 258
-0.020563092 0.73299998 -0.023133477 9.6959106e-39 304 258
-0.019277899 0.73299998 -0.023133477 9.6959106e-39 305 258
-0.018017253 0.73400003 -0.023165042 1.0063974e-38 306 258
-0.016821479 0.73799998 -0.023291279 9.3260491e-39 307 258
-0.01559064 0.741 -0.023385961 5.9187638e-39 308 258
-0.01429142 0.741 -0.023385961 5.8265682e-39 309 258
-0.0129922 0.741 -0.023385961 8.2132373e-39 310 258
-0.01169298 0.741 -0.023385961 9.8731188e-39 311 258
-0.010407786 0.74199998 -0.023417519 9.8781663e-39 312 258
-0.009106813 0.74199998 -0.023417519 9.8781663e-39 313 258
-0.0078058392 0.74199998 -0.023417519 1.0063271e-38 314 258
-0.0065048663 0.74199998 -0.023417519 1.0247662e-38 315 258
