# .PCD v.7 - Point Cloud Data file format
FIELDS x y z rgb imX imY
SIZE 4 4 4 4 4 4
TYPE F F F F F F
COUNT 1 1 1 1 1 1
WIDTH 844
HEIGHT 1
VIEWPOINT 0 0 0 1 0 0 0
POINTS 844
DATA ascii
0.0208822 0.79400003 0.0013921467 2.3509886e-38 335 239
0.022274347 0.79400003 0.0013921467 2.3509886e-38 336 239
0.023666494 0.79400003 0.0013921467 2.3509886e-38 337 239
0.02505864 0.79400003 0.0013921467 2.3509886e-38 338 239
0.026450787 0.79400003 0.0013921467 2.3509886e-38 339 239
0.027842935 0.79400003 0.0013921467 2.3509886e-38 340 239
0.029235078 0.79400003 0.0013921467 2.3509886e-38 341 239
0.030627226 0.79400003 0.0013921467 2.3509886e-38 342 239
0.032019373 0.79400003 0.0013921467 2.3509886e-38 343 239
0.03332736 0.792 0.0013886399 2.3417324e-38 344 239
0.034715999 0.792 0.0013886399 2.203403e-38 345 239
0.036013465 0.79000002 0.0013851334 2.0738259e-38 346 239
0.037398599 0.79000002 0.0013851334 1.9908498e-38 347 239
0.038783733 0.79000002 0.0013851334 1.89923e-38 348 239
0.040118016 0.78899997 0.0013833799 1.8807908e-38 349 239
0.041501399 0.78899997 0.0013833799 1.9175262e-38 350 239
0.042884778 0.78899997 0.0013833799 2.0466001e-38 351 239
0.044268157 0.78899997 0.0013833799 1.9822066e-38 352 239
0.045651536 0.78899997 0.0013833799 1.806999e-38 353 239
0.046915691 0.787 0.0013798733 1.6686315e-38 354 239
0.048172832 0.78500003 0.0013763667 1.5211185e-38 355 239
0.0495492 0.78500003 0.0013763667 1.4383943e-38 356 239
0.050925564 0.78500003 0.0013763667 1.4107358e-38 357 239
0.052301936 0.78500003 0.0013763667 1.4103764e-38 358 239
0.053336397 0.77999997 0.0013675999 1.3089612e-38 359 239
0.053792264 0.76700002 0.0013448066 1.3640615e-38 360 239
0.055137072 0.76700002 0.0013448066 1.3825366e-38 361 239
0.056997359 0.77399999 0.0013570799 1.1802448e-38 362 239
0.058279041 0.773 0.0013553266 1.06961e-38 363 239
0.059634373 0.773 0.0013553266 1.1063107e-38 364 239
0.061068594 0.77399999 0.0013570799 1.1708476e-38 365 239
0.062586986 0.77600002 0.0013605866 1.1707381e-38 366 239
0.063947573 0.77600002 0.0013605866 1.1430435e-38 367 239
0.065139838 0.77399999 0.0013570799 1.2164371e-38 368 239
0.066496916 0.77399999 0.0013570799 1.2256566e-38 369 239
0.067854002 0.77399999 0.0013570799 1.2353088e-38 370 239
0.069211073 0.77399999 0.0013570799 1.2813706e-38 371 239
-0.031668708 0.82099998 -0 2.3509168e-38 298 240
-0.030229218 0.82099998 -0 2.3509886e-38 299 240
-0.028789733 0.82099998 -0 2.3509886e-38 300 240
-0.027283618 0.81900001 -0 2.3509886e-38 301 240
-0.025784519 0.81699997 -0 2.3509886e-38 302 240
-0.024352046 0.81699997 -0 2.3509886e-38 303 240
-0.022919571 0.81699997 -0 2.3509886e-38 304 240
-0.021434501 0.815 -0 2.3509886e-38 305 240
-0.01995644 0.81300002 -0 2.3509886e-38 306 240
-0.01853098 0.81300002 -0 2.3509886e-38 307 240
-0.017063441 0.81099999 -0 2.3509886e-38 308 240
-0.015602913 0.80900002 -0 2.3509886e-38 309 240
-0.014149399 0.80699998 -0 2.3509886e-38 310 240
-0.012671339 0.80299997 -0 2.3509886e-38 311 240
-0.011263412 0.80299997 -0 2.3509886e-38 312 240
-0.0098186666 0.80000001 -0 2.3509886e-38 313 240
-0.0084159998 0.80000001 -0 2.3509886e-38 314 240
-0.007013333 0.80000001 -0 2.3509886e-38 315 240
-0.0056106667 0.80000001 -0 2.3509886e-38 316 240
-0.0042185197 0.80199999 -0 2.3509886e-38 317 240
-0.0028123464 0.80199999 -0 2.3509886e-38 318 240
-0.0014061732 0.80199999 -0 2.3509886e-38 319 240
0 0.80199999 -0 2.3509886e-38 320 240
0.0014061732 0.80199999 -0 2.3509886e-38 321 240
0.0028123464 0.80199999 -0 2.3509886e-38 322 240
0.0042079999 0.80000001 -0 2.3509886e-38 323 240
0.0055966396 0.79799998 -0 2.3509886e-38 324 240
0.0069957995 0.79799998 -0 2.3509886e-38 325 240
0.0083949603 0.79799998 -0 2.3509886e-38 326 240
0.0097941197 0.79799998 -0 2.3509886e-38 327 240
0.011193279 0.79799998 -0 2.3509886e-38 328 240
0.01256088 0.796 -0 2.3509886e-38 329 240
0.013956533 0.796 -0 2.3509886e-38 330 240
0.015352187 0.796 -0 2.3509886e-38 331 240
0.01674784 0.796 -0 2.3509886e-38 332 240
0.018143492 0.796 -0 2.3509886e-38 333 240
0.019490054 0.79400003 -0 2.3509886e-38 334 240
0.0208822 0.79400003 -0 2.3509886e-38 335 240
0.022274347 0.79400003 -0 2.3509886e-38 336 240
0.023666494 0.79400003 -0 2.3509886e-38 337 240
0.02505864 0.79400003 -0 2.3509886e-38 338 240
0.026450787 0.79400003 -0 2.3509886e-38 339 240
0.027842935 0.79400003 -0 2.3509886e-38 340 240
0.029235078 0.79400003 -0 2.3509886e-38 341 240
0.030550079 0.792 -0 2.3509886e-38 342 240
0.031938717 0.792 -0 2.3509886e-38 343 240
0.03332736 0.792 -0 2.3509886e-38 344 240
0.034715999 0.792 -0 2.3509886e-38 345 240
0.036013465 0.79000002 -0 2.3509886e-38 346 240
0.037398599 0.79000002 -0 2.2956359e-38 347 240
0.038783733 0.79000002 -0 2.3141106e-38 348 240
0.040118016 0.78899997 -0 2.2864519e-38 349 240
0.041501399 0.78899997 -0 2.2680851e-38 350 240
0.042884778 0.78899997 -0 2.3326215e-38 351 240
0.044268157 0.78899997 -0 2.3141109e-38 352 240
0.045651536 0.78899997 -0 2.1758174e-38 353 240
0.046915691 0.787 -0 2.0836212e-38 354 240
0.048172832 0.78500003 -0 2.0006452e-38 355 240
0.049422957 0.78299999 -0 1.9085217e-38 356 240
0.050666075 0.78100002 -0 1.8716436e-38 357 240
0.052035429 0.78100002 -0 1.8715357e-38 358 240
0.053199638 0.778 -0 1.7885955e-38 359 240
0.054283198 0.77399999 -0 1.8068173e-38 360 240
0.055568393 0.773 -0 1.7791946e-38 361 240
0.056923717 0.773 -0 1.4847444e-38 362 240
0.058279041 0.773 -0 1.3648901e-38 363 240
0.059634373 0.773 -0 1.4477247e-38 364 240
0.061068594 0.77399999 -0 1.5767986e-38 365 240
0.062425677 0.77399999 -0 1.6684517e-38 366 240
0.063782752 0.77399999 -0 1.4564016e-38 367 240
0.065139838 0.77399999 -0 1.4465653e-38 368 240
0.066496916 0.77399999 -0 1.34515e-38 369 240
0.067854002 0.77399999 -0 1.2808295e-38 370 240
0.069211073 0.77399999 -0 1.3177437e-38 371 240
0.070568159 0.77399999 -0 1.2721863e-38 372 240
0.071832314 0.773 -0 1.2629668e-38 373 240
0.073187642 0.773 -0 1.2352358e-38 374 240
-0.031668708 0.82099998 -0.0014394866 2.3509886e-38 298 241
-0.030155579 0.81900001 -0.00143598 2.3509886e-38 299 241
-0.0287196 0.81900001 -0.00143598 2.3509886e-38 300 241
-0.027216991 0.81699997 -0.0014324732 2.3509886e-38 301 241
-0.025784519 0.81699997 -0.0014324732 2.3509886e-38 302 241
-0.024292432 0.815 -0.0014289666 2.3509886e-38 303 241
-0.022863466 0.815 -0.0014289666 2.3509886e-38 304 241
-0.021329299 0.81099999 -0.0014219533 2.3509886e-38 305 241
-0.019907346 0.81099999 -0.0014219533 2.3509886e-38 306 241
-0.018439807 0.80900002 -0.0014184467 2.3509886e-38 307 241
-0.0169372 0.80500001 -0.0014114333 2.3509886e-38 308 241
-0.015487193 0.80299997 -0.0014079266 2.3509886e-38 309 241
-0.014061732 0.80199999 -0.0014061732 2.3509886e-38 310 241
-0.01265556 0.80199999 -0.0014061732 2.3509886e-38 311 241
-0.011221333 0.80000001 -0.0014026667 2.3509886e-38 312 241
-0.0097941197 0.79799998 -0.0013991599 2.3509886e-38 313 241
-0.0083949603 0.79799998 -0.0013991599 2.3509886e-38 314 241
-0.0069957995 0.79799998 -0.0013991599 2.3509886e-38 315 241
-0.0055966396 0.79799998 -0.0013991599 2.3509886e-38 316 241
-0.0042079999 0.80000001 -0.0014026667 2.3509886e-38 317 241
-0.0028053334 0.80000001 -0.0014026667 2.3509886e-38 318 241
-0.0014026667 0.80000001 -0.0014026667 2.3509886e-38 319 241
0 0.80000001 -0.0014026667 2.3509886e-38 320 241
0.0014026667 0.80000001 -0.0014026667 2.3509886e-38 321 241
0.0027983198 0.79799998 -0.0013991599 2.3509886e-38 322 241
0.0041974802 0.79799998 -0.0013991599 2.3509886e-38 323 241
0.0055826134 0.796 -0.0013956534 2.3509886e-38 324 241
0.0069782664 0.796 -0.0013956534 2.3509886e-38 325 241
0.0083739199 0.796 -0.0013956534 2.3509886e-38 326 241
0.0097695729 0.796 -0.0013956534 2.3509886e-38 327 241
0.011165227 0.796 -0.0013956534 2.3509886e-38 328 241
0.01256088 0.796 -0.0013956534 2.3509886e-38 329 241
0.013921468 0.79400003 -0.0013921467 2.3509886e-38 330 241
0.015313613 0.79400003 -0.0013921467 2.3509886e-38 331 241
0.016705759 0.79400003 -0.0013921467 2.3509886e-38 332 241
0.018097907 0.79400003 -0.0013921467 2.3509886e-38 333 241
0.01944096 0.792 -0.0013886399 2.3509886e-38 334 241
0.020829599 0.792 -0.0013886399 2.3509886e-38 335 241
0.022218239 0.792 -0.0013886399 2.3509886e-38 336 241
0.023666494 0.79400003 -0.0013921467 2.3509886e-38 337 241
0.02505864 0.79400003 -0.0013921467 2.3509886e-38 338 241
0.026450787 0.79400003 -0.0013921467 2.3509886e-38 339 241
0.027842935 0.79400003 -0.0013921467 2.3509886e-38 340 241
0.029235078 0.79400003 -0.0013921467 2.3509886e-38 341 241
0.030550079 0.792 -0.0013886399 2.3509886e-38 342 241
0.031938717 0.792 -0.0013886399 2.3509886e-38 343 241
0.033201117 0.78899997 -0.0013833799 2.3509886e-38 344 241
0.034584496 0.78899997 -0.0013833799 2.3509886e-38 345 241
0.035967879 0.78899997 -0.0013833799 2.3509886e-38 346 241
0.037351258 0.78899997 -0.0013833799 2.3509886e-38 347 241
0.038734637 0.78899997 -0.0013833799 2.3509886e-38 348 241
0.040118016 0.78899997 -0.0013833799 2.3509886e-38 349 241
0.041501399 0.78899997 -0.0013833799 2.3509886e-38 350 241
0.042884778 0.78899997 -0.0013833799 2.3509886e-38 351 241
0.044155944 0.787 -0.0013798733 2.3509886e-38 352 241
0.045535821 0.787 -0.0013798733 2.3509886e-38 353 241
0.046915691 0.787 -0.0013798733 2.3509886e-38 354 241
0.048172832 0.78500003 -0.0013763667 2.3509886e-38 355 241
0.049422957 0.78299999 -0.0013728599 2.3509886e-38 356 241
0.050666075 0.78100002 -0.0013693533 2.3509886e-38 357 241
0.052035429 0.78100002 -0.0013693533 2.3509886e-38 358 241
0.053199638 0.778 -0.0013640933 2.3509886e-38 359 241
0.054283198 0.77399999 -0.0013570799 2.3509886e-38 360 241
0.055568393 0.773 -0.0013553266 2.3509886e-38 361 241
0.056923717 0.773 -0.0013553266 2.3509886e-38 362 241
0.058279041 0.773 -0.0013553266 2.3049629e-38 363 241
0.059634373 0.773 -0.0013553266 2.323402e-38 364 241
0.060989697 0.773 -0.0013553266 2.3509886e-38 365 241
0.06234502 0.773 -0.0013553266 2.3509886e-38 366 241
0.063700356 0.773 -0.0013553266 2.1849641e-38 367 241
0.065055676 0.773 -0.0013553266 2.0921177e-38 368 241
0.066496916 0.77399999 -0.0013570799 1.83397e-38 369 241
0.067854002 0.77399999 -0.0013570799 1.5664562e-38 370 241
0.069211073 0.77399999 -0.0013570799 1.2714661e-38 371 241
0.070568159 0.77399999 -0.0013570799 1.078792e-38 372 241
0.071832314 0.773 -0.0013553266 1.078792e-38 373 241
0.073187642 0.773 -0.0013553266 1.0784698e-38 374 241
0.074542962 0.773 -0.0013553266 1.0784698e-38 375 241
0.078405559 0.77100003 -0.00135182 1.0969797e-38 378 241
0.079757385 0.77100003 -0.00135182 1.1707362e-38 379 241
0.083378009 0.76700002 -0.0013448066 1.1892478e-38 382 241
-0.036697265 0.80500001 -0.0028228667 2.3509886e-38 294 242
-0.03528583 0.80500001 -0.0028228667 2.3509886e-38 295 242
-0.033958558 0.80699998 -0.0028298798 2.3509886e-38 296 242
-0.032543618 0.80699998 -0.0028298798 2.3509886e-38 297 242
-0.03151441 0.81699997 -0.0028649464 2.3509886e-38 298 242
-0.030081939 0.81699997 -0.0028649464 2.3509886e-38 299 242
-0.028649466 0.81699997 -0.0028649464 2.3509886e-38 300 242
-0.027150365 0.815 -0.0028579333 2.3509886e-38 301 242
-0.02565828 0.81300002 -0.00285092 2.3509886e-38 302 242
-0.02423282 0.81300002 -0.00285092 2.3509886e-38 303 242
-0.022751253 0.81099999 -0.0028439066 2.3509886e-38 304 242
-0.021276699 0.80900002 -0.0028368933 2.3509886e-38 305 242
-0.019760067 0.80500001 -0.0028228667 2.3509886e-38 306 242
-0.018303044 0.80299997 -0.0028158531 2.3509886e-38 307 242
-0.016874079 0.80199999 -0.0028123464 2.3509886e-38 308 242
-0.015467905 0.80199999 -0.0028123464 2.3509886e-38 309 242
-0.014026666 0.80000001 -0.0028053334 2.3509886e-38 310 242
-0.012624 0.80000001 -0.0028053334 2.3509886e-38 311 242
-0.011193279 0.79799998 -0.0027983198 2.3509886e-38 312 242
-0.0097941197 0.79799998 -0.0027983198 2.3509886e-38 313 242
-0.0083949603 0.79799998 -0.0027983198 2.3509886e-38 314 242
-0.0069957995 0.79799998 -0.0027983198 2.3509886e-38 315 242
-0.0055966396 0.79799998 -0.0027983198 2.3509886e-38 316 242
-0.0042079999 0.80000001 -0.0028053334 2.3509886e-38 317 242
-0.0028053334 0.80000001 -0.0028053334 2.3509886e-38 318 242
-0.0014026667 0.80000001 -0.0028053334 2.3509886e-38 319 242
0 0.79799998 -0.0027983198 2.3509886e-38 320 242
0.0013991599 0.79799998 -0.0027983198 2.3509886e-38 321 242
0.0027983198 0.79799998 -0.0027983198 2.3509886e-38 322 242
0.0041869599 0.796 -0.0027913067 2.3509886e-38 323 242
0.0055826134 0.796 -0.0027913067 2.3509886e-38 324 242
0.0069782664 0.796 -0.0027913067 2.3509886e-38 325 242
0.0083739199 0.796 -0.0027913067 2.3509886e-38 326 242
0.0097695729 0.796 -0.0027913067 2.3509886e-38 327 242
0.011165227 0.796 -0.0027913067 2.3509886e-38 328 242
0.01252932 0.79400003 -0.0027842934 2.3509886e-38 329 242
0.013921468 0.79400003 -0.0027842934 2.3509886e-38 330 242
0.015313613 0.79400003 -0.0027842934 2.3509886e-38 331 242
0.016705759 0.79400003 -0.0027842934 2.3509886e-38 332 242
0.018097907 0.79400003 -0.0027842934 2.3509886e-38 333 242
0.01944096 0.792 -0.0027772798 2.3509886e-38 334 242
0.020829599 0.792 -0.0027772798 2.3509886e-38 335 242
0.022218239 0.792 -0.0027772798 2.3509886e-38 336 242
0.02360688 0.792 -0.0027772798 2.3509886e-38 337 242
0.02505864 0.79400003 -0.0027842934 2.3509886e-38 338 242
0.026450787 0.79400003 -0.0027842934 2.3509886e-38 339 242
0.027772799 0.792 -0.0027772798 2.3509886e-38 340 242
0.029161438 0.792 -0.0027772798 2.3509886e-38 341 242
0.030550079 0.792 -0.0027772798 2.3509886e-38 342 242
0.031938717 0.792 -0.0027772798 2.3509886e-38 343 242
0.033201117 0.78899997 -0.0027667598 2.3509886e-38 344 242
0.034584496 0.78899997 -0.0027667598 2.3509886e-38 345 242
0.035967879 0.78899997 -0.0027667598 2.3509886e-38 346 242
0.037351258 0.78899997 -0.0027667598 2.3509886e-38 347 242
0.038734637 0.78899997 -0.0027667598 2.3509886e-38 348 242
0.040016327 0.787 -0.0027597465 2.3509886e-38 349 242
0.041396201 0.787 -0.0027597465 2.3509886e-38 350 242
0.042776071 0.787 -0.0027597465 2.3509886e-38 351 242
0.044155944 0.787 -0.0027597465 2.3509886e-38 352 242
0.045535821 0.787 -0.0027597465 2.3509886e-38 353 242
0.046796467 0.78500003 -0.0027527334 2.3509886e-38 354 242
0.048050098 0.78299999 -0.0027457199 2.3509886e-38 355 242
0.049296722 0.78100002 -0.0027387065 2.3509886e-38 356 242
0.050666075 0.78100002 -0.0027387065 2.3509886e-38 357 242
0.051968798 0.77999997 -0.0027351999 2.3509886e-38 358 242
0.053062879 0.77600002 -0.0027211732 2.3509886e-38 359 242
0.054283198 0.77399999 -0.0027141599 2.3509886e-38 360 242
0.055640277 0.77399999 -0.0027141599 2.3509886e-38 361 242
0.056997359 0.77399999 -0.0027141599 2.3509886e-38 362 242
0.058279041 0.773 -0.0027106532 2.3509886e-38 363 242
0.059634373 0.773 -0.0027106532 2.3509886e-38 364 242
0.060989697 0.773 -0.0027106532 2.3509886e-38 365 242
0.06234502 0.773 -0.0027106532 2.3509886e-38 366 242
0.063700356 0.773 -0.0027106532 2.3509886e-38 367 242
0.065055676 0.773 -0.0027106532 2.3231481e-38 368 242
0.066411003 0.773 -0.0027106532 2.1664156e-38 369 242
0.067766331 0.773 -0.0027106532 2.0094665e-38 370 242
0.069121659 0.773 -0.0027106532 1.6867818e-38 371 242
0.070476986 0.773 -0.0027106532 1.5026789e-38 372 242
0.071832314 0.773 -0.0027106532 1.521154e-38 373 242
0.073187642 0.773 -0.0027106532 1.5393414e-38 374 242
0.074542962 0.773 -0.0027106532 1.4378903e-38 375 242
0.075898297 0.773 -0.0027106532 1.4466764e-38 376 242
0.077053741 0.77100003 -0.0027036399 1.3176026e-38 377 242
0.078405559 0.77100003 -0.0027036399 1.1337854e-38 378 242
0.079757385 0.77100003 -0.0027036399 1.1245658e-38 379 242
0.080688395 0.76700002 -0.0026896133 1.1615167e-38 380 242
0.08203321 0.76700002 -0.0026896133 1.1983948e-38 381 242
0.083378009 0.76700002 -0.0026896133 1.2168336e-38 382 242
0.084722824 0.76700002 -0.0026896133 1.2168336e-38 383 242
-0.037966676 0.80199999 -0.0042185197 2.3509886e-38 293 243
-0.036606088 0.80299997 -0.0042237798 2.3509886e-38 294 243
-0.035198163 0.80299997 -0.0042237798 2.3509886e-38 295 243
-0.0338744 0.80500001 -0.0042343 2.3509886e-38 296 243
-0.032543618 0.80699998 -0.0042448197 2.3509886e-38 297 243
-0.03136012 0.81300002 -0.0042763799 2.3509886e-38 298 243
-0.030008299 0.815 -0.0042868997 2.3509886e-38 299 243
-0.028579332 0.815 -0.0042868997 2.3509886e-38 300 243
-0.027150365 0.815 -0.0042868997 2.3509886e-38 301 243
-0.02565828 0.81300002 -0.0042763799 2.3509886e-38 302 243
-0.024173206 0.81099999 -0.0042658602 2.3509886e-38 303 243
-0.022695147 0.80900002 -0.00425534 2.3509886e-38 304 243
-0.0211189 0.80299997 -0.0042237798 2.3509886e-38 305 243
-0.019686425 0.80199999 -0.0042185197 2.3509886e-38 306 243
-0.018234666 0.80000001 -0.0042079999 2.3509886e-38 307 243
-0.016832 0.80000001 -0.0042079999 2.3509886e-38 308 243
-0.015390759 0.79799998 -0.0041974802 2.3509886e-38 309 243
-0.013991599 0.79799998 -0.0041974802 2.3509886e-38 310 243
-0.01256088 0.796 -0.0041869599 2.3509886e-38 311 243
-0.011165227 0.796 -0.0041869599 2.3509886e-38 312 243
-0.0097695729 0.796 -0.0041869599 2.3509886e-38 313 243
-0.0083739199 0.796 -0.0041869599 2.3509886e-38 314 243
-0.0069782664 0.796 -0.0041869599 2.3509886e-38 315 243
-0.0055826134 0.796 -0.0041869599 2.3509886e-38 316 243
-0.0041974802 0.79799998 -0.0041974802 2.3509886e-38 317 243
-0.0027983198 0.79799998 -0.0041974802 2.3509886e-38 318 243
-0.0013956534 0.796 -0.0041869599 2.3509886e-38 319 243
0 0.796 -0.0041869599 2.3509886e-38 320 243
0.0013956534 0.796 -0.0041869599 2.3509886e-38 321 243
0.0027913067 0.796 -0.0041869599 2.3509886e-38 322 243
0.0041869599 0.796 -0.0041869599 2.3509886e-38 323 243
0.0055826134 0.796 -0.0041869599 2.3509886e-38 324 243
0.0069607338 0.79400003 -0.0041764397 2.3509886e-38 325 243
0.0083528794 0.79400003 -0.0041764397 2.3509886e-38 326 243
0.0097450269 0.79400003 -0.0041764397 2.3509886e-38 327 243
0.011137174 0.79400003 -0.0041764397 2.3509886e-38 328 243
0.01252932 0.79400003 -0.0041764397 2.3509886e-38 329 243
0.013921468 0.79400003 -0.0041764397 2.3509886e-38 330 243
0.015313613 0.79400003 -0.0041764397 2.3509886e-38 331 243
0.01666368 0.792 -0.00416592 2.3509886e-38 332 243
0.018052319 0.792 -0.00416592 2.3509886e-38 333 243
0.019391866 0.79000002 -0.0041554002 2.3509886e-38 334 243
0.020777 0.79000002 -0.0041554002 2.3509886e-38 335 243
0.022162134 0.79000002 -0.0041554002 2.3509886e-38 336 243
0.02360688 0.792 -0.00416592 2.3509886e-38 337 243
0.024995519 0.792 -0.00416592 2.3509886e-38 338 243
0.02638416 0.792 -0.00416592 2.3509886e-38 339 243
0.027772799 0.792 -0.00416592 2.3509886e-38 340 243
0.029161438 0.792 -0.00416592 2.3509886e-38 341 243
0.030550079 0.792 -0.00416592 2.3509886e-38 342 243
0.031817738 0.78899997 -0.0041501396 2.3509886e-38 343 243
0.033201117 0.78899997 -0.0041501396 2.3509886e-38 344 243
0.034496833 0.787 -0.0041396199 2.3509886e-38 345 243
0.035876706 0.787 -0.0041396199 2.3509886e-38 346 243
0.03725658 0.787 -0.0041396199 2.3509886e-38 347 243
0.03863645 0.787 -0.0041396199 2.3509886e-38 348 243
0.040016327 0.787 -0.0041396199 2.3509886e-38 349 243
0.041396201 0.787 -0.0041396199 2.3509886e-38 350 243
0.042776071 0.787 -0.0041396199 2.3509886e-38 351 243
0.044043735 0.78500003 -0.0041291001 2.3509886e-38 352 243
0.045420099 0.78500003 -0.0041291001 2.3509886e-38 353 243
0.046796467 0.78500003 -0.0041291001 2.3509886e-38 354 243
0.048050098 0.78299999 -0.0041185799 2.3509886e-38 355 243
0.049296722 0.78100002 -0.0041080597 2.3509886e-38 356 243
0.050601196 0.77999997 -0.0041027996 2.3509886e-38 357 243
0.051835544 0.778 -0.0040922803 2.3509886e-38 358 243
0.053062879 0.77600002 -0.0040817601 2.3509886e-38 359 243
0.054283198 0.77399999 -0.0040712398 2.3509886e-38 360 243
0.055640277 0.77399999 -0.0040712398 2.3509886e-38 361 243
0.056997359 0.77399999 -0.0040712398 2.3509886e-38 362 243
0.058279041 0.773 -0.0040659797 2.3509886e-38 363 243
0.059634373 0.773 -0.0040659797 2.3509886e-38 364 243
0.060989697 0.773 -0.0040659797 2.3509886e-38 365 243
0.062183715 0.77100003 -0.0040554604 2.3509886e-38 366 243
0.063535534 0.77100003 -0.0040554604 2.3509886e-38 367 243
0.064887367 0.77100003 -0.0040554604 2.3509886e-38 368 243
0.066239186 0.77100003 -0.0040554604 2.3509886e-38 369 243
0.067591004 0.77100003 -0.0040554604 2.3509886e-38 370 243
0.068942823 0.77100003 -0.0040554604 2.3324771e-38 371 243
0.070294641 0.77100003 -0.0040554604 2.258649e-38 372 243
0.071646459 0.77100003 -0.0040554604 2.240174e-38 373 243
0.072998285 0.77100003 -0.0040554604 2.1941834e-38 374 243
0.074157231 0.76899999 -0.0040449398 2.0466704e-38 375 243
0.07550554 0.76899999 -0.0040449398 1.9631167e-38 376 243
0.076853856 0.76899999 -0.0040449398 1.7233721e-38 377 243
0.078202173 0.76899999 -0.0040449398 1.4378495e-38 378 243
0.079550482 0.76899999 -0.0040449398 1.1612626e-38 379 243
0.080688395 0.76700002 -0.00403442 1.0599193e-38 380 243
0.08203321 0.76700002 -0.00403442 1.1889932e-38 381 243
0.083378009 0.76700002 -0.00403442 1.2442049e-38 382 243
0.084722824 0.76700002 -0.00403442 1.2258018e-38 383 243
0.086067624 0.76700002 -0.00403442 1.1432576e-38 384 243
-0.03937285 0.80199999 -0.0056246929 2.3509886e-38 292 244
-0.037966676 0.80199999 -0.0056246929 2.3509886e-38 293 244
-0.036606088 0.80299997 -0.0056317062 2.3509886e-38 294 244
-0.035198163 0.80299997 -0.0056317062 2.3509886e-38 295 244
-0.0338744 0.80500001 -0.0056457333 2.3509886e-38 296 244
-0.032462966 0.80500001 -0.0056457333 2.3509886e-38 297 244
-0.031282969 0.81099999 -0.0056878133 2.3509886e-38 298 244
-0.02986102 0.81099999 -0.0056878133 2.3509886e-38 299 244
-0.0285092 0.81300002 -0.0057018399 2.3509886e-38 300 244
-0.02708374 0.81300002 -0.0057018399 2.3509886e-38 301 244
-0.025595158 0.81099999 -0.0056878133 2.3509886e-38 302 244
-0.023994366 0.80500001 -0.0056457333 2.3509886e-38 303 244
-0.022498772 0.80199999 -0.0056246929 2.3509886e-38 304 244
-0.02104 0.80000001 -0.0056106667 2.3509886e-38 305 244
-0.019588239 0.79799998 -0.0055966396 2.3509886e-38 306 244
-0.018189078 0.79799998 -0.0055966396 2.3509886e-38 307 244
-0.01674784 0.796 -0.0055826134 2.3509886e-38 308 244
-0.015352187 0.796 -0.0055826134 2.3509886e-38 309 244
-0.013956533 0.796 -0.0055826134 2.3509886e-38 310 244
-0.01256088 0.796 -0.0055826134 2.3509886e-38 311 244
-0.011137174 0.79400003 -0.0055685868 2.3509886e-38 312 244
-0.0097450269 0.79400003 -0.0055685868 2.3509886e-38 313 244
-0.0083528794 0.79400003 -0.0055685868 2.3509886e-38 314 244
-0.0069607338 0.79400003 -0.0055685868 2.3509886e-38 315 244
-0.0055826134 0.796 -0.0055826134 2.3509886e-38 316 244
-0.0041869599 0.796 -0.0055826134 2.3509886e-38 317 244
-0.0027913067 0.796 -0.0055826134 2.3509886e-38 318 244
-0.0013921467 0.79400003 -0.0055685868 2.3509886e-38 319 244
0 0.79400003 -0.0055685868 2.3509886e-38 320 244
0.0013921467 0.79400003 -0.0055685868 2.3509886e-38 321 244
0.0027842934 0.79400003 -0.0055685868 2.3509886e-38 322 244
0.0041764397 0.79400003 -0.0055685868 2.3509886e-38 323 244
0.0055545596 0.792 -0.0055545596 2.3509886e-38 324 244
0.0069431998 0.792 -0.0055545596 2.3509886e-38 325 244
0.0083318399 0.792 -0.0055545596 2.3509886e-38 326 244
0.0097204801 0.792 -0.0055545596 2.3509886e-38 327 244
0.011137174 0.79400003 -0.0055685868 2.3509886e-38 328 244
0.012497759 0.792 -0.0055545596 2.3509886e-38 329 244
0.0138864 0.792 -0.0055545596 2.3509886e-38 330 244
0.01527504 0.792 -0.0055545596 2.3509886e-38 331 244
0.016621601 0.79000002 -0.0055405335 2.3509886e-38 332 244
0.018006733 0.79000002 -0.0055405335 2.3509886e-38 333 244
0.019391866 0.79000002 -0.0055405335 2.3509886e-38 334 244
0.020777 0.79000002 -0.0055405335 2.3509886e-38 335 244
0.022162134 0.79000002 -0.0055405335 2.3509886e-38 336 244
0.023547266 0.79000002 -0.0055405335 2.3509886e-38 337 244
0.024995519 0.792 -0.0055545596 2.3509886e-38 338 244
0.02638416 0.792 -0.0055545596 2.3509886e-38 339 244
0.027772799 0.792 -0.0055545596 2.3509886e-38 340 244
0.029087799 0.79000002 -0.0055405335 2.3509886e-38 341 244
0.030472934 0.79000002 -0.0055405335 2.3509886e-38 342 244
0.031817738 0.78899997 -0.0055335197 2.3509886e-38 343 244
0.033201117 0.78899997 -0.0055335197 2.3509886e-38 344 244
0.034496833 0.787 -0.005519493 2.3509886e-38 345 244
0.035876706 0.787 -0.005519493 2.3509886e-38 346 244
0.03725658 0.787 -0.005519493 2.3509886e-38 347 244
0.03863645 0.787 -0.005519493 2.3509886e-38 348 244
0.040016327 0.787 -0.005519493 2.3509886e-38 349 244
0.041291002 0.78500003 -0.0055054668 2.3509886e-38 350 244
0.042667367 0.78500003 -0.0055054668 2.3509886e-38 351 244
0.043931518 0.78299999 -0.0054914397 2.3509886e-38 352 244
0.04530438 0.78299999 -0.0054914397 2.3509886e-38 353 244
0.046677239 0.78299999 -0.0054914397 2.3509886e-38 354 244
0.047927368 0.78100002 -0.0054774131 2.3509886e-38 355 244
0.049233593 0.77999997 -0.0054703997 2.3509886e-38 356 244
0.050601196 0.77999997 -0.0054703997 2.3509886e-38 357 244
0.051835544 0.778 -0.0054563731 2.3509886e-38 358 244
0.053062879 0.77600002 -0.0054423464 2.3509886e-38 359 244
0.054283198 0.77399999 -0.0054283198 2.3509886e-38 360 244
0.055640277 0.77399999 -0.0054283198 2.3509886e-38 361 244
0.056997359 0.77399999 -0.0054283198 2.3509886e-38 362 244
0.058279041 0.773 -0.0054213065 2.3509886e-38 363 244
0.059634373 0.773 -0.0054213065 2.3509886e-38 364 244
0.060989697 0.773 -0.0054213065 2.3509886e-38 365 244
0.062183715 0.77100003 -0.0054072798 2.3509886e-38 366 244
0.063370727 0.76899999 -0.0053932532 2.3509886e-38 367 244
0.064719036 0.76899999 -0.0053932532 2.3509886e-38 368 244
0.066239186 0.77100003 -0.0054072798 2.3509886e-38 369 244
0.067591004 0.77100003 -0.0054072798 2.3509886e-38 370 244
0.068763971 0.76899999 -0.0053932532 2.3509886e-38 371 244
0.070112288 0.76899999 -0.0053932532 2.3509886e-38 372 244
0.071460605 0.76899999 -0.0053932532 2.3509886e-38 373 244
0.072808921 0.76899999 -0.0053932532 2.3509886e-38 374 244
0.074157231 0.76899999 -0.0053932532 2.3509886e-38 375 244
0.07550554 0.76899999 -0.0053932532 2.3506999e-38 376 244
0.07665398 0.76700002 -0.0053792265 2.2308096e-38 377 244
0.077998787 0.76700002 -0.0053792265 2.0648189e-38 378 244
0.079343595 0.76700002 -0.0053792265 1.7974516e-38 379 244
0.080688395 0.76700002 -0.0053792265 1.6405745e-38 380 244
0.08203321 0.76700002 -0.0053792265 1.6221354e-38 381 244
0.083378009 0.76700002 -0.0053792265 1.58479e-38 382 244
0.084722824 0.76700002 -0.0053792265 1.391215e-38 383 244
0.086067624 0.76700002 -0.0053792265 1.0602807e-38 384 244
0.087412432 0.76700002 -0.0053792265 1.0602807e-38 385 244
-0.040829871 0.80299997 -0.0070396326 2.3509886e-38 291 245
-0.03937285 0.80199999 -0.0070308661 2.3509886e-38 292 245
-0.037966676 0.80199999 -0.0070308661 2.3509886e-38 293 245
-0.036606088 0.80299997 -0.0070396326 2.3509886e-38 294 245
-0.035198163 0.80299997 -0.0070396326 2.3509886e-38 295 245
-0.0338744 0.80500001 -0.0070571667 2.3509886e-38 296 245
-0.032462966 0.80500001 -0.0070571667 2.3509886e-38 297 245
-0.031128678 0.80699998 -0.0070746993 2.3509886e-38 298 245
-0.029713741 0.80699998 -0.0070746993 2.3509886e-38 299 245
-0.028368933 0.80900002 -0.0070922333 2.3509886e-38 300 245
-0.026950486 0.80900002 -0.0070922333 2.3509886e-38 301 245
-0.025405798 0.80500001 -0.0070571667 2.3509886e-38 302 245
-0.023934752 0.80299997 -0.0070396326 2.3509886e-38 303 245
-0.022386558 0.79799998 -0.0069957995 2.3509886e-38 304 245
-0.020987399 0.79799998 -0.0069957995 2.3509886e-38 305 245
-0.019539146 0.796 -0.0069782664 2.3509886e-38 306 245
-0.018143492 0.796 -0.0069782664 2.3509886e-38 307 245
-0.016705759 0.79400003 -0.0069607338 2.3509886e-38 308 245
-0.015313613 0.79400003 -0.0069607338 2.3509886e-38 309 245
-0.013921468 0.79400003 -0.0069607338 2.3509886e-38 310 245
-0.01252932 0.79400003 -0.0069607338 2.3509886e-38 311 245
-0.011109119 0.792 -0.0069431998 2.3509886e-38 312 245
-0.0097204801 0.792 -0.0069431998 2.3509886e-38 313 245
-0.0083318399 0.792 -0.0069431998 2.3509886e-38 314 245
-0.0069431998 0.792 -0.0069431998 2.3509886e-38 315 245
-0.0055685868 0.79400003 -0.0069607338 2.3509886e-38 316 245
-0.0041764397 0.79400003 -0.0069607338 2.3509886e-38 317 245
-0.0027842934 0.79400003 -0.0069607338 2.3509886e-38 318 245
-0.0013886399 0.792 -0.0069431998 2.3509886e-38 319 245
0 0.79000002 -0.0069256667 2.3509886e-38 320 245
0.0013851334 0.79000002 -0.0069256667 2.3509886e-38 321 245
0.0027772798 0.792 -0.0069431998 2.3509886e-38 322 245
0.0041554002 0.79000002 -0.0069256667 2.3509886e-38 323 245
0.0055405335 0.79000002 -0.0069256667 2.3509886e-38 324 245
0.0069256667 0.79000002 -0.0069256667 2.3509886e-38 325 245
0.0083108004 0.79000002 -0.0069256667 2.3509886e-38 326 245
0.0096959332 0.79000002 -0.0069256667 2.3509886e-38 327 245
0.011081067 0.79000002 -0.0069256667 2.3509886e-38 328 245
0.0124662 0.79000002 -0.0069256667 2.3509886e-38 329 245
0.013851333 0.79000002 -0.0069256667 2.3509886e-38 330 245
0.015217179 0.78899997 -0.0069168997 2.3509886e-38 331 245
0.016600559 0.78899997 -0.0069168997 2.3509886e-38 332 245
0.017983939 0.78899997 -0.0069168997 2.3509886e-38 333 245
0.019367319 0.78899997 -0.0069168997 2.3509886e-38 334 245
0.0207507 0.78899997 -0.0069168997 2.3509886e-38 335 245
0.022134079 0.78899997 -0.0069168997 2.3509886e-38 336 245
0.023547266 0.79000002 -0.0069256667 2.3509886e-38 337 245
0.024932399 0.79000002 -0.0069256667 2.3509886e-38 338 245
0.026317533 0.79000002 -0.0069256667 2.3509886e-38 339 245
0.027702667 0.79000002 -0.0069256667 2.3509886e-38 340 245
0.02905098 0.78899997 -0.0069168997 2.3509886e-38 341 245
0.03035721 0.787 -0.0068993662 2.3509886e-38 342 245
0.031737085 0.787 -0.0068993662 2.3509886e-38 343 245
0.033116959 0.787 -0.0068993662 2.3509886e-38 344 245
0.034409165 0.78500003 -0.0068818335 2.3509886e-38 345 245
0.035785533 0.78500003 -0.0068818335 2.3509886e-38 346 245
0.037161902 0.78500003 -0.0068818335 2.3509886e-38 347 245
0.03853827 0.78500003 -0.0068818335 2.3509886e-38 348 245
0.039914634 0.78500003 -0.0068818335 2.3509886e-38 349 245
0.041291002 0.78500003 -0.0068818335 2.3509886e-38 350 245
0.042558655 0.78299999 -0.0068642995 2.3509886e-38 351 245
0.043931518 0.78299999 -0.0068642995 2.3509886e-38 352 245
0.045188658 0.78100002 -0.0068467669 2.3509886e-38 353 245
0.046558015 0.78100002 -0.0068467669 2.3509886e-38 354 245
0.047927368 0.78100002 -0.0068467669 2.3509886e-38 355 245
0.049233593 0.77999997 -0.0068379994 2.3509886e-38 356 245
0.050471451 0.778 -0.0068204664 2.3509886e-38 357 245
0.051702294 0.77600002 -0.0068029333 2.3509886e-38 358 245
0.052926116 0.77399999 -0.0067853997 2.3509886e-38 359 245
0.054283198 0.77399999 -0.0067853997 2.3509886e-38 360 245
0.055640277 0.77399999 -0.0067853997 2.3509886e-38 361 245
0.056997359 0.77399999 -0.0067853997 2.3509886e-38 362 245
0.058279041 0.773 -0.0067766332 2.3509886e-38 363 245
0.059634373 0.773 -0.0067766332 2.3509886e-38 364 245
0.060831897 0.77100003 -0.0067590997 2.3509886e-38 365 245
0.062183715 0.77100003 -0.0067590997 2.3509886e-38 366 245
0.063370727 0.76899999 -0.0067415666 2.3509886e-38 367 245
0.064719036 0.76899999 -0.0067415666 2.3509886e-38 368 245
0.066067353 0.76899999 -0.0067415666 2.3509886e-38 369 245
0.067415662 0.76899999 -0.0067415666 2.3509886e-38 370 245
0.068585135 0.76700002 -0.006724033 2.3509886e-38 371 245
0.06992995 0.76700002 -0.006724033 2.3509886e-38 372 245
0.07127475 0.76700002 -0.006724033 2.3509886e-38 373 245
0.072619557 0.76700002 -0.006724033 2.3509886e-38 374 245
0.073964365 0.76700002 -0.006724033 2.3509886e-38 375 245
0.075309172 0.76700002 -0.006724033 2.3509886e-38 376 245
0.07665398 0.76700002 -0.006724033 2.3509886e-38 377 245
0.077998787 0.76700002 -0.006724033 2.3509884e-38 378 245
0.079240143 0.76599997 -0.0067152665 2.2955267e-38 379 245
0.080583192 0.76599997 -0.0067152665 2.1847471e-38 380 245
0.081926249 0.76599997 -0.0067152665 2.0464536e-38 381 245
0.083269298 0.76599997 -0.0067152665 1.9720835e-38 382 245
0.084612355 0.76599997 -0.0067152665 1.6309957e-38 383 245
0.085955404 0.76599997 -0.0067152665 1.2809024e-38 384 245
0.087412432 0.76700002 -0.006724033 1.1886709e-38 385 245
0.088757239 0.76700002 -0.006724033 1.1614814e-38 386 245
-0.040829871 0.80299997 -0.0084475596 2.3509886e-38 291 246
-0.039421946 0.80299997 -0.0084475596 2.3509886e-38 292 246
-0.038014017 0.80299997 -0.0084475596 2.3509886e-38 293 246
-0.036606088 0.80299997 -0.0084475596 2.3509886e-38 294 246
-0.035198163 0.80299997 -0.0084475596 2.3509886e-38 295 246
-0.0338744 0.80500001 -0.0084686 2.3509886e-38 296 246
-0.032462966 0.80500001 -0.0084686 2.3509886e-38 297 246
-0.030974386 0.80299997 -0.0084475596 2.3509886e-38 298 246
-0.029529637 0.80199999 -0.0084370393 2.3509886e-38 299 246
-0.028053332 0.80000001 -0.0084159998 2.3509886e-38 300 246
-0.026650665 0.80000001 -0.0084159998 2.3509886e-38 301 246
-0.025184877 0.79799998 -0.0083949603 2.3509886e-38 302 246
-0.02378572 0.79799998 -0.0083949603 2.3509886e-38 303 246
-0.022386558 0.79799998 -0.0083949603 2.3509886e-38 304 246
-0.0209348 0.796 -0.0083739199 2.3509886e-38 305 246
-0.019539146 0.796 -0.0083739199 2.3509886e-38 306 246
-0.018097907 0.79400003 -0.0083528794 2.3509886e-38 307 246
-0.016705759 0.79400003 -0.0083528794 2.3509886e-38 308 246
-0.015313613 0.79400003 -0.0083528794 2.3509886e-38 309 246
-0.0138864 0.792 -0.0083318399 2.3509886e-38 310 246
-0.012497759 0.792 -0.0083318399 2.3509886e-38 311 246
-0.011109119 0.792 -0.0083318399 2.3509886e-38 312 246
-0.0096959332 0.79000002 -0.0083108004 2.3509886e-38 313 246
-0.0083108004 0.79000002 -0.0083108004 2.3509886e-38 314 246
-0.0069256667 0.79000002 -0.0083108004 2.3509886e-38 315 246
-0.0055405335 0.79000002 -0.0083108004 2.3509886e-38 316 246
-0.0041501396 0.78899997 -0.0083002793 2.3509886e-38 317 246
-0.0027597465 0.787 -0.0082792398 2.3509886e-38 318 246
-0.0013798733 0.787 -0.0082792398 2.3509886e-38 319 246
0 0.787 -0.0082792398 2.3509886e-38 320 246
0.0013798733 0.787 -0.0082792398 2.3509886e-38 321 246
0.0027667598 0.78899997 -0.0083002793 2.3509886e-38 322 246
0.0041501396 0.78899997 -0.0083002793 2.3509886e-38 323 246
0.005519493 0.787 -0.0082792398 2.3509886e-38 324 246
0.0068993662 0.787 -0.0082792398 2.3509886e-38 325 246
0.0083002793 0.78899997 -0.0083002793 2.3509886e-38 326 246
0.0096836593 0.78899997 -0.0083002793 2.3509886e-38 327 246
0.011067039 0.78899997 -0.0083002793 2.3509886e-38 328 246
0.012450419 0.78899997 -0.0083002793 2.3509886e-38 329 246
0.013833799 0.78899997 -0.0083002793 2.3509886e-38 330 246
0.015217179 0.78899997 -0.0083002793 2.3509886e-38 331 246
0.016600559 0.78899997 -0.0083002793 2.3509886e-38 332 246
0.017983939 0.78899997 -0.0083002793 2.3509886e-38 333 246
0.019367319 0.78899997 -0.0083002793 2.3509886e-38 334 246
0.0207507 0.78899997 -0.0083002793 2.3509886e-38 335 246
0.022134079 0.78899997 -0.0083002793 2.3509886e-38 336 246
0.023547266 0.79000002 -0.0083108004 2.3509886e-38 337 246
0.024932399 0.79000002 -0.0083108004 2.3509886e-38 338 246
0.026317533 0.79000002 -0.0083108004 2.3509886e-38 339 246
0.027702667 0.79000002 -0.0083108004 2.3509886e-38 340 246
0.02905098 0.78899997 -0.0083002793 2.3509886e-38 341 246
0.03035721 0.787 -0.0082792398 2.3509886e-38 342 246
0.031737085 0.787 -0.0082792398 2.3509886e-38 343 246
0.033032801 0.78500003 -0.0082582003 2.3509886e-38 344 246
0.034409165 0.78500003 -0.0082582003 2.3509886e-38 345 246
0.035694357 0.78299999 -0.0082371598 2.3509886e-38 346 246
0.037067216 0.78299999 -0.0082371598 2.3509886e-38 347 246
0.038440078 0.78299999 -0.0082371598 2.3509886e-38 348 246
0.039812941 0.78299999 -0.0082371598 2.3509886e-38 349 246
0.0411858 0.78299999 -0.0082371598 2.3509886e-38 350 246
0.042558655 0.78299999 -0.0082371598 2.3509886e-38 351 246
0.043819305 0.78100002 -0.0082161194 2.3509886e-38 352 246
0.045188658 0.78100002 -0.0082161194 2.3509886e-38 353 246
0.046558015 0.78100002 -0.0082161194 2.3509886e-38 354 246
0.047865998 0.77999997 -0.0082055992 2.3509886e-38 355 246
0.049107358 0.778 -0.0081845606 2.3509886e-38 356 246
0.050341707 0.77600002 -0.0081635201 2.3509886e-38 357 246
0.051702294 0.77600002 -0.0081635201 2.3509886e-38 358 246
0.052926116 0.77399999 -0.0081424797 2.3509886e-38 359 246
0.054283198 0.77399999 -0.0081424797 2.3509886e-38 360 246
0.055640277 0.77399999 -0.0081424797 2.3509886e-38 361 246
0.056923717 0.773 -0.0081319595 2.3509886e-38 362 246
0.058279041 0.773 -0.0081319595 2.3509886e-38 363 246
0.059480079 0.77100003 -0.0081109209 2.3509886e-38 364 246
0.060831897 0.77100003 -0.0081109209 2.3509886e-38 365 246
0.062022414 0.76899999 -0.0080898795 2.3509886e-38 366 246
0.063370727 0.76899999 -0.0080898795 2.3509886e-38 367 246
0.06455072 0.76700002 -0.00806884 2.3509886e-38 368 246
0.065895528 0.76700002 -0.00806884 2.3509886e-38 369 246
0.067240335 0.76700002 -0.00806884 2.3509886e-38 370 246
0.068585135 0.76700002 -0.00806884 2.3509886e-38 371 246
0.06992995 0.76700002 -0.00806884 2.3509886e-38 372 246
0.07127475 0.76700002 -0.00806884 2.3509886e-38 373 246
0.072619557 0.76700002 -0.00806884 2.3509886e-38 374 246
0.073964365 0.76700002 -0.00806884 2.3509886e-38 375 246
0.075309172 0.76700002 -0.00806884 2.3509886e-38 376 246
0.076554038 0.76599997 -0.0080583189 2.3509886e-38 377 246
0.077897087 0.76599997 -0.0080583189 2.3509886e-38 378 246
0.079240143 0.76599997 -0.0080583189 2.3509886e-38 379 246
0.080583192 0.76599997 -0.0080583189 2.3509886e-38 380 246
0.081926249 0.76599997 -0.0080583189 2.3509886e-38 381 246
0.083269298 0.76599997 -0.0080583189 2.3506996e-38 382 246
0.084612355 0.76599997 -0.0080583189 2.1386497e-38 383 246
0.085955404 0.76599997 -0.0080583189 1.8890352e-38 384 246
0.087412432 0.76700002 -0.00806884 1.6493625e-38 385 246
0.088757239 0.76700002 -0.00806884 1.456541e-38 386 246
0.090102047 0.76700002 -0.00806884 1.2536748e-38 387 246
-0.041974798 0.79799998 -0.0097941197 2.3509886e-38 290 247
-0.040575638 0.79799998 -0.0097941197 2.3509886e-38 291 247
-0.03937285 0.80199999 -0.0098432126 2.3509886e-38 292 247
-0.038014017 0.80299997 -0.0098554865 2.3509886e-38 293 247
-0.036606088 0.80299997 -0.0098554865 2.3509886e-38 294 247
-0.035198163 0.80299997 -0.0098554865 2.3509886e-38 295 247
-0.033748157 0.80199999 -0.0098432126 2.3509886e-38 296 247
-0.032261331 0.80000001 -0.0098186666 2.3509886e-38 297 247
-0.030858666 0.80000001 -0.0098186666 2.3509886e-38 298 247
-0.029382357 0.79799998 -0.0097941197 2.3509886e-38 299 247
-0.027913066 0.796 -0.0097695729 2.3509886e-38 300 247
-0.026517414 0.796 -0.0097695729 2.3509886e-38 301 247
-0.02512176 0.796 -0.0097695729 2.3509886e-38 302 247
-0.023726106 0.796 -0.0097695729 2.3509886e-38 303 247
-0.022330454 0.796 -0.0097695729 2.3509886e-38 304 247
-0.0208822 0.79400003 -0.0097450269 2.3509886e-38 305 247
-0.019490054 0.79400003 -0.0097450269 2.3509886e-38 306 247
-0.018052319 0.792 -0.0097204801 2.3509886e-38 307 247
-0.01666368 0.792 -0.0097204801 2.3509886e-38 308 247
-0.015236467 0.79000002 -0.0096959332 2.3509886e-38 309 247
-0.013851333 0.79000002 -0.0096959332 2.3509886e-38 310 247
-0.0124662 0.79000002 -0.0096959332 2.3509886e-38 311 247
-0.011067039 0.78899997 -0.0096836593 2.3509886e-38 312 247
-0.0096836593 0.78899997 -0.0096836593 2.3509886e-38 313 247
-0.0082792398 0.787 -0.0096591124 2.3509886e-38 314 247
-0.0068993662 0.787 -0.0096591124 2.3509886e-38 315 247
-0.005519493 0.787 -0.0096591124 2.3509886e-38 316 247
-0.0041291001 0.78500003 -0.0096345674 2.3509886e-38 317 247
-0.0027457199 0.78299999 -0.0096100196 2.3509886e-38 318 247
-0.0013728599 0.78299999 -0.0096100196 2.3509886e-38 319 247
0 0.78299999 -0.0096100196 2.3509886e-38 320 247
0.0013693533 0.78100002 -0.0095854728 2.3509886e-38 321 247
0.0027387065 0.78100002 -0.0095854728 2.3509886e-38 322 247
0.0041291001 0.78500003 -0.0096345674 2.3509886e-38 323 247
0.0055054668 0.78500003 -0.0096345674 2.3509886e-38 324 247
0.0068818335 0.78500003 -0.0096345674 2.3509886e-38 325 247
0.0082792398 0.787 -0.0096591124 2.3509886e-38 326 247
0.0096591124 0.787 -0.0096591124 2.3509886e-38 327 247
0.011038986 0.787 -0.0096591124 2.3509886e-38 328 247
0.01241886 0.787 -0.0096591124 2.3509886e-38 329 247
0.013798732 0.787 -0.0096591124 2.3509886e-38 330 247
0.015178605 0.787 -0.0096591124 2.3509886e-38 331 247
0.01655848 0.787 -0.0096591124 2.3509886e-38 332 247
0.017938353 0.787 -0.0096591124 2.3509886e-38 333 247
0.019318225 0.787 -0.0096591124 2.3509886e-38 334 247
0.0206981 0.787 -0.0096591124 2.3509886e-38 335 247
0.022134079 0.78899997 -0.0096836593 2.3509886e-38 336 247
0.023517458 0.78899997 -0.0096836593 2.3509886e-38 337 247
0.024900839 0.78899997 -0.0096836593 2.3509886e-38 338 247
0.026284218 0.78899997 -0.0096836593 2.3509886e-38 339 247
0.027667599 0.78899997 -0.0096836593 2.3509886e-38 340 247
0.02897734 0.787 -0.0096591124 2.3509886e-38 341 247
0.030280067 0.78500003 -0.0096345674 2.3509886e-38 342 247
0.031656433 0.78500003 -0.0096345674 2.3509886e-38 343 247
0.033032801 0.78500003 -0.0096345674 2.3509886e-38 344 247
0.034409165 0.78500003 -0.0096345674 2.3509886e-38 345 247
0.035694357 0.78299999 -0.0096100196 2.3509886e-38 346 247
0.037067216 0.78299999 -0.0096100196 2.3509886e-38 347 247
0.038440078 0.78299999 -0.0096100196 2.3509886e-38 348 247
0.039812941 0.78299999 -0.0096100196 2.3509886e-38 349 247
0.0411858 0.78299999 -0.0096100196 2.3509886e-38 350 247
0.042449951 0.78100002 -0.0095854728 2.3509886e-38 351 247
0.043819305 0.78100002 -0.0095854728 2.3509886e-38 352 247
0.045188658 0.78100002 -0.0095854728 2.3509886e-38 353 247
0.046498396 0.77999997 -0.0095731998 2.3509886e-38 354 247
0.047865998 0.77999997 -0.0095731998 2.3509886e-38 355 247
0.049107358 0.778 -0.0095486529 2.3509886e-38 356 247
0.050341707 0.77600002 -0.009524107 2.3509886e-38 357 247
0.051569037 0.77399999 -0.0094995592 2.3509886e-38 358 247
0.052926116 0.77399999 -0.0094995592 2.3509886e-38 359 247
0.054283198 0.77399999 -0.0094995592 2.3509886e-38 360 247
0.055568393 0.773 -0.0094872871 2.3509886e-38 361 247
0.056923717 0.773 -0.0094872871 2.3509886e-38 362 247
0.058128256 0.77100003 -0.0094627403 2.3509886e-38 363 247
0.059480079 0.77100003 -0.0094627403 2.3509886e-38 364 247
0.060674097 0.76899999 -0.0094381925 2.3509886e-38 365 247
0.061861109 0.76700002 -0.0094136465 2.3509886e-38 366 247
0.063205913 0.76700002 -0.0094136465 2.3509886e-38 367 247
0.06455072 0.76700002 -0.0094136465 2.3509886e-38 368 247
0.065895528 0.76700002 -0.0094136465 2.3509886e-38 369 247
0.067240335 0.76700002 -0.0094136465 2.3509886e-38 370 247
0.068585135 0.76700002 -0.0094136465 2.3509886e-38 371 247
0.069838762 0.76599997 -0.0094013726 2.3509886e-38 372 247
0.071181826 0.76599997 -0.0094013726 2.3509886e-38 373 247
0.072524875 0.76599997 -0.0094013726 2.3509886e-38 374 247
0.073867925 0.76599997 -0.0094013726 2.3509886e-38 375 247
0.075210981 0.76599997 -0.0094013726 2.3509886e-38 376 247
0.076554038 0.76599997 -0.0094013726 2.3509886e-38 377 247
0.077897087 0.76599997 -0.0094013726 2.3509886e-38 378 247
0.079240143 0.76599997 -0.0094013726 2.3509886e-38 379 247
0.080583192 0.76599997 -0.0094013726 2.3509886e-38 380 247
0.081926249 0.76599997 -0.0094013726 2.3509886e-38 381 247
0.083269298 0.76599997 -0.0094013726 2.3509886e-38 382 247
0.084612355 0.76599997 -0.0094013726 2.3324774e-38 383 247
0.085955404 0.76599997 -0.0094013726 2.2215163e-38 384 247
0.08729846 0.76599997 -0.0094013726 1.972624e-38 385 247
0.088641517 0.76599997 -0.0094013726 1.8065226e-38 386 247
0.090102047 0.76700002 -0.0094136465 1.4008618e-38 387 247
0.091446854 0.76700002 -0.0094136465 1.2808629e-38 388 247
-0.041869599 0.796 -0.011165227 2.3509886e-38 290 248
-0.040473945 0.796 -0.011165227 2.3509886e-38 291 248
-0.039176479 0.79799998 -0.011193279 2.3509886e-38 292 248
-0.03777732 0.79799998 -0.011193279 2.3509886e-38 293 248
-0.036469333 0.80000001 -0.011221333 2.3509886e-38 294 248
-0.035066664 0.80000001 -0.011221333 2.3509886e-38 295 248
-0.033579841 0.79799998 -0.011193279 2.3509886e-38 296 248
-0.032180678 0.79799998 -0.011193279 2.3509886e-38 297 248
-0.030781519 0.79799998 -0.011193279 2.3509886e-38 298 248
-0.029382357 0.79799998 -0.011193279 2.3509886e-38 299 248
-0.027842935 0.79400003 -0.011137174 2.3509886e-38 300 248
-0.026450787 0.79400003 -0.011137174 2.3509886e-38 301 248
-0.02505864 0.79400003 -0.011137174 2.3509886e-38 302 248
-0.023666494 0.79400003 -0.011137174 2.3509886e-38 303 248
-0.022274347 0.79400003 -0.011137174 2.3509886e-38 304 248
-0.0208822 0.79400003 -0.011137174 2.3509886e-38 305 248
-0.019490054 0.79400003 -0.011137174 2.3509886e-38 306 248
-0.018052319 0.792 -0.011109119 2.3509886e-38 307 248
-0.016621601 0.79000002 -0.011081067 2.3509886e-38 308 248
-0.015217179 0.78899997 -0.011067039 2.3509886e-38 309 248
-0.013798732 0.787 -0.011038986 2.3509886e-38 310 248
-0.01241886 0.787 -0.011038986 2.3509886e-38 311 248
-0.011067039 0.78899997 -0.011067039 2.3509886e-38 312 248
-0.0096591124 0.787 -0.011038986 2.3509886e-38 313 248
-0.0082792398 0.787 -0.011038986 2.3509886e-38 314 248
-0.0068642995 0.78299999 -0.010982879 2.3509886e-38 315 248
-0.0054914397 0.78299999 -0.010982879 2.3509886e-38 316 248
-0.0041185799 0.78299999 -0.010982879 2.3509886e-38 317 248
-0.0027457199 0.78299999 -0.010982879 2.3509886e-38 318 248
-0.0013693533 0.78100002 -0.010954826 2.3509886e-38 319 248
0 0.78100002 -0.010954826 2.3509886e-38 320 248
0.0013693533 0.78100002 -0.010954826 2.3509886e-38 321 248
0.0027387065 0.78100002 -0.010954826 2.3509886e-38 322 248
0.0041185799 0.78299999 -0.010982879 2.3509886e-38 323 248
0.0054914397 0.78299999 -0.010982879 2.3509886e-38 324 248
0.0068642995 0.78299999 -0.010982879 2.3509886e-38 325 248
0.0082582003 0.78500003 -0.011010934 2.3509886e-38 326 248
0.0096345674 0.78500003 -0.011010934 2.3509886e-38 327 248
0.011010934 0.78500003 -0.011010934 2.3509886e-38 328 248
0.0123873 0.78500003 -0.011010934 2.3509886e-38 329 248
0.013763667 0.78500003 -0.011010934 2.3509886e-38 330 248
0.015140033 0.78500003 -0.011010934 2.3509886e-38 331 248
0.01655848 0.787 -0.011038986 2.3509886e-38 332 248
0.017938353 0.787 -0.011038986 2.3509886e-38 333 248
0.019318225 0.787 -0.011038986 2.3509886e-38 334 248
0.0206981 0.787 -0.011038986 2.3509886e-38 335 248
0.022077972 0.787 -0.011038986 2.3509886e-38 336 248
0.023457846 0.787 -0.011038986 2.3509886e-38 337 248
0.024837719 0.787 -0.011038986 2.3509886e-38 338 248
0.026217593 0.787 -0.011038986 2.3509886e-38 339 248
0.027527334 0.78500003 -0.011010934 2.3509886e-38 340 248
0.028830061 0.78299999 -0.010982879 2.3509886e-38 341 248
0.03020292 0.78299999 -0.010982879 2.3509886e-38 342 248
0.031575777 0.78299999 -0.010982879 2.3509886e-38 343 248
0.032948639 0.78299999 -0.010982879 2.3509886e-38 344 248
0.034321502 0.78299999 -0.010982879 2.3509886e-38 345 248
0.035603184 0.78100002 -0.010954826 2.3509886e-38 346 248
0.036972538 0.78100002 -0.010954826 2.3509886e-38 347 248
0.038341891 0.78100002 -0.010954826 2.3509886e-38 348 248
0.039711244 0.78100002 -0.010954826 2.3509886e-38 349 248
0.041080598 0.78100002 -0.010954826 2.3509886e-38 350 248
0.042449951 0.78100002 -0.010954826 2.3509886e-38 351 248
0.043763198 0.77999997 -0.010940799 2.3509886e-38 352 248
0.045130797 0.77999997 -0.010940799 2.3509886e-38 353 248
0.046498396 0.77999997 -0.010940799 2.3509886e-38 354 248
0.047743265 0.778 -0.010912746 2.3509886e-38 355 248
0.048981119 0.77600002 -0.010884693 2.3509886e-38 356 248
0.050211959 0.77399999 -0.01085664 2.3509886e-38 357 248
0.051569037 0.77399999 -0.01085664 2.3509886e-38 358 248
0.052857738 0.773 -0.010842613 2.3509886e-38 359 248
0.054213066 0.773 -0.010842613 2.3509886e-38 360 248
0.055568393 0.773 -0.010842613 2.3509886e-38 361 248
0.056923717 0.773 -0.010842613 2.3509886e-38 362 248
0.057977475 0.76899999 -0.010786506 2.3509886e-38 363 248
0.059325781 0.76899999 -0.010786506 2.3509886e-38 364 248
0.060516298 0.76700002 -0.010758453 2.3509886e-38 365 248
0.061861109 0.76700002 -0.010758453 2.3509886e-38 366 248
0.063123502 0.76599997 -0.010744425 2.3509886e-38 367 248
0.064466551 0.76599997 -0.010744425 2.3509886e-38 368 248
0.065809615 0.76599997 -0.010744425 2.3509886e-38 369 248
0.067152664 0.76599997 -0.010744425 2.3509886e-38 370 248
