# .PCD v.7 - Point Cloud Data file format
FIELDS x y z rgb imX imY
SIZE 4 4 4 4 4 4
TYPE F F F F F F
COUNT 1 1 1 1 1 1
WIDTH 837
HEIGHT 1
VIEWPOINT 0 0 0 1 0 0 0
POINTS 837
DATA ascii
-0.074655175 0.74699998 -0.027504537 1.0407654e-38 263 261
-0.061722592 0.74900001 -0.027578179 9.5732045e-39 273 261
-0.060248036 0.74699998 -0.027504537 9.482455e-39 274 261
-0.058701597 0.74400002 -0.027394081 1.0773192e-38 275 261
-0.057242822 0.74199998 -0.027320439 1.0039247e-38 276 261
-0.055640277 0.73799998 -0.027173158 9.76266e-39 277 261
-0.05419904 0.736 -0.02709952 7.8427648e-39 278 261
-0.052908584 0.736 -0.02709952 9.2256993e-39 279 261
-0.051407732 0.73299998 -0.026989058 9.4054214e-39 280 261
-0.049985781 0.73100001 -0.026915418 9.0362802e-39 281 261
-0.048704091 0.73100001 -0.026915418 8.5767299e-39 282 261
-0.047422405 0.73100001 -0.026915418 7.10196e-39 283 261
-0.046140719 0.73100001 -0.026915418 6.0896129e-39 284 261
-0.044859033 0.73100001 -0.026915418 8.2104711e-39 285 261
-0.043696571 0.73299998 -0.026989058 1.0414166e-38 286 261
-0.042411376 0.73299998 -0.026989058 9.6766007e-39 287 261
-0.040957868 0.73000002 -0.026878599 1.0317256e-38 288 261
-0.039297458 0.72299999 -0.026620859 1.0132865e-38 289 261
-0.038029801 0.72299999 -0.026620859 1.2509054e-38 290 261
-0.036762137 0.72299999 -0.026620859 1.1218315e-38 291 261
-0.035494477 0.72299999 -0.026620859 1.0108362e-38 292 261
-0.03422682 0.72299999 -0.026620859 9.0942252e-39 293 261
-0.032959159 0.72299999 -0.026620859 1.0763093e-38 294 261
-0.031691495 0.72299999 -0.026620859 1.104004e-38 295 261
-0.030423839 0.72299999 -0.026620859 1.0123144e-38 296 261
-0.029156178 0.72299999 -0.026620859 8.9246009e-39 297 261
-0.027772799 0.72000003 -0.026510401 5.0660709e-39 298 261
-0.026510401 0.72000003 -0.026510401 4.9738753e-39 299 261
-0.025248 0.72000003 -0.026510401 6.2646169e-39 300 261
-0.023952285 0.71899998 -0.02647358 8.2003664e-39 301 261
-0.022691639 0.71899998 -0.02647358 7.7433581e-39 302 261
-0.021371379 0.71700001 -0.02639994 9.1266513e-39 303 261
-0.020086186 0.71600002 -0.026363119 1.2249427e-38 304 261
-0.018778199 0.71399999 -0.026289478 1.1234916e-38 305 261
-0.017526319 0.71399999 -0.026289478 1.4987574e-38 306 261
-0.016274439 0.71399999 -0.026289478 1.8583563e-38 307 261
-0.015022559 0.71399999 -0.026289478 1.7845969e-38 308 261
-0.01371282 0.71100003 -0.026179021 1.5356687e-38 309 261
-0.0124662 0.71100003 -0.026179021 1.5715024e-38 310 261
-0.011203799 0.70999998 -0.026142199 1.580722e-38 311 261
-0.0099589331 0.70999998 -0.026142199 1.4885262e-38 312 261
-0.0087140659 0.70999998 -0.026142199 1.4793066e-38 313 261
-0.0075007593 0.713 -0.026252659 1.4882405e-38 314 261
-0.0062506334 0.713 -0.026252659 1.5896917e-38 315 261
-0.0049864799 0.71100003 -0.026179021 1.4796734e-38 316 261
-0.0037398601 0.71100003 -0.026179021 1.8300528e-38 317 261
-0.0024932399 0.71100003 -0.026179021 1.8053098e-38 318 261
-0.0012501266 0.713 -0.026252659 2.035799e-38 319 261
0 0.713 -0.026252659 2.045376e-38 320 261
0.0012501266 0.713 -0.026252659 1.9808391e-38 321 261
0.0025002533 0.713 -0.026252659 1.9887591e-38 322 261
0.0037398601 0.71100003 -0.026179021 1.6937689e-38 323 261
0.0049864799 0.71100003 -0.026179021 1.6007118e-38 324 261
0.0062506334 0.713 -0.026252659 1.84964e-38 325 261
0.0075007593 0.713 -0.026252659 1.9052483e-38 326 261
0.0087263398 0.71100003 -0.026179021 1.8314918e-38 327 261
0.0099729598 0.71100003 -0.026179021 1.7484379e-38 328 261
0.01121958 0.71100003 -0.026179021 1.4902902e-38 329 261
0.012448666 0.70999998 -0.026142199 1.8043312e-38 330 261
0.013693533 0.70999998 -0.026142199 2.1823332e-38 331 261
0.014938398 0.70999998 -0.026142199 1.8987618e-38 332 261
0.016183265 0.70999998 -0.026142199 2.0370552e-38 333 261
0.017428132 0.70999998 -0.026142199 2.0189768e-38 334 261
0.018672999 0.70999998 -0.026142199 1.8530245e-38 335 261
0.019917866 0.70999998 -0.026142199 1.492919e-38 336 261
0.021162732 0.70999998 -0.026142199 9.3974508e-39 337 261
0.022407599 0.70999998 -0.026142199 3.043127e-39 338 261
0.023652466 0.70999998 -0.026142199 4.9788765e-39 339 261
0.024932399 0.71100003 -0.026179021 1.0952571e-38 340 261
0.026252659 0.713 -0.026252659 1.3810636e-38 341 261
0.02754136 0.71399999 -0.026289478 1.4820844e-38 342 261
0.028873893 0.71600002 -0.026363119 1.3991084e-38 343 261
0.03012928 0.71600002 -0.026363119 1.4820818e-38 344 261
0.031384666 0.71600002 -0.026363119 1.4913015e-38 345 261
0.032640055 0.71600002 -0.026363119 1.4905435e-38 346 261
0.03389544 0.71600002 -0.026363119 1.4629208e-38 347 261
0.035150826 0.71600002 -0.026363119 1.5176599e-38 348 261
0.036457058 0.71700001 -0.02639994 1.3147936e-38 349 261
0.037714198 0.71700001 -0.02639994 1.47023e-38 350 261
0.038971342 0.71700001 -0.02639994 1.47023e-38 351 261
0.040228479 0.71700001 -0.02639994 1.4334606e-38 352 261
0.041485619 0.71700001 -0.02639994 1.4334606e-38 353 261
0.042861983 0.71899998 -0.02647358 1.4059464e-38 354 261
0.044122629 0.71899998 -0.02647358 1.4151661e-38 355 261
0.045383278 0.71899998 -0.02647358 1.4060901e-38 356 261
0.046514176 0.71700001 -0.02639994 1.4521519e-38 357 261
0.04777132 0.71700001 -0.02639994 1.4524393e-38 358 261
0.04902846 0.71700001 -0.02639994 1.4985012e-38 359 261
0.0502856 0.71700001 -0.02639994 1.4435807e-38 360 261
0.051470853 0.71600002 -0.026363119 1.5542154e-38 361 261
0.052726239 0.71600002 -0.026363119 1.2885748e-38 362 261
0.053981625 0.71600002 -0.026363119 1.0673053e-38 363 261
0.055237014 0.71600002 -0.026363119 1.0933465e-38 364 261
0.056492399 0.71600002 -0.026363119 1.167103e-38 365 261
0.057586476 0.71399999 -0.026289478 1.1030346e-38 366 261
0.058838356 0.71399999 -0.026289478 8.2651947e-39 367 261
0.060090236 0.71399999 -0.026289478 4.4999393e-39 368 261
0.061342116 0.71399999 -0.026289478 6.1558719e-39 369 261
0.062593997 0.71399999 -0.026289478 4.9857919e-39 370 261
-0.10072899 0.76599997 -0.029547172 1.5115399e-38 245 262
-0.09938594 0.76599997 -0.029547172 1.4007962e-38 246 262
-0.098426871 0.76899999 -0.02966289 1.0043192e-38 247 262
-0.097078554 0.76899999 -0.02966289 1.1776526e-38 248 262
-0.095730245 0.76899999 -0.02966289 1.2421896e-38 249 262
-0.094381928 0.76899999 -0.02966289 1.4735776e-38 250 262
-0.093275577 0.77100003 -0.029740039 1.694847e-38 251 262
-0.091923758 0.77100003 -0.029740039 1.6860978e-38 252 262
-0.090336986 0.76899999 -0.02966289 1.7229761e-38 253 262
-0.088988677 0.76899999 -0.02966289 1.6223188e-38 254 262
-0.087412432 0.76700002 -0.029585747 1.447147e-38 255 262
-0.086067624 0.76700002 -0.029585747 1.2707122e-38 256 262
-0.084722824 0.76700002 -0.029585747 9.2036863e-39 257 262
-0.083378009 0.76700002 -0.029585747 1.2599062e-38 258 262
-0.080642812 0.75400001 -0.029084291 1.5457126e-38 259 262
-0.079110399 0.75199997 -0.029007144 1.3899174e-38 260 262
-0.077584997 0.75 -0.028929999 1.3161609e-38 261 262
-0.07596492 0.74699998 -0.028814279 1.2240028e-38 262 262
-0.074655175 0.74699998 -0.028814279 1.2240028e-38 263 262
-0.073345438 0.74699998 -0.028814279 1.1043653e-38 264 262
-0.072035693 0.74699998 -0.028814279 9.1997402e-39 265 262
-0.070725955 0.74699998 -0.028814279 7.0882427e-39 266 262
-0.069602072 0.74900001 -0.028891427 6.9960456e-39 267 262
-0.068106472 0.74699998 -0.028814279 8.1020429e-39 268 262
-0.066796735 0.74699998 -0.028814279 9.2083918e-39 269 262
-0.060898528 0.73900002 -0.028505694 1.1414233e-38 273 262
-0.059602812 0.73900002 -0.028505694 1.1326013e-38 274 262
-0.0583071 0.73900002 -0.028505694 1.1971382e-38 275 262
-0.056779943 0.736 -0.028389972 7.8362754e-39 276 262
-0.055338707 0.73400003 -0.028312827 5.9001672e-39 277 262
-0.053978115 0.73299998 -0.028274251 5.2663221e-39 278 262
-0.052549154 0.73100001 -0.028197108 6.1882798e-39 279 262
-0.051267464 0.73100001 -0.028197108 7.007612e-39 280 262
-0.049985781 0.73100001 -0.028197108 4.9793081e-39 281 262
-0.048704091 0.73100001 -0.028197108 1.3930364e-39 282 262
-0.047422405 0.73100001 -0.028197108 6.5547137e-40 283 262
-0.046140719 0.73100001 -0.028197108 2.1331224e-39 284 262
-0.044859033 0.73100001 -0.028197108 7.5723044e-39 285 262
-0.043577347 0.73100001 -0.028197108 1.3460953e-38 286 262
-0.041832779 0.72299999 -0.02788852 1.5489257e-38 287 262
-0.040565118 0.72299999 -0.02788852 1.7417428e-38 288 262
-0.039297458 0.72299999 -0.02788852 1.6864613e-38 289 262
-0.038029801 0.72299999 -0.02788852 1.7499162e-38 290 262
-0.036762137 0.72299999 -0.02788852 1.5378661e-38 291 262
-0.035445385 0.722 -0.027849946 1.3894139e-38 292 262
-0.034179479 0.722 -0.027849946 1.2234618e-38 293 262
-0.032913569 0.722 -0.027849946 1.2512624e-38 294 262
-0.031647664 0.722 -0.027849946 1.1498832e-38 295 262
-0.030423839 0.72299999 -0.02788852 8.1877519e-39 296 262
-0.029035201 0.72000003 -0.027772799 6.8048174e-39 297 262
-0.027734226 0.71899998 -0.027734226 4.6951458e-39 298 262
-0.02647358 0.71899998 -0.027734226 5.4327122e-39 299 262
-0.025212931 0.71899998 -0.027734226 5.3473465e-39 300 262
-0.02388566 0.71700001 -0.027657079 6.2693028e-39 301 262
-0.02262852 0.71700001 -0.027657079 2.8663434e-39 302 262
-0.021371379 0.71700001 -0.027657079 1.3915721e-39 303 262
-0.020030079 0.71399999 -0.02754136 7.9245054e-39 304 262
-0.018778199 0.71399999 -0.02754136 1.0505983e-38 305 262
-0.017526319 0.71399999 -0.02754136 1.370547e-38 306 262
-0.016274439 0.71399999 -0.02754136 1.5364991e-38 307 262
-0.014959441 0.71100003 -0.027425639 1.7853184e-38 308 262
-0.013654959 0.708 -0.027309919 1.6469891e-38 309 262
-0.012396066 0.70700002 -0.027271347 1.6459444e-38 310 262
-0.011156459 0.70700002 -0.027271347 1.5814075e-38 311 262
-0.0099308798 0.708 -0.027309919 1.4985406e-38 312 262
-0.008689519 0.708 -0.027309919 1.7566884e-38 313 262
-0.0074691991 0.70999998 -0.027387066 1.8045171e-38 314 262
-0.0062243328 0.70999998 -0.027387066 2.2562756e-38 315 262
-0.0049794666 0.70999998 -0.027387066 2.1737315e-38 316 262
-0.0037345996 0.70999998 -0.027387066 2.0999391e-38 317 262
-0.0024897333 0.70999998 -0.027387066 2.0080289e-38 318 262
-0.00124662 0.71100003 -0.027425639 2.026468e-38 319 262
0 0.71100003 -0.027425639 2.0452649e-38 320 262
0.00124662 0.71100003 -0.027425639 1.7317637e-38 321 262
0.0024932399 0.71100003 -0.027425639 1.5629328e-38 322 262
0.0037345996 0.70999998 -0.027387066 1.387797e-38 323 262
0.0049794666 0.70999998 -0.027387066 1.5529223e-38 324 262
0.0062330998 0.71100003 -0.027425639 1.9678385e-38 325 262
0.0074797203 0.71100003 -0.027425639 1.8676825e-38 326 262
0.0087140659 0.70999998 -0.027387066 1.7201695e-38 327 262
0.0099589331 0.70999998 -0.027387066 1.7114926e-38 328 262
0.011203799 0.70999998 -0.027387066 1.8405664e-38 329 262
0.012448666 0.70999998 -0.027387066 2.0723898e-38 330 262
0.013693533 0.70999998 -0.027387066 2.1369268e-38 331 262
0.014938398 0.70999998 -0.027387066 1.5849762e-38 332 262
0.016183265 0.70999998 -0.027387066 1.5665369e-38 333 262
0.017428132 0.70999998 -0.027387066 1.6135677e-38 334 262
0.018672999 0.70999998 -0.027387066 1.5029688e-38 335 262
0.019917866 0.70999998 -0.027387066 1.4746246e-38 336 262
0.021162732 0.70999998 -0.027387066 1.4377104e-38 337 262
0.022407599 0.70999998 -0.027387066 1.4652246e-38 338 262
0.023652466 0.70999998 -0.027387066 1.456005e-38 339 262
0.024897331 0.70999998 -0.027387066 1.5835655e-38 340 262
0.026179021 0.71100003 -0.027425639 1.3991742e-38 341 262
0.027502786 0.713 -0.027502786 1.5445996e-38 342 262
0.028793238 0.71399999 -0.02754136 1.4616235e-38 343 262
0.030045118 0.71399999 -0.02754136 1.4340377e-38 344 262
0.031384666 0.71600002 -0.027618507 1.4063431e-38 345 262
0.032640055 0.71600002 -0.027618507 1.4058761e-38 346 262
0.03389544 0.71600002 -0.027618507 1.6732436e-38 347 262
0.035150826 0.71600002 -0.027618507 1.5273113e-38 348 262
0.036406212 0.71600002 -0.027618507 1.3613232e-38 349 262
0.037661601 0.71600002 -0.027618507 1.4795932e-38 350 262
0.038916986 0.71600002 -0.027618507 1.4795932e-38 351 262
0.040172372 0.71600002 -0.027618507 1.4427875e-38 352 262
0.041427758 0.71600002 -0.027618507 1.4427875e-38 353 262
0.042742759 0.71700001 -0.027657079 1.4151294e-38 354 262
0.043999899 0.71700001 -0.027657079 1.4335325e-38 355 262
0.045257039 0.71700001 -0.027657079 1.4244929e-38 356 262
0.046514176 0.71700001 -0.027657079 1.442932e-38 357 262
0.04777132 0.71700001 -0.027657079 1.4428607e-38 358 262
0.048960082 0.71600002 -0.027618507 1.4428607e-38 359 262
0.050215468 0.71600002 -0.027618507 1.3416991e-38 360 262
0.051470853 0.71600002 -0.027618507 1.4615535e-38 361 262
0.052726239 0.71600002 -0.027618507 1.2420827e-38 362 262
0.053981625 0.71600002 -0.027618507 1.1406675e-38 363 262
0.05508272 0.71399999 -0.02754136 1.1766096e-38 364 262
0.0563346 0.71399999 -0.02754136 1.1581705e-38 365 262
0.057586476 0.71399999 -0.02754136 9.8361217e-39 366 262
0.058838356 0.71399999 -0.02754136 8.6379372e-39 367 262
0.060006075 0.713 -0.027502786 4.6843404e-39 368 262
0.061256204 0.713 -0.027502786 3.1224069e-39 369 262
0.062506333 0.713 -0.027502786 1.4012985e-44 370 262
-0.10180555 0.764 -0.030809574 1.4191975e-38 244 263
-0.100466 0.764 -0.030809574 1.492954e-38 245 263
-0.099126451 0.764 -0.030809574 1.4381067e-38 246 263
-0.09804289 0.76599997 -0.030890226 1.4288871e-38 247 263
-0.096826084 0.76700002 -0.030930554 1.35369e-38 248 263
-0.095730245 0.76899999 -0.031011207 9.664684e-39 249 263
-0.094381928 0.76899999 -0.031011207 1.3070859e-38 250 263
-0.093033619 0.76899999 -0.031011207 1.6021118e-38 251 263
-0.091685303 0.76899999 -0.031011207 1.5291835e-38 252 263
-0.090336986 0.76899999 -0.031011207 1.6121597e-38 253 263
-0.088988677 0.76899999 -0.031011207 1.6222813e-38 254 263
-0.087412432 0.76700002 -0.030930554 1.5393411e-38 255 263
-0.084945492 0.75700003 -0.030527288 1.4183692e-38 256 263
-0.083397292 0.755 -0.030446632 1.169441e-38 257 263
-0.082073532 0.755 -0.030446632 1.407564e-38 258 263
-0.080642812 0.75400001 -0.030406307 1.3798694e-38 259 263
-0.079110399 0.75199997 -0.030325651 1.3612516e-38 260 263
-0.077584997 0.75 -0.030244999 1.2413974e-38 261 263
-0.07596492 0.74699998 -0.030124018 9.2040366e-39 262 263
-0.074655175 0.74699998 -0.030124018 1.0033797e-38 263 263
-0.073345438 0.74699998 -0.030124018 1.0212443e-38 264 263
-0.072035693 0.74699998 -0.030124018 9.7514665e-39 265 263
-0.070725955 0.74699998 -0.030124018 1.0680997e-38 266 263
-0.069602072 0.74900001 -0.030204674 1.1050139e-38 267 263
-0.068106472 0.74699998 -0.030124018 1.1602604e-38 268 263
-0.066796735 0.74699998 -0.030124018 1.0957235e-38 269 263
-0.060404085 0.73299998 -0.029559445 1.0773177e-38 273 263
-0.057912603 0.73400003 -0.029599773 1.0037064e-38 275 263
-0.056548502 0.73299998 -0.029559445 5.6246565e-39 276 263
-0.055112526 0.73100001 -0.029478792 3.504157e-39 277 263
-0.053757198 0.73000002 -0.029438468 2.2170335e-39 278 263
-0.052477267 0.73000002 -0.029438468 1.8478909e-39 279 263
-0.051197331 0.73000002 -0.029438468 2.765171e-39 280 263
-0.0499174 0.73000002 -0.029438468 3.2257905e-39 281 263
-0.048637468 0.73000002 -0.029438468 1.5734648e-39 282 263
-0.047357533 0.73000002 -0.029438468 2.4950624e-39 283 263
-0.046077598 0.73000002 -0.029438468 3.4177403e-39 284 263
-0.044797666 0.73000002 -0.029438468 4.7084791e-39 285 263
-0.043517731 0.73000002 -0.029438468 5.7237227e-39 286 263
-0.041832779 0.72299999 -0.029156178 8.489593e-39 287 263
-0.040565118 0.72299999 -0.029156178 1.3548464e-38 288 263
-0.039243106 0.722 -0.029115854 1.4931398e-38 289 263
-0.0379772 0.722 -0.029115854 1.704467e-38 290 263
-0.03671129 0.722 -0.029115854 1.704467e-38 291 263
-0.035445385 0.722 -0.029115854 1.7682813e-38 292 263
-0.034179479 0.722 -0.029115854 1.5746705e-38 293 263
-0.032913569 0.722 -0.029115854 1.5644407e-38 294 263
-0.031647664 0.722 -0.029115854 1.2509756e-38 295 263
-0.0302976 0.72000003 -0.029035201 8.8230488e-39 296 263
-0.028994869 0.71899998 -0.028994869 8.6386561e-39 297 263
-0.027657079 0.71700001 -0.028914221 4.6969451e-39 298 263
-0.02639994 0.71700001 -0.028914221 5.1575645e-39 299 263
-0.0251428 0.71700001 -0.028914221 4.5193865e-39 300 263
-0.02388566 0.71700001 -0.028914221 4.5193865e-39 301 263
-0.022596961 0.71600002 -0.028873893 4.0551602e-39 302 263
-0.021341572 0.71600002 -0.028873893 2.2116063e-39 303 263
-0.020030079 0.71399999 -0.028793238 4.5150649e-39 304 263
-0.018751899 0.713 -0.028752912 8.2950858e-39 305 263
-0.017501773 0.713 -0.028752912 1.2704637e-38 306 263
-0.016183265 0.70999998 -0.028631933 1.2335856e-38 307 263
-0.01487528 0.70700002 -0.028510952 1.7489804e-38 308 263
-0.013616386 0.70599997 -0.028470624 1.6567847e-38 309 263
-0.012378532 0.70599997 -0.028470624 1.6458728e-38 310 263
-0.011140679 0.70599997 -0.028470624 1.5167989e-38 311 263
-0.0099028256 0.70599997 -0.028470624 1.4798141e-38 312 263
-0.0086649731 0.70599997 -0.028470624 1.6273631e-38 313 263
-0.0074376399 0.70700002 -0.028510952 1.6664401e-38 314 263
-0.0062067998 0.708 -0.02855128 2.0075998e-38 315 263
-0.0049794666 0.70999998 -0.028631933 2.081176e-38 316 263
-0.0037345996 0.70999998 -0.028631933 2.0535171e-38 317 263
-0.0024897333 0.70999998 -0.028631933 2.0629127e-38 318 263
-0.0012448666 0.70999998 -0.028631933 2.1089746e-38 319 263
0 0.70999998 -0.028631933 2.0355036e-38 320 263
0.0012448666 0.70999998 -0.028631933 1.6390624e-38 321 263
0.0024897333 0.70999998 -0.028631933 1.4143402e-38 322 263
0.0037345996 0.70999998 -0.028631933 1.6171706e-38 323 263
0.0049794666 0.70999998 -0.028631933 1.7194839e-38 324 263
0.0062243328 0.70999998 -0.028631933 1.9868872e-38 325 263
0.0074691991 0.70999998 -0.028631933 1.8497793e-38 326 263
0.0087140659 0.70999998 -0.028631933 1.8128651e-38 327 263
0.0099589331 0.70999998 -0.028631933 1.7851752e-38 328 263
0.011203799 0.70999998 -0.028631933 1.8865905e-38 329 263
0.0124136 0.708 -0.02855128 1.722803e-38 330 263
0.013654959 0.708 -0.02855128 1.6397909e-38 331 263
0.014938398 0.70999998 -0.028631933 1.1975393e-38 332 263
0.016183265 0.70999998 -0.028631933 1.1330024e-38 333 263
0.017428132 0.70999998 -0.028631933 1.2345226e-38 334 263
0.018672999 0.70999998 -0.028631933 1.3359737e-38 335 263
0.01986176 0.708 -0.02855128 1.3917946e-38 336 263
0.021103119 0.708 -0.02855128 1.6130642e-38 337 263
0.022407599 0.70999998 -0.028631933 1.9802626e-38 338 263
0.023652466 0.70999998 -0.028631933 1.8050909e-38 339 263
0.024897331 0.70999998 -0.028631933 1.7302484e-38 340 263
0.026142199 0.70999998 -0.028631933 1.2047333e-38 341 263
0.027425639 0.71100003 -0.028672259 1.4974208e-38 342 263
0.028752912 0.713 -0.028752912 1.5250432e-38 343 263
0.030045118 0.71399999 -0.028793238 1.4057298e-38 344 263
0.031296998 0.71399999 -0.028793238 1.5624982e-38 345 263
0.032640055 0.71600002 -0.028873893 1.3894524e-38 346 263
0.03389544 0.71600002 -0.028873893 1.5462209e-38 347 263
0.035150826 0.71600002 -0.028873893 1.4915866e-38 348 263
0.036406212 0.71600002 -0.028873893 1.3348541e-38 349 263
0.037661601 0.71600002 -0.028873893 1.5167592e-38 350 263
0.038916986 0.71600002 -0.028873893 1.4337831e-38 351 263
0.040172372 0.71600002 -0.028873893 1.497816e-38 352 263
0.041427758 0.71600002 -0.028873893 1.5070714e-38 353 263
0.042683143 0.71600002 -0.028873893 1.4426802e-38 354 263
0.043938532 0.71600002 -0.028873893 1.4518999e-38 355 263
0.045193922 0.71600002 -0.028873893 1.4151661e-38 356 263
0.046449307 0.71600002 -0.028873893 1.4336053e-38 357 263
0.047704693 0.71600002 -0.028873893 1.4426819e-38 358 263
0.048960082 0.71600002 -0.028873893 1.4611569e-38 359 263
0.050215468 0.71600002 -0.028873893 1.3512071e-38 360 263
0.051470853 0.71600002 -0.028873893 1.4342192e-38 361 263
0.052726239 0.71600002 -0.028873893 1.3064044e-38 362 263
0.053981625 0.71600002 -0.028873893 1.2695262e-38 363 263
0.05508272 0.71399999 -0.028793238 1.2413634e-38 364 263
0.0563346 0.71399999 -0.028793238 1.0477525e-38 365 263
0.057586476 0.71399999 -0.028793238 7.1710832e-39 366 263
0.058838356 0.71399999 -0.028793238 8.0930395e-39 367 263
0.060006075 0.713 -0.028752912 7.0810582e-39 368 263
0.061256204 0.713 -0.028752912 5.6055694e-39 369 263
0.062506333 0.713 -0.028752912 3.3060947e-39 370 263
-0.10674293 0.76099998 -0.032022879 1.0408385e-38 240 264
-0.10540864 0.76099998 -0.032022879 5.6138539e-39 241 264
-0.10407435 0.76099998 -0.032022879 8.2669883e-39 242 264
-0.10274007 0.76099998 -0.032022879 1.2876763e-38 243 264
-0.10153904 0.76200002 -0.032064959 1.3451144e-38 244 264
-0.100466 0.764 -0.032149121 1.4926633e-38 245 264
-0.099126451 0.764 -0.032149121 1.511754e-38 246 264
-0.097786903 0.764 -0.032149121 1.5947301e-38 247 264
-0.096447356 0.764 -0.032149121 1.4190161e-38 248 264
-0.095356777 0.76599997 -0.032233275 8.9350097e-39 249 264
-0.094136469 0.76700002 -0.03227536 1.2050204e-38 250 264
-0.092791654 0.76700002 -0.03227536 1.4262899e-38 251 264
-0.091446854 0.76700002 -0.03227536 1.4001784e-38 252 264
-0.090102047 0.76700002 -0.03227536 1.5660945e-38 253 264
-0.088757239 0.76700002 -0.03227536 1.4748004e-38 254 264
-0.086272769 0.75700003 -0.031854562 1.4655808e-38 255 264
-0.084721066 0.755 -0.031770397 1.5017776e-38 256 264
-0.083397292 0.755 -0.031770397 1.3727037e-38 257 264
-0.082073532 0.755 -0.031770397 1.4822578e-38 258 264
-0.080642812 0.75400001 -0.03172832 1.2148905e-38 259 264
-0.079110399 0.75199997 -0.031644158 1.3517813e-38 260 264
-0.077584997 0.75 -0.03156 1.1581705e-38 261 264
-0.076168306 0.74900001 -0.031517919 7.5445503e-39 262 264
-0.074655175 0.74699998 -0.031433757 7.8211386e-39 263 264
-0.073345438 0.74699998 -0.031433757 8.5558352e-39 264 264
-0.072035693 0.74699998 -0.031433757 9.846574e-39 265 264
-0.070725955 0.74699998 -0.031433757 1.3079182e-38 266 264
-0.069416218 0.74699998 -0.031433757 1.3171377e-38 267 264
-0.068015307 0.74599999 -0.031391677 1.2618201e-38 268 264
-0.066707321 0.74599999 -0.031391677 1.1419658e-38 269 264
-0.065399326 0.74599999 -0.031391677 1.1233449e-38 270 264
-0.060404085 0.73299998 -0.030844638 1.0038852e-38 273 264
-0.059118889 0.73299998 -0.030844638 8.1967384e-39 274 264
-0.057833698 0.73299998 -0.030844638 6.9059996e-39 275 264
-0.056394216 0.73100001 -0.03076048 4.2392011e-39 276 264
-0.055037133 0.73000002 -0.030718399 3.8704172e-39 277 264
-0.053757198 0.73000002 -0.030718399 3.4076678e-39 278 264
-0.052333489 0.72799999 -0.030634239 2.4857101e-39 279 264
-0.051057063 0.72799999 -0.030634239 3.951834e-39 280 264
-0.0499174 0.73000002 -0.030718399 4.8737889e-39 281 264
-0.048504211 0.72799999 -0.030634239 2.948112e-39 282 264
-0.047227785 0.72799999 -0.030634239 4.1466552e-39 283 264
-0.045951359 0.72799999 -0.030634239 3.6035553e-39 284 264
-0.044674929 0.72799999 -0.030634239 3.2351315e-39 285 264
-0.043398503 0.72799999 -0.030634239 7.5123611e-40 286 264
-0.041774917 0.722 -0.030381758 5.6684345e-40 287 264
-0.040509012 0.722 -0.030381758 8.1906624e-39 288 264
-0.039243106 0.722 -0.030381758 1.1602259e-38 289 264
-0.0379772 0.722 -0.030381758 1.3631277e-38 290 264
-0.036609601 0.72000003 -0.0302976 1.5106765e-38 291 264
-0.035347197 0.72000003 -0.0302976 1.6578284e-38 292 264
-0.034084801 0.72000003 -0.0302976 1.6578284e-38 293 264
-0.0328224 0.72000003 -0.0302976 1.5928948e-38 294 264
-0.031516165 0.71899998 -0.030255521 1.2517351e-38 295 264
-0.030171359 0.71700001 -0.030171359 8.0890963e-39 296 264
-0.028914221 0.71700001 -0.030171359 7.9047036e-39 297 264
-0.027618507 0.71600002 -0.03012928 4.3321058e-39 298 264
-0.026363119 0.71600002 -0.03012928 4.7005296e-39 299 264
-0.025107734 0.71600002 -0.03012928 3.9672861e-39 300 264
-0.023852346 0.71600002 -0.03012928 3.4141124e-39 301 264
-0.022596961 0.71600002 -0.03012928 3.8700486e-39 302 264
-0.021281958 0.71399999 -0.030045118 3.3168749e-39 303 264
-0.020002026 0.713 -0.030003037 4.7902099e-39 304 264
-0.018672999 0.70999998 -0.029876797 6.1731443e-39 305 264
-0.017379038 0.708 -0.02979264 1.013289e-38 306 264
-0.016092092 0.70599997 -0.029708479 1.1423629e-38 307 264
-0.014854239 0.70599997 -0.029708479 1.6758004e-38 308 264
-0.013577812 0.704 -0.029624319 1.5190677e-38 309 264
-0.012343466 0.704 -0.029624319 1.6362927e-38 310 264
-0.011109119 0.704 -0.029624319 1.4979993e-38 311 264
-0.0098747732 0.704 -0.029624319 1.4610119e-38 312 264
-0.0086404262 0.704 -0.029624319 1.4610119e-38 313 264
-0.0074060797 0.704 -0.029624319 1.443475e-38 314 264
-0.0061892662 0.70599997 -0.029708479 1.7938544e-38 315 264
-0.0049654399 0.708 -0.02979264 1.8407101e-38 316 264
-0.00372408 0.708 -0.02979264 1.969784e-38 317 264
-0.00248272 0.708 -0.02979264 1.9980535e-38 318 264
-0.0012448666 0.70999998 -0.029876797 2.1363469e-38 319 264
0 0.70999998 -0.029876797 2.0078459e-38 320 264
0.0012448666 0.70999998 -0.029876797 1.6482469e-38 321 264
0.0024897333 0.70999998 -0.029876797 1.553174e-38 322 264
0.00372408 0.708 -0.02979264 1.8021022e-38 323 264
0.0049654399 0.708 -0.02979264 1.8313438e-38 324 264
0.0062067998 0.708 -0.02979264 1.8682219e-38 325 264
0.0074481601 0.708 -0.02979264 1.7765247e-38 326 264
0.008689519 0.708 -0.02979264 1.6197563e-38 327 264
0.0099308798 0.708 -0.02979264 1.646518e-38 328 264
0.01117224 0.708 -0.02979264 1.6557734e-38 329 264
0.0124136 0.708 -0.02979264 1.5010278e-38 330 264
0.013654959 0.708 -0.02979264 1.390357e-38 331 264
0.01489632 0.708 -0.02979264 8.8464967e-39 332 264
0.01613768 0.708 -0.02979264 9.1234423e-39 333 264
0.017379038 0.708 -0.02979264 1.1143465e-38 334 264
0.0186204 0.708 -0.02979264 1.3079573e-38 335 264
0.01986176 0.708 -0.02979264 1.4835606e-38 336 264
0.021103119 0.708 -0.02979264 1.6587324e-38 337 264
0.022344479 0.708 -0.02979264 1.989232e-38 338 264
0.023585839 0.708 -0.02979264 1.9339146e-38 339 264
0.024827199 0.708 -0.02979264 1.9239314e-38 340 264
0.026068559 0.708 -0.02979264 1.3338793e-38 341 264
0.027387066 0.70999998 -0.029876797 1.5250073e-38 342 264
0.028672259 0.71100003 -0.029918881 1.4789461e-38 343 264
0.030003037 0.713 -0.030003037 1.3877266e-38 344 264
0.031296998 0.71399999 -0.030045118 1.7104113e-38 345 264
0.032548878 0.71399999 -0.030045118 1.4647229e-38 346 264
0.033800758 0.71399999 -0.030045118 1.547699e-38 347 264
0.035052639 0.71399999 -0.030045118 1.4834845e-38 348 264
0.036304519 0.71399999 -0.030045118 1.3451552e-38 349 264
0.037556399 0.71399999 -0.030045118 1.5086567e-38 350 264
0.038916986 0.71600002 -0.03012928 1.2689482e-38 351 264
0.040172372 0.71600002 -0.03012928 1.4888834e-38 352 264
0.041427758 0.71600002 -0.03012928 1.4888834e-38 353 264
0.042683143 0.71600002 -0.03012928 1.4612607e-38 354 264
0.043938532 0.71600002 -0.03012928 1.4888834e-38 355 264
0.045193922 0.71600002 -0.03012928 1.4338181e-38 356 264
0.046449307 0.71600002 -0.03012928 1.4707324e-38 357 264
0.047704693 0.71600002 -0.03012928 1.4524403e-38 358 264
0.048960082 0.71600002 -0.03012928 1.5538915e-38 359 264
0.050215468 0.71600002 -0.03012928 1.4440874e-38 360 264
0.051470853 0.71600002 -0.03012928 1.4901492e-38 361 264
0.052726239 0.71600002 -0.03012928 1.3710512e-38 362 264
0.053981625 0.71600002 -0.03012928 1.3894903e-38 363 264
0.05508272 0.71399999 -0.030045118 1.3340635e-38 364 264
0.0563346 0.71399999 -0.030045118 1.0021592e-38 365 264
0.057586476 0.71399999 -0.030045118 7.9918406e-39 366 264
0.058838356 0.71399999 -0.030045118 9.282578e-39 367 264
0.060006075 0.713 -0.030003037 7.2643579e-39 368 264
0.061256204 0.713 -0.030003037 6.7111841e-39 369 264
0.062506333 0.713 -0.030003037 6.8005225e-39 370 264
0.066535495 0.71600002 -0.03012928 3.8571063e-39 373 264
-0.11075456 0.75199997 -0.032962665 1.7150558e-38 236 265
-0.10943604 0.75199997 -0.032962665 1.6873611e-38 237 265
-0.10854886 0.755 -0.033094164 1.3463803e-38 238 265
-0.1072251 0.755 -0.033094164 1.1896476e-38 239 265
-0.10590133 0.755 -0.033094164 1.0970914e-38 240 265
-0.10513161 0.759 -0.033269498 7.6515114e-39 241 265
-0.10407435 0.76099998 -0.033357166 9.7403135e-39 242 265
-0.10274007 0.76099998 -0.033357166 1.2506182e-38 243 265
-0.10140578 0.76099998 -0.033357166 1.3171298e-38 244 265
-0.100203 0.76200002 -0.033401001 1.4923014e-38 245 265
-0.098866954 0.76200002 -0.033401001 1.4655102e-38 246 265
-0.097786903 0.764 -0.033488665 1.5761448e-38 247 265
-0.096447356 0.764 -0.033488665 1.4288137e-38 248 265
-0.095356777 0.76599997 -0.033576332 1.1614463e-38 249 265
-0.094013728 0.76599997 -0.033576332 1.2510501e-38 250 265
-0.092791654 0.76700002 -0.033620168 1.2602697e-38 251 265
-0.091327623 0.76599997 -0.033576332 1.2892935e-38 252 265
-0.089984566 0.76599997 -0.033576332 1.3261716e-38 253 265
-0.087600037 0.75700003 -0.033181835 1.0964383e-38 254 265
-0.086044833 0.755 -0.033094164 1.1056578e-38 255 265
-0.084608853 0.75400001 -0.033050332 1.2344453e-38 256 265
-0.083286837 0.75400001 -0.033050332 1.1699084e-38 257 265
-0.081964828 0.75400001 -0.033050332 1.0404372e-38 258 265
-0.080428898 0.75199997 -0.032962665 8.4682638e-39 259 265
-0.079110399 0.75199997 -0.032962665 1.3052872e-38 260 265
-0.077584997 0.75 -0.032874998 1.2315307e-38 261 265
-0.076168306 0.74900001 -0.032831166 8.0952031e-39 262 265
-0.074655175 0.74699998 -0.032743499 7.2658026e-39 263 265
-0.073247254 0.74599999 -0.032699663 7.6457353e-39 264 265
-0.07193926 0.74599999 -0.032699663 8.9364741e-39 265 265
-0.070631281 0.74599999 -0.032699663 1.2155059e-38 266 265
-0.069323286 0.74599999 -0.032699663 1.1878471e-38 267 265
-0.068015307 0.74599999 -0.032699663 1.0684616e-38 268 265
-0.066707321 0.74599999 -0.032699663 1.0961203e-38 269 265
-0.065399326 0.74599999 -0.032699663 1.2523474e-38 270 265
-0.062974468 0.73299998 -0.032129832 1.2523474e-38 271 265
-0.061689276 0.73299998 -0.032129832 1.1051196e-38 272 265
-0.060404085 0.73299998 -0.032129832 6.2566631e-39 273 265
-0.059118889 0.73299998 -0.032129832 2.7651094e-39 274 265
-0.057675898 0.73100001 -0.032042164 3.2260861e-39 275 265
-0.056317069 0.73000002 -0.031998333 3.8689767e-39 276 265
-0.055037133 0.73000002 -0.031998333 4.3299548e-39 277 265
-0.053757198 0.73000002 -0.031998333 6.1699213e-39 278 265
-0.052333489 0.72799999 -0.031910665 5.8933331e-39 279 265
-0.051057063 0.72799999 -0.031910665 7.9007618e-39 280 265
-0.049780637 0.72799999 -0.031910665 7.5316191e-39 281 265
-0.048437584 0.727 -0.03186683 2.8469144e-39 282 265
-0.047033165 0.72500002 -0.031779166 3.4000882e-39 283 265
-0.045761999 0.72500002 -0.031779166 8.4200521e-40 284 265
-0.044368099 0.72299999 -0.031691495 1.7639615e-39 285 265
-0.043040827 0.722 -0.031647664 2.7716086e-39 286 265
-0.041774917 0.722 -0.031647664 3.2325854e-39 287 265
-0.040396802 0.72000003 -0.03156 9.4655497e-39 288 265
-0.039134402 0.72000003 -0.03156 9.3733541e-39 289 265
-0.037871998 0.72000003 -0.03156 9.0038555e-39 290 265
-0.036609601 0.72000003 -0.03156 8.7276288e-39 291 265
-0.035298105 0.71899998 -0.031516165 7.7195879e-39 292 265
-0.033942781 0.71700001 -0.031428497 9.5635005e-39 293 265
-0.032685637 0.71700001 -0.031428497 1.2525638e-38 294 265
-0.031428497 0.71700001 -0.031428497 1.2064661e-38 295 265
-0.03012928 0.71600002 -0.031384666 5.8933331e-39 296 265
-0.028873893 0.71600002 -0.031384666 5.4323563e-39 297 265
-0.027425639 0.71100003 -0.031165501 3.5109925e-39 298 265
-0.026179021 0.71100003 -0.031165501 3.4187969e-39 299 265
-0.024932399 0.71100003 -0.031165501 3.6010218e-39 300 265
-0.023685781 0.71100003 -0.031165501 2.2180873e-39 301 265
-0.022533838 0.71399999 -0.031296998 2.6779668e-39 302 265
-0.021252153 0.713 -0.031253166 4.5222396e-39 303 265
-0.019917866 0.70999998 -0.031121666 8.0177604e-39 304 265
-0.018594101 0.70700002 -0.030990168 6.7270216e-39 305 265
-0.017329946 0.70599997 -0.030946331 5.2555194e-39 306 265
-0.016046507 0.704 -0.030858666 8.1135854e-39 307 265
-0.014812159 0.704 -0.030858666 1.5930762e-38 308 265
-0.013577812 0.704 -0.030858666 1.408685e-38 309 265
-0.012325933 0.70300001 -0.030814834 1.6637705e-38 310 265
-0.01109334 0.70300001 -0.030814834 1.5623194e-38 311 265
-0.0098607466 0.70300001 -0.030814834 1.5070361e-38 312 265
-0.0086281532 0.70300001 -0.030814834 1.4978165e-38 313 265
-0.0074060797 0.704 -0.030858666 1.4517203e-38 314 265
-0.0061717331 0.704 -0.030858666 1.5070376e-38 315 265
-0.0049373866 0.704 -0.030858666 1.626427e-38 316 265
-0.0037135598 0.70599997 -0.030946331 1.6817444e-38 317 265
-0.0024792133 0.70700002 -0.030990168 1.6724548e-38 318 265
-0.00124136 0.708 -0.031034 2.1794949e-38 319 265
0 0.708 -0.031034 1.9618568e-38 320 265
0.00124136 0.708 -0.031034 1.8143438e-38 321 265
0.00248272 0.708 -0.031034 1.8498554e-38 322 265
0.0037188199 0.70700002 -0.030990168 2.0987477e-38 323 265
0.0049584266 0.70700002 -0.030990168 2.0349298e-38 324 265
0.0061980332 0.70700002 -0.030990168 1.7583427e-38 325 265
0.0074376399 0.70700002 -0.030990168 1.6650631e-38 326 265
0.008677247 0.70700002 -0.030990168 1.3515981e-38 327 265
0.0099168532 0.70700002 -0.030990168 1.4891002e-38 328 265
0.011156459 0.70700002 -0.030990168 1.5812958e-38 329 265
0.012396066 0.70700002 -0.030990168 1.5192844e-38 330 265
0.013635674 0.70700002 -0.030990168 1.6391388e-38 331 265
0.01489632 0.708 -0.031034 1.2353158e-38 332 265
0.01613768 0.708 -0.031034 1.3459505e-38 333 265
0.017379038 0.708 -0.031034 1.4748427e-38 334 265
0.0186204 0.708 -0.031034 1.3826831e-38 335 265
0.019833706 0.70700002 -0.030990168 1.6117687e-38 336 265
0.021073313 0.70700002 -0.030990168 1.5749265e-38 337 265
0.022312919 0.70700002 -0.030990168 1.5567388e-38 338 265
0.023552528 0.70700002 -0.030990168 1.7780084e-38 339 265
0.024792133 0.70700002 -0.030990168 2.117726e-38 340 265
0.02603174 0.70700002 -0.030990168 1.9886522e-38 341 265
0.027309919 0.708 -0.031034 1.8218329e-38 342 265
0.02855128 0.708 -0.031034 1.6005634e-38 343 265
0.029918881 0.71100003 -0.031165501 1.4911904e-38 344 265
0.031253166 0.713 -0.031253166 1.5096295e-38 345 265
0.032503292 0.713 -0.031253166 1.1143071e-38 346 265
0.033753417 0.713 -0.031253166 8.3775606e-39 347 265
0.035052639 0.71399999 -0.031296998 8.9275086e-39 348 265
0.036304519 0.71399999 -0.031296998 1.3998267e-38 349 265
0.037556399 0.71399999 -0.031296998 1.4548181e-38 350 265
0.038808275 0.71399999 -0.031296998 1.122878e-38 351 265
0.040172372 0.71600002 -0.031384666 1.4160665e-38 352 265
0.041427758 0.71600002 -0.031384666 1.4713838e-38 353 265
0.042683143 0.71600002 -0.031384666 1.4806387e-38 354 265
0.043938532 0.71600002 -0.031384666 1.4990778e-38 355 265
0.045193922 0.71600002 -0.031384666 1.444335e-38 356 265
0.046449307 0.71600002 -0.031384666 1.4350796e-38 357 265
0.047704693 0.71600002 -0.031384666 1.4352949e-38 358 265
0.048960082 0.71600002 -0.031384666 1.3983807e-38 359 265
0.050215468 0.71600002 -0.031384666 1.3889117e-38 360 265
0.051470853 0.71600002 -0.031384666 1.2506182e-38 361 265
0.052726239 0.71600002 -0.031384666 1.332985e-38 362 265
0.053981625 0.71600002 -0.031384666 1.5358154e-38 363 265
0.05508272 0.71399999 -0.031296998 1.3250234e-38 364 265
0.0563346 0.71399999 -0.031296998 1.0299973e-38 365 265
0.057586476 0.71399999 -0.031296998 1.1664184e-38 366 265
0.058755953 0.713 -0.031253166 1.1479796e-38 367 265
0.060006075 0.713 -0.031253166 6.6168192e-39 368 265
0.061256204 0.713 -0.031253166 7.1699916e-39 369 265
0.062506333 0.713 -0.031253166 6.8930712e-39 370 265
0.063756458 0.713 -0.031253166 6.6164829e-39 371 265
0.06528011 0.71600002 -0.031384666 5.5101452e-39 372 265
0.066535495 0.71600002 -0.031384666 4.9591238e-39 373 265
0.067790881 0.71600002 -0.031384666 8.5472032e-39 374 265
0.069046266 0.71600002 -0.031384666 9.0081799e-39 375 265
0.070399836 0.71700001 -0.031428497 1.0929191e-38 376 265
0.07165698 0.71700001 -0.031428497 1.157456e-38 377 265
0.072812423 0.71600002 -0.031384666 1.1587532e-38 378 265
0.074067809 0.71600002 -0.031384666 1.2785716e-38 379 265
0.075323202 0.71600002 -0.031384666 1.1697717e-38 380 265
0.076578587 0.71600002 -0.031384666 1.4463226e-38 381 265
-0.11075456 0.75199997 -0.034281172 1.7425703e-38 236 266
-0.10943604 0.75199997 -0.034281172 1.7701929e-38 237 266
-0.10840509 0.75400001 -0.034372345 1.4752377e-38 238 266
-0.10708308 0.75400001 -0.034372345 1.2447126e-38 239 266
-0.10590133 0.755 -0.034417931 1.3182158e-38 240 266
-0.10485459 0.75700003 -0.034509107 1.1061658e-38 241 266
-0.10380083 0.759 -0.034600276 1.085061e-38 242 266
-0.10247006 0.759 -0.034600276 1.1311229e-38 243 266
-0.10113928 0.759 -0.034600276 1.3257717e-38 244 266
-0.10007149 0.76099998 -0.034691449 1.510163e-38 245 266
-0.098866954 0.76200002 -0.034737039 1.4099738e-38 246 266
-0.097530924 0.76200002 -0.034737039 1.5851813e-38 247 266
-0.096194878 0.76200002 -0.034737039 1.557674e-38 248 266
-0.095107809 0.764 -0.034828212 1.4378555e-38 249 266
-0.093768261 0.764 -0.034828212 1.1236714e-38 250 266
-0.092428714 0.764 -0.034828212 8.5630406e-39 251 266
-0.090850718 0.76200002 -0.034737039 9.211982e-39 252 266
-0.08916226 0.759 -0.034600276 9.396732e-39 253 266
-0.087368593 0.755 -0.034417931 7.1033347e-39 254 266
-0.085930869 0.75400001 -0.034372345 7.2880861e-39 255 266
-0.084384419 0.75199997 -0.034281172 1.0227544e-38 256 266
-0.08306592 0.75199997 -0.034281172 9.4899786e-39 257 266
-0.081747405 0.75199997 -0.034281172 9.4741565e-39 258 266
-0.080215 0.75 -0.034189999 9.1057327e-39 259 266
-0.078899994 0.75 -0.034189999 1.1399843e-38 260 266
-0.077481553 0.74900001 -0.034144413 1.0754474e-38 261 266
-0.07586322 0.74599999 -0.034007654 6.7176679e-39 262 266
-0.074355356 0.74400002 -0.033916477 6.1644941e-39 263 266
-0.072756313 0.741 -0.033779722 7.3709434e-39 264 266
-0.07126423 0.73900002 -0.033688545 8.8460735e-39 265 266
-0.069873832 0.73799998 -0.033642959 1.1874853e-38 266 266
-0.06839402 0.736 -0.033551786 1.1967407e-38 267 266
-0.067103572 0.736 -0.033551786 1.0959391e-38 268 266
-0.065813117 0.736 -0.033551786 1.1604761e-38 269 266
-0.064347334 0.73400003 -0.033460613 1.2616724e-38 270 266
-0.062974468 0.73299998 -0.033415023 1.1233789e-38 271 266
-0.061689276 0.73299998 -0.033415023 1.0859943e-38 272 266
-0.06023927 0.73100001 -0.033323854 8.4628562e-39 273 266
-0.058957584 0.73100001 -0.033323854 5.8864429e-39 274 266
-0.057597004 0.73000002 -0.033278264 6.5318109e-39 275 266
-0.056317069 0.73000002 -0.033278264 5.3390494e-39 276 266
-0.054886345 0.72799999 -0.033187091 5.0621024e-39 277 266
-0.053536277 0.727 -0.033141505 7.7267934e-39 278 266
-0.052261602 0.727 -0.033141505 8.8335011e-39 279 266
-0.050986931 0.727 -0.033141505 1.0667703e-38 280 266
-0.049712259 0.727 -0.033141505 9.6535493e-39 281 266
-0.048304334 0.72500002 -0.033050332 3.2160669e-39 282 266
-0.046903417 0.72299999 -0.032959159 2.479578e-39 283 266
-0.04563576 0.72299999 -0.032959159 8.6404063e-42 284 266
-0.044183999 0.72000003 -0.0328224 7.5614065e-42 285 266
-0.042742759 0.71700001 -0.032685637 2.3023516e-39 286 266
-0.041485619 0.71700001 -0.032685637 4.1462628e-39 287 266
-0.040228479 0.71700001 -0.032685637 9.3740702e-39 288 266
-0.038971342 0.71700001 -0.032685637 9.2818745e-39 289 266
-0.037714198 0.71700001 -0.032685637 9.0034744e-39 290 266
-0.036457058 0.71700001 -0.032685637 8.3581063e-39 291 266
-0.035199918 0.71700001 -0.032685637 5.4182943e-39 292 266
-0.033942781 0.71700001 -0.032685637 5.6938008e-39 293 266
-0.032640055 0.71600002 -0.032640055 1.2803667e-38 294 266
-0.031384666 0.71600002 -0.032640055 1.2803667e-38 295 266
-0.03012928 0.71600002 -0.032640055 3.598519e-39 296 266
-0.028672259 0.71100003 -0.032412119 4.0594972e-39 297 266
-0.027425639 0.71100003 -0.032412119 8.933621e-39 298 266
-0.026179021 0.71100003 -0.032412119 7.7350778e-39 299 266
-0.024932399 0.71100003 -0.032412119 2.4089259e-39 300 266
-0.023685781 0.71100003 -0.032412119 1.1181871e-39 301 266
-0.022439159 0.71100003 -0.032412119 2.7733841e-39 302 266
-0.021192541 0.71100003 -0.032412119 8.3054806e-39 303 266
-0.01986176 0.708 -0.03227536 1.2066434e-38 304 266
-0.018567799 0.70599997 -0.032184184 9.3927607e-39 305 266
-0.017280852 0.704 -0.032093015 5.1604217e-39 306 266
-0.016046507 0.704 -0.032093015 6.6351917e-39 307 266
-0.014791119 0.70300001 -0.032047424 1.5193192e-38 308 266
-0.013558527 0.70300001 -0.032047424 1.3534029e-38 309 266
-0.012325933 0.70300001 -0.032047424 1.6638055e-38 310 266
-0.01109334 0.70300001 -0.032047424 1.5439513e-38 311 266
-0.0098607466 0.70300001 -0.032047424 1.5529181e-38 312 266
-0.0086281532 0.70300001 -0.032047424 1.5806127e-38 313 266
-0.0073955595 0.70300001 -0.032047424 1.4887412e-38 314 266
-0.0061629666 0.70300001 -0.032047424 1.4795216e-38 315 266
-0.0049373866 0.704 -0.032093015 1.561814e-38 316 266
-0.0037030398 0.704 -0.032093015 1.5341553e-38 317 266
-0.0024686933 0.704 -0.032093015 1.5061041e-38 318 266
-0.0012378532 0.70599997 -0.032184184 1.7085399e-38 319 266
0 0.70700002 -0.032229774 1.7673849e-38 320 266
0.0012396066 0.70700002 -0.032229774 1.9978738e-38 321 266
0.0024792133 0.70700002 -0.032229774 1.9150407e-38 322 266
0.0037188199 0.70700002 -0.032229774 2.0441146e-38 323 266
0.0049514128 0.70599997 -0.032184184 2.1274141e-38 324 266
0.0061892662 0.70599997 -0.032184184 2.0168152e-38 325 266
0.0074271196 0.70599997 -0.032184184 1.8599374e-38 326 266
0.0086649731 0.70599997 -0.032184184 1.6479235e-38 327 266
0.0099028256 0.70599997 -0.032184184 1.6654994e-38 328 266
0.011140679 0.70599997 -0.032184184 1.6285853e-38 329 266
0.012378532 0.70599997 -0.032184184 1.694169e-38 330 266
0.013635674 0.70700002 -0.032229774 1.9154385e-38 331 266
0.01487528 0.70700002 -0.032229774 1.6956102e-38 332 266
0.016114887 0.70700002 -0.032229774 1.8246841e-38 333 266
0.017354494 0.70700002 -0.032229774 1.7417399e-38 334 266
0.018594101 0.70700002 -0.032229774 1.5112149e-38 335 266
0.019805651 0.70599997 -0.032184184 1.5469744e-38 336 266
0.021043506 0.70599997 -0.032184184 1.4732179e-38 337 266
0.022281358 0.70599997 -0.032184184 1.4273371e-38 338 266
0.023519212 0.70599997 -0.032184184 1.6670097e-38 339 266
0.024757065 0.70599997 -0.032184184 1.9523149e-38 340 266
0.025994917 0.70599997 -0.032184184 2.099828e-38 341 266
0.027271347 0.70700002 -0.032229774 2.0445812e-38 342 266
0.02855128 0.708 -0.03227536 1.8233117e-38 343 266
0.029876797 0.70999998 -0.032366529 1.6762283e-38 344 266
0.031165501 0.71100003 -0.032412119 1.4733979e-38 345 266
0.032412119 0.71100003 -0.032412119 5.9858216e-39 346 266
0.033753417 0.713 -0.032503292 4.9716724e-39 347 266
0.035003547 0.713 -0.032503292 6.7234216e-39 348 266
0.036304519 0.71399999 -0.032548878 1.0042464e-38 349 266
0.037556399 0.71399999 -0.032548878 1.225196e-38 350 266
0.038808275 0.71399999 -0.032548878 1.225196e-38 351 266
0.040060159 0.71399999 -0.032548878 1.4359844e-38 352 266
0.041312039 0.71399999 -0.032548878 1.4082897e-38 353 266
0.042683143 0.71600002 -0.032640055 1.4634225e-38 354 266
0.043938532 0.71600002 -0.032640055 1.4265082e-38 355 266
0.045193922 0.71600002 -0.032640055 1.4906108e-38 356 266
0.046449307 0.71600002 -0.032640055 1.444477e-38 357 266
0.047571439 0.71399999 -0.032548878 1.462522e-38 358 266
0.048823316 0.71399999 -0.032548878 1.3703264e-38 359 266
0.050215468 0.71600002 -0.032640055 1.341661e-38 360 266
0.051470853 0.71600002 -0.032640055 1.2495014e-38 361 266
0.052726239 0.71600002 -0.032640055 1.2680145e-38 362 266
0.053830836 0.71399999 -0.032548878 1.4892842e-38 363 266
0.05508272 0.71399999 -0.032548878 1.3155873e-38 364 266
0.0563346 0.71399999 -0.032548878 1.1035015e-38 365 266
0.057586476 0.71399999 -0.032548878 1.286235e-38 366 266
0.058755953 0.713 -0.032503292 1.1940408e-38 367 266
0.060006075 0.713 -0.032503292 8.2669883e-39 368 266
0.061256204 0.713 -0.032503292 9.0045421e-39 369 266
0.062506333 0.713 -0.032503292 8.6361338e-39 370 266
0.063756458 0.713 -0.032503292 8.1755144e-39 371 266
0.06528011 0.71600002 -0.032640055 7.9922119e-39 372 266
0.066535495 0.71600002 -0.032640055 8.6375813e-39 373 266
0.067790881 0.71600002 -0.032640055 1.0843439e-38 374 266
0.069046266 0.71600002 -0.032640055 1.1027831e-38 375 266
0.070301652 0.71600002 -0.032640055 1.2220613e-38 376 266
0.07165698 0.71700001 -0.032685637 1.1575244e-38 377 266
0.072812423 0.71600002 -0.032640055 1.1579229e-38 378 266
0.074067809 0.71600002 -0.032640055 1.2040206e-38 379 266
0.075323202 0.71600002 -0.032640055 8.8184175e-39 380 266
0.076578587 0.71600002 -0.032640055 1.1768678e-38 381 266
0.077833973 0.71600002 -0.032640055 1.2709348e-38 382 266
-0.11075456 0.75199997 -0.035599679 1.7241672e-38 236 267
-0.10943604 0.75199997 -0.035599679 1.7518617e-38 237 267
-0.10840509 0.75400001 -0.035694357 1.668633e-38 238 267
-0.10708308 0.75400001 -0.035694357 1.52112e-38 239 267
-0.10590133 0.755 -0.035741698 1.4932803e-38 240 267
-0.10485459 0.75700003 -0.03583638 1.3642064e-38 241 267
-0.10380083 0.759 -0.035931058 1.2523442e-38 242 267
-0.10247006 0.759 -0.035931058 9.2965952e-39 243 267
-0.10113928 0.759 -0.035931058 1.2509716e-38 244 267
-0.10007149 0.76099998 -0.036025736 1.5828745e-38 245 267
-0.09873721 0.76099998 -0.036025736 1.4100059e-38 246 267
-0.097402923 0.76099998 -0.036025736 1.5298243e-38 247 267
-0.096068636 0.76099998 -0.036025736 1.4839143e-38 248 267
-0.09485884 0.76200002 -0.036073081 1.4193773e-38 249 267
-0.093522795 0.76200002 -0.036073081 8.3923036e-39 250 267
-0.092186764 0.76200002 -0.036073081 4.9810653e-39 251 267
-0.090493038 0.759 -0.035931058 4.2514162e-39 252 267
-0.08869236 0.755 -0.035741698 4.2514162e-39 253 267
-0.08702144 0.75199997 -0.035599679 3.6089279e-39 254 267
-0.085133098 0.74699998 -0.035362978 4.4390473e-39 255 267
-0.083823353 0.74699998 -0.035362978 7.010067e-39 256 267
-0.082513615 0.74699998 -0.035362978 6.5494476e-39 257 267
-0.081421293 0.74900001 -0.03545766 1.0397555e-38 258 267
-0.080108039 0.74900001 -0.03545766 9.9365766e-39 259 267
-0.078584395 0.74699998 -0.035362978 1.0759879e-38 260 267
-0.077171214 0.74599999 -0.03531564 9.1003573e-39 261 267
-0.075456448 0.74199998 -0.03512628 4.9702851e-39 262 267
-0.074055538 0.741 -0.035078939 4.3249157e-39 263 267
-0.072461754 0.73799998 -0.034936916 7.1869403e-39 264 267
-0.070974931 0.736 -0.034842238 1.0413787e-38 265 267
-0.069684476 0.736 -0.034842238 1.344687e-38 266 267
-0.068208173 0.73400003 -0.03474756 1.2709303e-38 267 267
-0.066921227 0.73400003 -0.03474756 1.0584117e-38 268 267
-0.065544859 0.73299998 -0.034700219 8.3717816e-39 269 267
-0.064259663 0.73299998 -0.034700219 9.6527842e-39 270 267
-0.062974468 0.73299998 -0.034700219 1.0298154e-38 271 267
-0.06152096 0.73100001 -0.034605537 1.0763081e-38 272 267
-0.06023927 0.73100001 -0.034605537 1.2053819e-38 273 267
-0.058876935 0.73000002 -0.034558199 1.1039687e-38 274 267
-0.057597004 0.73000002 -0.034558199 9.6567527e-39 275 267
-0.056162767 0.72799999 -0.034463517 8.0908689e-39 276 267
-0.054886345 0.72799999 -0.034463517 7.1692728e-39 277 267
-0.053536277 0.727 -0.03441618 1.1874149e-38 278 267
-0.052117832 0.72500002 -0.034321502 1.6576485e-38 279 267
-0.050846666 0.72500002 -0.034321502 1.6503739e-38 280 267
-0.0495755 0.72500002 -0.034321502 1.585837e-38 281 267
-0.048171077 0.72299999 -0.03422682 1.4932821e-38 282 267
-0.046838548 0.722 -0.034179479 1.3734278e-38 283 267
-0.045446403 0.72000003 -0.034084801 1.0972334e-38 284 267
-0.043999899 0.71700001 -0.033942781 5.9937697e-39 285 267
-0.042742759 0.71700001 -0.033942781 5.2432371e-39 286 267
-0.041485619 0.71700001 -0.033942781 3.2149598e-39 287 267
-0.040228479 0.71700001 -0.033942781 6.7039912e-39 288 267
-0.038971342 0.71700001 -0.033942781 9.0049121e-39 289 267
-0.037714198 0.71700001 -0.033942781 9.4691244e-39 290 267
-0.036406212 0.71600002 -0.03389544 9.5613201e-39 291 267
-0.035150826 0.71600002 -0.03389544 7.8099688e-39 292 267
-0.03389544 0.71600002 -0.03389544 7.1646036e-39 293 267
-0.032548878 0.71399999 -0.033800758 1.4375639e-38 294 267
-0.031165501 0.71100003 -0.033658739 1.1978554e-38 295 267
-0.029918881 0.71100003 -0.033658739 2.4939511e-39 296 267
-0.028672259 0.71100003 -0.033658739 7.8412977e-39 297 267
-0.027425639 0.71100003 -0.033658739 1.5937265e-38 298 267
-0.026179021 0.71100003 -0.033658739 1.2157244e-38 299 267
-0.024932399 0.71100003 -0.033658739 3.8858735e-39 300 267
-0.023685781 0.71100003 -0.033658739 4.4390473e-39 301 267
-0.022439159 0.71100003 -0.033658739 7.7476349e-39 302 267
-0.021162732 0.70999998 -0.033611398 1.143546e-38 303 267
-0.019833706 0.70700002 -0.033469379 1.4176134e-38 304 267
