# .PCD v.7 - Point Cloud Data file format
FIELDS x y z rgb imX imY
SIZE 4 4 4 4 4 4
TYPE F F F F F F
COUNT 1 1 1 1 1 1
WIDTH 827
HEIGHT 1
VIEWPOINT 0 0 0 1 0 0 0
POINTS 827
DATA ascii
-0.077563956 0.60600001 -0.059501119 1.2542591e-38 247 296
-0.076248959 0.60399997 -0.05930474 1.3277991e-38 248 296
-0.075189941 0.60399997 -0.05930474 1.3554218e-38 249 296
-0.074008197 0.60299999 -0.059206553 1.3552402e-38 250 296
-0.072950937 0.60299999 -0.059206553 1.2907032e-38 251 296
-0.071893677 0.60299999 -0.059206553 1.336512e-38 252 296
-0.070718944 0.602 -0.059108369 1.3642067e-38 253 296
-0.069663435 0.602 -0.059108369 1.4105211e-38 254 296
-0.068607934 0.602 -0.059108369 1.5303396e-38 255 296
-0.067552425 0.602 -0.059108369 1.530627e-38 256 296
-0.066607378 0.60299999 -0.059206553 1.5122238e-38 257 296
-0.065550111 0.60299999 -0.059206553 1.5306267e-38 258 296
-0.064492859 0.60299999 -0.059206553 1.5951636e-38 259 296
-0.063330397 0.602 -0.059108369 1.5952715e-38 260 296
-0.062274896 0.602 -0.059108369 1.6229301e-38 261 296
-0.061219387 0.602 -0.059108369 1.6689201e-38 262 296
-0.06006394 0.60100001 -0.059010189 1.6781397e-38 263 296
-0.059010189 0.60100001 -0.059010189 1.6321498e-38 264 296
-0.057956431 0.60100001 -0.059010189 1.6505889e-38 265 296
-0.056902681 0.60100001 -0.059010189 1.7425324e-38 266 296
-0.05594185 0.602 -0.059108369 1.5765803e-38 267 296
-0.054886345 0.602 -0.059108369 1.1712418e-38 268 296
-0.053652 0.60000002 -0.058912002 1.1343637e-38 269 296
-0.0526 0.60000002 -0.058912002 1.3915034e-38 270 296
-0.051548 0.60000002 -0.058912002 1.7418468e-38 271 296
-0.050411835 0.59899998 -0.05881381 1.9263829e-38 272 296
-0.049526405 0.60100001 -0.059010189 1.9817003e-38 273 296
-0.04847265 0.60100001 -0.059010189 1.9541855e-38 274 296
-0.047340002 0.60000002 -0.058912002 1.9173432e-38 275 296
-0.046288002 0.60000002 -0.058912002 1.9081952e-38 276 296
-0.045235999 0.60000002 -0.058912002 1.9081952e-38 277 296
-0.044110358 0.59899998 -0.05881381 1.926598e-38 278 296
-0.043060109 0.59899998 -0.05881381 1.926598e-38 279 296
-0.042009864 0.59899998 -0.05881381 1.9357094e-38 280 296
-0.040891241 0.59799999 -0.058715623 1.9264899e-38 281 296
-0.039842743 0.59799999 -0.058715623 1.9080865e-38 282 296
-0.038794249 0.59799999 -0.058715623 1.9080865e-38 283 296
-0.037745759 0.59799999 -0.058715623 1.9173429e-38 284 296
-0.036697265 0.59799999 -0.058715623 1.7052929e-38 285 296
-0.035648771 0.59799999 -0.058715623 1.4383943e-38 286 296
-0.034600276 0.59799999 -0.058715623 1.1894661e-38 287 296
-0.033607893 0.59899998 -0.05881381 1.4103758e-38 288 296
-0.032557648 0.59899998 -0.05881381 1.7607551e-38 289 296
-0.031507399 0.59899998 -0.05881381 1.917056e-38 290 296
-0.030406304 0.59799999 -0.058715623 1.9078365e-38 291 296
-0.029357811 0.59799999 -0.058715623 1.7145128e-38 292 296
-0.028309319 0.59799999 -0.058715623 1.7052932e-38 293 296
-0.027260825 0.59799999 -0.058715623 1.8896472e-38 294 296
-0.026168499 0.597 -0.058617435 1.9449646e-38 295 296
-0.02512176 0.597 -0.058617435 1.9541844e-38 296 296
-0.024075018 0.597 -0.058617435 1.9541844e-38 297 296
-0.023028279 0.597 -0.058617435 1.9450011e-38 298 296
-0.021981539 0.597 -0.058617435 1.9450011e-38 299 296
-0.020969866 0.59799999 -0.058715623 1.9633688e-38 300 296
-0.019988 0.60000002 -0.058912002 2.0094665e-38 301 296
-0.018935999 0.60000002 -0.058912002 1.9265627e-38 302 296
-0.017913805 0.60100001 -0.059010189 1.751355e-38 303 296
-0.016860053 0.60100001 -0.059010189 1.3460171e-38 304 296
-0.015806301 0.60100001 -0.059010189 1.1708453e-38 305 296
-0.013539239 0.59399998 -0.058322877 1.6869237e-38 307 296
-0.012497759 0.59399998 -0.058322877 1.9541844e-38 308 296
-0.011456279 0.59399998 -0.058322877 1.9634041e-38 309 296
-0.010414799 0.59399998 -0.058322877 1.9359618e-38 310 296
-0.0093891006 0.59500003 -0.058421064 1.9359618e-38 311 296
-0.0083458666 0.59500003 -0.058421064 2.0002466e-38 312 296
-0.0073149065 0.59600002 -0.058519252 2.0002466e-38 313 296
-0.0062909597 0.59799999 -0.058715623 2.0183988e-38 314 296
-0.0052424665 0.59799999 -0.058715623 1.9169834e-38 315 296
-0.0041939733 0.59799999 -0.058715623 1.5854755e-38 316 296
-0.0031507397 0.59899998 -0.05881381 1.4010842e-38 317 296
-0.0021004933 0.59899998 -0.05881381 1.4473252e-38 318 296
-0.001052 0.60000002 -0.058912002 1.4933872e-38 319 296
0 0.60600001 -0.059501119 1.5116818e-38 320 296
0.0010642733 0.60699999 -0.059599306 1.5209373e-38 321 296
0.0021285466 0.60699999 -0.059599306 1.5392329e-38 322 296
0.00318756 0.60600001 -0.059501119 1.5484883e-38 323 296
0.0042360532 0.60399997 -0.05930474 1.5484881e-38 324 296
0.0052950666 0.60399997 -0.05930474 1.5484881e-38 325 296
0.0063540796 0.60399997 -0.05930474 1.5576357e-38 326 296
0.0074008191 0.60299999 -0.059206553 1.5576357e-38 327 296
0.0084580798 0.60299999 -0.059206553 1.5484881e-38 328 296
0.0095153395 0.60299999 -0.059206553 1.5577076e-38 329 296
0.010572599 0.60299999 -0.059206553 1.5209017e-38 330 296
0.011629859 0.60299999 -0.059206553 1.5024625e-38 331 296
0.01268712 0.60299999 -0.059206553 1.447182e-38 332 296
0.013767173 0.60399997 -0.05930474 1.4195593e-38 333 296
0.014826185 0.60399997 -0.05930474 1.3090333e-38 334 296
0.0159378 0.60600001 -0.059501119 1.2629357e-38 335 296
0.017056426 0.60799998 -0.05969749 1.1800672e-38 336 296
-0.106778 0.60900003 -0.060863461 9.8674533e-39 220 297
-0.10571022 0.60900003 -0.060863461 9.2220839e-39 221 297
-0.10464244 0.60900003 -0.060863461 8.9437146e-39 222 297
-0.10357466 0.60900003 -0.060863461 8.5752922e-39 223 297
-0.10250688 0.60900003 -0.060863461 8.4827462e-39 224 297
-0.1014391 0.60900003 -0.060863461 8.5749419e-39 225 297
-0.10037132 0.60900003 -0.060863461 8.7600492e-39 226 297
-0.099303536 0.60900003 -0.060863461 9.1288317e-39 227 297
-0.098235764 0.60900003 -0.060863461 9.4986764e-39 228 297
-0.097167984 0.60900003 -0.060863461 1.0328077e-38 229 297
-0.095942393 0.60799998 -0.060763516 1.1156387e-38 230 297
-0.094876371 0.60799998 -0.060763516 1.1894311e-38 231 297
-0.093810342 0.60799998 -0.060763516 1.2629725e-38 232 297
-0.092744313 0.60799998 -0.060763516 1.2629725e-38 233 297
-0.091527507 0.60699999 -0.060663577 1.272372e-38 234 297
-0.090463236 0.60699999 -0.060663577 1.3092501e-38 235 297
-0.089251675 0.60600001 -0.060563639 1.3644232e-38 236 297
-0.088189155 0.60600001 -0.060563639 1.3920817e-38 237 297
-0.08683908 0.60399997 -0.060363755 1.4288874e-38 238 297
-0.085780069 0.60399997 -0.060363755 1.4473266e-38 239 297
-0.084721066 0.60399997 -0.060363755 1.4566181e-38 240 297
-0.083662048 0.60399997 -0.060363755 1.438215e-38 241 297
-0.082603037 0.60399997 -0.060363755 1.4289957e-38 242 297
-0.081544019 0.60399997 -0.060363755 1.4197401e-38 243 297
-0.080485009 0.60399997 -0.060363755 1.401266e-38 244 297
-0.079425998 0.60399997 -0.060363755 1.3551683e-38 245 297
-0.07836698 0.60399997 -0.060363755 1.2725886e-38 246 297
-0.077307969 0.60399997 -0.060363755 1.2172714e-38 247 297
-0.076248959 0.60399997 -0.060363755 1.2814837e-38 248 297
-0.075065456 0.60299999 -0.060263816 1.2814837e-38 249 297
-0.074008197 0.60299999 -0.060263816 1.3092133e-38 250 297
-0.072829954 0.602 -0.060163878 1.3552752e-38 251 297
-0.071774453 0.602 -0.060163878 1.391973e-38 252 297
-0.070718944 0.602 -0.060163878 1.3458391e-38 253 297
-0.06954772 0.60100001 -0.06006394 1.2444961e-38 254 297
-0.06849397 0.60100001 -0.06006394 1.2629354e-38 255 297
-0.067440212 0.60100001 -0.06006394 1.2170902e-38 256 297
-0.066386454 0.60100001 -0.06006394 1.2078707e-38 257 297
-0.065441415 0.602 -0.060163878 1.1895404e-38 258 297
-0.064385906 0.602 -0.060163878 1.2448578e-38 259 297
-0.063225202 0.60100001 -0.06006394 1.2450023e-38 260 297
-0.062068 0.60000002 -0.059964001 1.2818805e-38 261 297
-0.061016005 0.60000002 -0.059964001 1.3280862e-38 262 297
-0.059964001 0.60000002 -0.059964001 1.374148e-38 263 297
-0.058912002 0.60000002 -0.059964001 1.4479035e-38 264 297
-0.057859998 0.60000002 -0.059964001 1.4847459e-38 265 297
-0.056808002 0.60000002 -0.059964001 1.4845647e-38 266 297
-0.055755999 0.60000002 -0.059964001 1.2909539e-38 267 297
-0.054703999 0.60000002 -0.059964001 1.088123e-38 268 297
-0.053562578 0.59899998 -0.059864055 1.1618795e-38 269 297
-0.052512329 0.59899998 -0.059864055 1.4285288e-38 270 297
-0.05146208 0.59899998 -0.059864055 1.7327383e-38 271 297
-0.050411835 0.59899998 -0.059864055 1.8804671e-38 272 297
-0.04936159 0.59899998 -0.059864055 1.8896867e-38 273 297
-0.048311342 0.59899998 -0.059864055 1.8714624e-38 274 297
-0.047261097 0.59899998 -0.059864055 1.8990852e-38 275 297
-0.046210852 0.59899998 -0.059864055 1.9083404e-38 276 297
-0.04508521 0.59799999 -0.059764117 1.8990848e-38 277 297
-0.044036716 0.59799999 -0.059764117 1.9266346e-38 278 297
-0.042988226 0.59799999 -0.059764117 1.9266346e-38 279 297
-0.041939732 0.59799999 -0.059764117 1.9358893e-38 280 297
-0.04082286 0.597 -0.059664179 1.9358893e-38 281 297
-0.03977612 0.597 -0.059664179 1.9449646e-38 282 297
-0.038729381 0.597 -0.059664179 1.935745e-38 283 297
-0.037682641 0.597 -0.059664179 1.8528781e-38 284 297
-0.036635898 0.597 -0.059664179 1.5209738e-38 285 297
-0.035589159 0.597 -0.059664179 1.1894661e-38 286 297
-0.034542419 0.597 -0.059664179 1.2908815e-38 287 297
-0.033495679 0.597 -0.059664179 1.6039856e-38 288 297
-0.03244894 0.597 -0.059664179 1.8897921e-38 289 297
-0.031454802 0.59799999 -0.059764117 1.9355299e-38 290 297
-0.030406304 0.59799999 -0.059764117 1.8156756e-38 291 297
-0.029308718 0.597 -0.059664179 1.7328793e-38 292 297
-0.028261978 0.597 -0.059664179 1.7974163e-38 293 297
-0.027215241 0.597 -0.059664179 1.9632605e-38 294 297
-0.026168499 0.597 -0.059664179 1.97248e-38 295 297
-0.02512176 0.597 -0.059664179 1.9541488e-38 296 297
-0.024075018 0.597 -0.059664179 1.9541488e-38 297 297
-0.023028279 0.597 -0.059664179 1.9541488e-38 298 297
-0.021981539 0.597 -0.059664179 1.9541488e-38 299 297
-0.0209348 0.597 -0.059664179 1.9634041e-38 300 297
-0.01988806 0.597 -0.059664179 2.0094659e-38 301 297
-0.018904438 0.59899998 -0.059864055 1.7977409e-38 302 297
-0.017854191 0.59899998 -0.059864055 1.4934593e-38 303 297
-0.016803946 0.59899998 -0.059864055 1.2996672e-38 304 297
-0.013539239 0.59399998 -0.059364356 1.8158892e-38 307 297
-0.012497759 0.59399998 -0.059364356 1.9819149e-38 308 297
-0.011456279 0.59399998 -0.059364356 1.9542562e-38 309 297
-0.010414799 0.59399998 -0.059364356 1.8713527e-38 310 297
-0.0093733193 0.59399998 -0.059364356 1.8897918e-38 311 297
-0.0083458666 0.59500003 -0.059464298 1.944929e-38 312 297
-0.0073149065 0.59600002 -0.059564237 2.0094659e-38 313 297
-0.0062699202 0.59600002 -0.059564237 1.9910999e-38 314 297
-0.0052336999 0.597 -0.059664179 1.8251119e-38 315 297
-0.0041869599 0.597 -0.059664179 1.5762559e-38 316 297
-0.00314022 0.597 -0.059664179 1.4103039e-38 317 297
-0.0020969866 0.59799999 -0.059764117 1.493171e-38 318 297
-0.0010484933 0.59799999 -0.059764117 1.5392329e-38 319 297
0 0.59899998 -0.059864055 1.5392329e-38 320 297
0.0010502466 0.59899998 -0.059864055 1.5392329e-38 321 297
0.0021180266 0.60399997 -0.060363755 1.5392329e-38 322 297
0.0031717799 0.60299999 -0.060263816 1.5484883e-38 323 297
0.0042220266 0.602 -0.060163878 1.5301212e-38 324 297
0.0052775331 0.602 -0.060163878 1.5301212e-38 325 297
0.0063330396 0.602 -0.060163878 1.5576357e-38 326 297
0.0073885461 0.602 -0.060163878 1.5760388e-38 327 297
0.0084440531 0.602 -0.060163878 1.5393764e-38 328 297
0.0094995601 0.602 -0.060163878 1.5301568e-38 329 297
0.010555066 0.602 -0.060163878 1.502427e-38 330 297
0.011610572 0.602 -0.060163878 1.4748041e-38 331 297
0.012666079 0.602 -0.060163878 1.4195593e-38 332 297
0.013744379 0.60299999 -0.060263816 1.3918646e-38 333 297
0.014801638 0.60299999 -0.060263816 1.2997416e-38 334 297
0.0158589 0.60299999 -0.060263816 1.2536438e-38 335 297
-0.10464244 0.60900003 -0.061931241 1.4840622e-38 222 298
-0.10357466 0.60900003 -0.061931241 1.4287449e-38 223 298
-0.10250688 0.60900003 -0.061931241 1.3735001e-38 224 298
-0.1014391 0.60900003 -0.061931241 1.3366218e-38 225 298
-0.10037132 0.60900003 -0.061931241 1.2998515e-38 226 298
-0.099303536 0.60900003 -0.061931241 1.2813763e-38 227 298
-0.098235764 0.60900003 -0.061931241 1.1986155e-38 228 298
-0.097167984 0.60900003 -0.061931241 1.1432981e-38 229 298
-0.095942393 0.60799998 -0.061829545 1.1155668e-38 230 298
-0.094876371 0.60799998 -0.061829545 1.0879082e-38 231 298
-0.093810342 0.60799998 -0.061829545 1.023516e-38 232 298
-0.09259177 0.60699999 -0.061727855 9.5897902e-39 233 298
-0.091376722 0.60600001 -0.061626155 7.5722862e-39 234 298
-0.090314202 0.60600001 -0.061626155 6.9269168e-39 235 298
-0.088957109 0.60399997 -0.061422769 7.9378317e-39 236 298
-0.087898098 0.60399997 -0.061422769 8.0300273e-39 237 298
-0.086695313 0.60299999 -0.061321076 9.0398535e-39 238 298
-0.085638054 0.60299999 -0.061321076 9.3168005e-39 239 298
-0.084721066 0.60399997 -0.061422769 1.0328427e-38 240 298
-0.083523534 0.60299999 -0.061321076 1.0973797e-38 241 298
-0.082466274 0.60299999 -0.061321076 1.1986508e-38 242 298
-0.081409015 0.60299999 -0.061321076 1.2447126e-38 243 298
-0.080351755 0.60299999 -0.061321076 1.2815193e-38 244 298
-0.079294495 0.60299999 -0.061321076 1.2999584e-38 245 298
-0.078237236 0.60299999 -0.061321076 1.3183978e-38 246 298
-0.077307969 0.60399997 -0.061422769 1.3460206e-38 247 298
-0.076122716 0.60299999 -0.061321076 1.3826824e-38 248 298
-0.075065456 0.60299999 -0.061321076 1.3919379e-38 249 298
-0.073885463 0.602 -0.061219387 1.4288508e-38 250 298
-0.072829954 0.602 -0.061219387 1.4565096e-38 251 298
-0.071774453 0.602 -0.061219387 1.4656562e-38 252 298
-0.070601478 0.60100001 -0.061117694 1.4472171e-38 253 298
-0.069432005 0.60000002 -0.061016005 1.4104111e-38 254 298
-0.068379998 0.60000002 -0.061016005 1.4288502e-38 255 298
-0.067440212 0.60100001 -0.061117694 1.4012644e-38 256 298
-0.066386454 0.60100001 -0.061117694 1.3735697e-38 257 298
-0.065332703 0.60100001 -0.061117694 1.3367287e-38 258 298
-0.064278953 0.60100001 -0.061117694 1.3367287e-38 259 298
-0.06312 0.60000002 -0.061016005 1.2908117e-38 260 298
-0.062068 0.60000002 -0.061016005 1.1985802e-38 261 298
-0.0609143 0.59899998 -0.0609143 1.1984728e-38 262 298
-0.059864055 0.59899998 -0.0609143 1.1800337e-38 263 298
-0.05881381 0.59899998 -0.0609143 1.1800687e-38 264 298
-0.057763565 0.59899998 -0.0609143 1.1800687e-38 265 298
-0.056523956 0.597 -0.060710918 1.1891438e-38 266 298
-0.055477221 0.597 -0.060710918 1.2536808e-38 267 298
-0.054430481 0.597 -0.060710918 1.3455873e-38 268 298
-0.053383738 0.597 -0.060710918 1.3455873e-38 269 298
-0.052336998 0.597 -0.060710918 1.2538962e-38 270 298
-0.051290259 0.597 -0.060710918 1.3552755e-38 271 298
-0.050411835 0.59899998 -0.0609143 1.3741117e-38 272 298
-0.04936159 0.59899998 -0.0609143 1.3833313e-38 273 298
-0.048230689 0.59799999 -0.060812607 1.4662348e-38 274 298
-0.047103297 0.597 -0.060710918 1.4938936e-38 275 298
-0.046056557 0.597 -0.060710918 1.5125124e-38 276 298
-0.045009818 0.597 -0.060710918 1.5401712e-38 277 298
-0.043963078 0.597 -0.060710918 1.613783e-38 278 298
-0.042844452 0.59600002 -0.060609225 1.6414415e-38 279 298
-0.041799467 0.59600002 -0.060609225 1.7149812e-38 280 298
-0.040754482 0.59600002 -0.060609225 1.7426401e-38 281 298
-0.039709494 0.59600002 -0.060609225 1.8345469e-38 282 298
-0.038599633 0.59500003 -0.060507536 1.7515349e-38 283 298
-0.037556402 0.59500003 -0.060507536 1.585727e-38 284 298
-0.036574531 0.59600002 -0.060609225 1.2815173e-38 285 298
-0.035529546 0.59600002 -0.060609225 1.2168732e-38 286 298
-0.034484562 0.59600002 -0.060609225 1.5118992e-38 287 298
-0.033439573 0.59600002 -0.060609225 1.769723e-38 288 298
-0.032394584 0.59600002 -0.060609225 1.9725533e-38 289 298
-0.031349599 0.59600002 -0.060609225 1.9171278e-38 290 298
-0.030355459 0.597 -0.060710918 1.8341516e-38 291 298
-0.029259626 0.59600002 -0.060609225 1.8528059e-38 292 298
-0.028214641 0.59600002 -0.060609225 1.8989038e-38 293 298
-0.027169652 0.59600002 -0.060609225 2.0093943e-38 294 298
-0.026124667 0.59600002 -0.060609225 2.0093943e-38 295 298
-0.025079681 0.59600002 -0.060609225 1.9910271e-38 296 298
-0.024075018 0.597 -0.060710918 1.9910271e-38 297 298
-0.023028279 0.597 -0.060710918 1.9726237e-38 298 298
-0.021981539 0.597 -0.060710918 1.9726237e-38 299 298
-0.0209348 0.597 -0.060710918 2.0001745e-38 300 298
-0.01988806 0.597 -0.060710918 1.9817353e-38 301 298
-0.018841321 0.597 -0.060710918 1.6318964e-38 302 298
-0.017854191 0.59899998 -0.0609143 1.2354552e-38 303 298
-0.016803946 0.59899998 -0.0609143 1.2995952e-38 304 298
-0.015595899 0.59299999 -0.060304146 1.4102299e-38 305 298
-0.014556173 0.59299999 -0.060304146 1.8434046e-38 306 298
-0.013516447 0.59299999 -0.060304146 1.9356003e-38 307 298
-0.01247672 0.59299999 -0.060304146 1.963476e-38 308 298
-0.011436992 0.59299999 -0.060304146 1.9173782e-38 309 298
-0.010397266 0.59299999 -0.060304146 1.8987235e-38 310 298
-0.0093733193 0.59399998 -0.060405839 1.9079431e-38 311 298
-0.0083318399 0.59399998 -0.060405839 1.9357097e-38 312 298
-0.0072903596 0.59399998 -0.060405839 2.0094662e-38 313 298
-0.0062593999 0.59500003 -0.060507536 1.9266349e-38 314 298
-0.0052161668 0.59500003 -0.060507536 1.5762556e-38 315 298
-0.0041729333 0.59500003 -0.060507536 1.382825e-38 316 298
-0.0031349601 0.59600002 -0.060609225 1.3643857e-38 317 298
-0.0020899733 0.59600002 -0.060609225 1.5299052e-38 318 298
-0.00104674 0.597 -0.060710918 1.5667474e-38 319 298
0 0.597 -0.060710918 1.5392332e-38 320 298
0.0010484933 0.59799999 -0.060812607 1.5484527e-38 321 298
0.0020969866 0.59799999 -0.060812607 1.5301212e-38 322 298
0.003156 0.60000002 -0.061016005 1.5209017e-38 323 298
0.0042079999 0.60000002 -0.061016005 1.5301568e-38 324 298
0.00526 0.60000002 -0.061016005 1.5301568e-38 325 298
0.0063120001 0.60000002 -0.061016005 1.5484878e-38 326 298
0.0073640002 0.60000002 -0.061016005 1.5484878e-38 327 298
0.0084159998 0.60000002 -0.061016005 1.5301565e-38 328 298
0.0094679995 0.60000002 -0.061016005 1.520937e-38 329 298
0.01052 0.60000002 -0.061016005 1.4840957e-38 330 298
0.011572001 0.60000002 -0.061016005 1.4564369e-38 331 298
0.012624 0.60000002 -0.061016005 1.3828253e-38 332 298
0.013676 0.60000002 -0.061016005 1.3367275e-38 333 298
0.014728 0.60000002 -0.061016005 1.2722271e-38 334 298
0.0158589 0.60299999 -0.061321076 1.2076902e-38 335 298
-0.10357466 0.60900003 -0.062999018 1.8063854e-38 223 299
-0.10250688 0.60900003 -0.062999018 1.7512481e-38 224 299
-0.10127252 0.60799998 -0.062895566 1.7235894e-38 225 299
-0.10020649 0.60799998 -0.062895566 1.6592322e-38 226 299
-0.099140473 0.60799998 -0.062895566 1.6500127e-38 227 299
-0.098074444 0.60799998 -0.062895566 1.59466e-38 228 299
-0.097167984 0.60900003 -0.062999018 1.5209035e-38 229 299
-0.095942393 0.60799998 -0.062895566 1.4748058e-38 230 299
-0.094876371 0.60799998 -0.062895566 1.4102689e-38 231 299
-0.093810342 0.60799998 -0.062895566 1.2997782e-38 232 299
-0.09259177 0.60699999 -0.062792122 1.2168381e-38 233 299
-0.091075137 0.60399997 -0.06248178 1.0790128e-38 234 299
-0.090016127 0.60399997 -0.06248178 9.9603678e-39 235 299
-0.088957109 0.60399997 -0.06248178 9.6816355e-39 236 299
-0.087898098 0.60399997 -0.06248178 9.2206588e-39 237 299
-0.086695313 0.60299999 -0.062378336 8.7600492e-39 238 299
-0.085638054 0.60299999 -0.062378336 8.4834623e-39 239 299
-0.084580794 0.60299999 -0.062378336 8.6660557e-39 240 299
-0.083523534 0.60299999 -0.062378336 8.850447e-39 241 299
-0.082466274 0.60299999 -0.062378336 9.4036039e-39 242 299
-0.081409015 0.60299999 -0.062378336 1.0417756e-38 243 299
-0.080351755 0.60299999 -0.062378336 1.0694693e-38 244 299
-0.079294495 0.60299999 -0.062378336 1.1155671e-38 245 299
-0.078237236 0.60299999 -0.062378336 1.1433347e-38 246 299
-0.077179976 0.60299999 -0.062378336 1.180249e-38 247 299
-0.076122716 0.60299999 -0.062378336 1.2262747e-38 248 299
-0.075065456 0.60299999 -0.062378336 1.2538974e-38 249 299
-0.073885463 0.602 -0.062274896 1.3275445e-38 250 299
-0.072708979 0.60100001 -0.062171444 1.3552032e-38 251 299
-0.071655221 0.60100001 -0.062171444 1.3736053e-38 252 299
-0.070483997 0.60000002 -0.062068 1.382825e-38 253 299
-0.069432005 0.60000002 -0.062068 1.4381422e-38 254 299
-0.068379998 0.60000002 -0.062068 1.4473619e-38 255 299
-0.067215785 0.59899998 -0.061964549 1.4841679e-38 256 299
-0.066165537 0.59899998 -0.061964549 1.4841679e-38 257 299
-0.065223999 0.60000002 -0.062068 1.4566168e-38 258 299
-0.064172 0.60000002 -0.062068 1.4381776e-38 259 299
-0.063014798 0.59899998 -0.061964549 1.3829695e-38 260 299
-0.061964549 0.59899998 -0.061964549 1.2907739e-38 261 299
-0.0609143 0.59899998 -0.061964549 1.2816269e-38 262 299
-0.059864055 0.59899998 -0.061964549 1.2447126e-38 263 299
-0.05881381 0.59899998 -0.061964549 1.2261649e-38 264 299
-0.057667129 0.59799999 -0.061861102 1.1984703e-38 265 299
-0.056523956 0.597 -0.061757658 1.2352047e-38 266 299
-0.055384293 0.59600002 -0.061654214 1.290522e-38 267 299
-0.054339305 0.59600002 -0.061654214 1.4285984e-38 268 299
-0.053383738 0.597 -0.061757658 1.4285984e-38 269 299
-0.052249335 0.59600002 -0.061654214 1.2813375e-38 270 299
-0.051204346 0.59600002 -0.061654214 1.2813375e-38 271 299
-0.050159361 0.59600002 -0.061654214 1.1803196e-38 272 299
-0.049114373 0.59600002 -0.061654214 1.2263814e-38 273 299
-0.048069384 0.59600002 -0.061654214 1.2355306e-38 274 299
-0.047024403 0.59600002 -0.061654214 1.2540057e-38 275 299
-0.045979414 0.59600002 -0.061654214 1.2450744e-38 276 299
-0.044934426 0.59600002 -0.061654214 1.3188311e-38 277 299
-0.043889441 0.59600002 -0.061654214 1.4109544e-38 278 299
-0.042772565 0.59500003 -0.06155077 1.4570882e-38 279 299
-0.041729335 0.59500003 -0.06155077 1.52148e-38 280 299
-0.040686101 0.59500003 -0.06155077 1.5583222e-38 281 299
-0.039642867 0.59500003 -0.06155077 1.6595194e-38 282 299
-0.038534757 0.59399998 -0.061447315 1.5949824e-38 283 299
-0.037493277 0.59399998 -0.061447315 1.4199178e-38 284 299
-0.036513168 0.59500003 -0.06155077 1.244782e-38 285 299
-0.035469934 0.59500003 -0.06155077 1.3272208e-38 286 299
-0.0344267 0.59500003 -0.06155077 1.5392707e-38 287 299
-0.033383466 0.59500003 -0.06155077 1.7513933e-38 288 299
-0.032340236 0.59500003 -0.06155077 1.8804671e-38 289 299
-0.031296998 0.59500003 -0.06155077 1.8805019e-38 290 299
-0.030304613 0.59600002 -0.061654214 1.8436235e-38 291 299
-0.029210532 0.59500003 -0.06155077 1.8622779e-38 292 299
-0.0281673 0.59500003 -0.06155077 1.9268148e-38 293 299
-0.027124068 0.59500003 -0.06155077 1.9727675e-38 294 299
-0.026080834 0.59500003 -0.06155077 2.0004263e-38 295 299
-0.0250376 0.59500003 -0.06155077 1.9912066e-38 296 299
-0.024034692 0.59600002 -0.061654214 1.981987e-38 297 299
-0.022989707 0.59600002 -0.061654214 1.9819151e-38 298 299
-0.021907901 0.59500003 -0.06155077 1.9819151e-38 299 299
-0.020864667 0.59500003 -0.06155077 2.0277609e-38 300 299
-0.019821433 0.59500003 -0.06155077 1.9079065e-38 301 299
-0.018746639 0.59399998 -0.061447315 1.5119691e-38 302 299
-0.017705159 0.59399998 -0.061447315 1.1431867e-38 303 299
-0.01666368 0.59399998 -0.061447315 1.4009029e-38 304 299
-0.015595899 0.59299999 -0.061343871 1.5945137e-38 305 299
-0.014531626 0.59200001 -0.061240427 1.9171267e-38 306 299
-0.013493653 0.59200001 -0.061240427 1.9908833e-38 307 299
-0.012455679 0.59200001 -0.061240427 1.9633691e-38 308 299
-0.011417706 0.59200001 -0.061240427 1.9356744e-38 309 299
-0.010379734 0.59200001 -0.061240427 1.9264182e-38 310 299
-0.0093575399 0.59299999 -0.061343871 1.9356378e-38 311 299
-0.0083178133 0.59299999 -0.061343871 1.9541844e-38 312 299
-0.0072780866 0.59299999 -0.061343871 2.0094659e-38 313 299
-0.0062488797 0.59399998 -0.061447315 1.7704062e-38 314 299
-0.0052073994 0.59399998 -0.061447315 1.3094281e-38 315 299
-0.00416592 0.59399998 -0.061447315 1.3182163e-38 316 299
-0.0031244399 0.59399998 -0.061447315 1.4195956e-38 317 299
-0.00208296 0.59399998 -0.061447315 1.5116102e-38 318 299
-0.00104148 0.59399998 -0.061447315 1.5300133e-38 319 299
0 0.59500003 -0.06155077 1.5392332e-38 320 299
0.0010449867 0.59600002 -0.061654214 1.5484527e-38 321 299
0.0020899733 0.59600002 -0.061654214 1.5484883e-38 322 299
0.0031349601 0.59600002 -0.061654214 1.5484883e-38 323 299
0.0041869599 0.597 -0.061757658 1.5392685e-38 324 299
0.0052424665 0.59799999 -0.061861102 1.5484881e-38 325 299
0.0062909597 0.59799999 -0.061861102 1.5210086e-38 326 299
0.0073394529 0.59799999 -0.061861102 1.5210086e-38 327 299
0.0083739199 0.597 -0.061757658 1.5210086e-38 328 299
0.0094206603 0.597 -0.061757658 1.511789e-38 329 299
0.0104674 0.597 -0.061757658 1.4656567e-38 330 299
0.011514139 0.597 -0.061757658 1.4287786e-38 331 299
0.012581919 0.59799999 -0.061861102 1.3459839e-38 332 299
0.013630413 0.59799999 -0.061861102 1.2906667e-38 333 299
0.014654359 0.597 -0.061757658 1.2353849e-38 334 299
0.0157011 0.597 -0.061757658 1.1708479e-38 335 299
-0.10250688 0.60900003 -0.064066797 1.8432642e-38 224 300
-0.10127252 0.60799998 -0.063961595 1.8524839e-38 225 300
-0.10020649 0.60799998 -0.063961595 1.8432639e-38 226 300
-0.099140473 0.60799998 -0.063961595 1.8893618e-38 227 300
-0.098074444 0.60799998 -0.063961595 1.9079811e-38 228 300
-0.097167984 0.60900003 -0.064066797 1.9079811e-38 229 300
-0.096100196 0.60900003 -0.064066797 1.9263126e-38 230 300
-0.091075137 0.60399997 -0.063540794 1.8342965e-38 234 300
-0.090016127 0.60399997 -0.063540794 1.7789791e-38 235 300
-0.089251675 0.60600001 -0.063751198 1.7327739e-38 236 300
-0.087898098 0.60399997 -0.063540794 1.6589816e-38 237 300
-0.086695313 0.60299999 -0.063435599 1.5485626e-38 238 300
-0.085638054 0.60299999 -0.063435599 1.4932452e-38 239 300
-0.084580794 0.60299999 -0.063435599 1.4288521e-38 240 300
-0.083523534 0.60299999 -0.063435599 1.3827544e-38 241 300
-0.082466274 0.60299999 -0.063435599 1.3275092e-38 242 300
-0.08127401 0.602 -0.063330397 1.2629722e-38 243 300
-0.080218501 0.602 -0.063330397 1.1708489e-38 244 300
-0.079163 0.602 -0.063330397 1.0970924e-38 245 300
-0.078237236 0.60299999 -0.063435599 9.3182424e-39 246 300
-0.077179976 0.60299999 -0.063435599 8.4884818e-39 247 300
-0.076248959 0.60399997 -0.063540794 7.9378289e-39 248 300
-0.075065456 0.60299999 -0.063435599 7.3846551e-39 249 300
-0.073885463 0.602 -0.063330397 8.3930463e-39 250 300
-0.072708979 0.60100001 -0.063225202 8.3930463e-39 251 300
-0.071655221 0.60100001 -0.063225202 8.7593051e-39 252 300
-0.070483997 0.60000002 -0.06312 8.8518595e-39 253 300
-0.069432005 0.60000002 -0.06312 9.2220811e-39 254 300
-0.068379998 0.60000002 -0.06312 9.7752549e-39 255 300
-0.067215785 0.59899998 -0.063014798 1.0420257e-38 256 300
-0.066165537 0.59899998 -0.063014798 1.0880877e-38 257 300
-0.065223999 0.60000002 -0.06312 1.1341858e-38 258 300
-0.064172 0.60000002 -0.06312 1.1803196e-38 259 300
-0.063014798 0.59899998 -0.063014798 1.2263817e-38 260 300
-0.061964549 0.59899998 -0.063014798 1.2724436e-38 261 300
-0.0609143 0.59899998 -0.063014798 1.3184328e-38 262 300
-0.059864055 0.59899998 -0.063014798 1.3460555e-38 263 300
-0.058715623 0.59799999 -0.062909603 1.4013366e-38 264 300
-0.057667129 0.59799999 -0.062909603 1.438215e-38 265 300
-0.056523956 0.597 -0.062804401 1.4933524e-38 266 300
-0.055384293 0.59600002 -0.062699199 1.4841329e-38 267 300
-0.054339305 0.59600002 -0.062699199 1.5392335e-38 268 300
-0.05329432 0.59600002 -0.062699199 1.529978e-38 269 300
-0.052249335 0.59600002 -0.062699199 1.5115749e-38 270 300
-0.051204346 0.59600002 -0.062699199 1.529978e-38 271 300
-0.050075199 0.59500003 -0.062593997 1.4472902e-38 272 300
-0.049031969 0.59500003 -0.062593997 1.4195956e-38 273 300
-0.048069384 0.59600002 -0.062699199 1.4103408e-38 274 300
-0.047024403 0.59600002 -0.062699199 1.3919377e-38 275 300
-0.045902267 0.59500003 -0.062593997 1.2815918e-38 276 300
-0.044859033 0.59500003 -0.062593997 1.2170549e-38 277 300
-0.043815803 0.59500003 -0.062593997 1.2536455e-38 278 300
-0.042772565 0.59500003 -0.062593997 1.2075835e-38 279 300
-0.041729335 0.59500003 -0.062593997 1.1616647e-38 280 300
-0.040686101 0.59500003 -0.062593997 1.1155668e-38 281 300
-0.039576236 0.59399998 -0.062488798 1.1338968e-38 282 300
-0.038534757 0.59399998 -0.062488798 1.1431164e-38 283 300
-0.037493277 0.59399998 -0.062488798 1.2169082e-38 284 300
-0.036451798 0.59399998 -0.062488798 1.3367625e-38 285 300
-0.035350706 0.59299999 -0.062383596 1.4377106e-38 286 300
-0.034310978 0.59299999 -0.062383596 1.3455152e-38 287 300
-0.033271253 0.59299999 -0.062383596 1.2997785e-38 288 300
-0.032231525 0.59299999 -0.062383596 1.3089982e-38 289 300
-0.031191798 0.59299999 -0.062383596 1.2725884e-38 290 300
-0.03020292 0.59399998 -0.062488798 1.3463809e-38 291 300
-0.029161438 0.59399998 -0.062488798 1.401878e-38 292 300
-0.028119959 0.59399998 -0.062488798 1.4571595e-38 293 300
-0.027078478 0.59399998 -0.062488798 1.5399191e-38 294 300
-0.026036998 0.59399998 -0.062488798 1.6044561e-38 295 300
-0.024995519 0.59399998 -0.062488798 1.6690283e-38 296 300
-0.023994366 0.59500003 -0.062593997 1.7059066e-38 297 300
-0.022912558 0.59399998 -0.062488798 1.8253286e-38 298 300
-0.021871079 0.59399998 -0.062488798 1.8622428e-38 299 300
-0.020829597 0.59399998 -0.062488798 1.8891453e-38 300 300
-0.019754807 0.59299999 -0.062383596 1.6033029e-38 301 300
-0.01871508 0.59299999 -0.062383596 1.2354549e-38 302 300
-0.017675353 0.59299999 -0.062383596 1.1985407e-38 303 300
-0.016607573 0.59200001 -0.062278397 1.5760038e-38 304 300
-0.015569599 0.59200001 -0.062278397 1.7880539e-38 305 300
-0.014507079 0.59100002 -0.062173203 1.9816653e-38 306 300
-0.013470859 0.59100002 -0.062173203 2.0277271e-38 307 300
-0.01243464 0.59100002 -0.062173203 2.0094312e-38 308 300
-0.011398421 0.59100002 -0.062173203 2.0002116e-38 309 300
-0.010379734 0.59200001 -0.062278397 1.9909196e-38 310 300
-0.0093417596 0.59200001 -0.062278397 2.0277977e-38 311 300
-0.0083037866 0.59200001 -0.062278397 2.0555284e-38 312 300
-0.0072658132 0.59200001 -0.062278397 1.8896122e-38 313 300
-0.00623836 0.59299999 -0.062383596 1.585691e-38 314 300
-0.0051986328 0.59299999 -0.062383596 1.2537508e-38 315 300
-0.0041589066 0.59299999 -0.062383596 1.3826448e-38 316 300
-0.00311918 0.59299999 -0.062383596 1.4748764e-38 317 300
-0.0020794533 0.59299999 -0.062383596 1.5116818e-38 318 300
-0.0010397267 0.59299999 -0.062383596 1.5116818e-38 319 300
0 0.59399998 -0.062488798 1.5392682e-38 320 300
0.00104148 0.59399998 -0.062488798 1.5392682e-38 321 300
0.0020864666 0.59500003 -0.062593997 1.5392682e-38 322 300
0.0031297 0.59500003 -0.062593997 1.5392682e-38 323 300
0.0041729333 0.59500003 -0.062593997 1.5392682e-38 324 300
0.0052249334 0.59600002 -0.062699199 1.5392682e-38 325 300
0.0062804399 0.597 -0.062804401 1.5117893e-38 326 300
0.0073271794 0.597 -0.062804401 1.5210089e-38 327 300
0.0083598932 0.59600002 -0.062699199 1.5117537e-38 328 300
0.00940488 0.59600002 -0.062699199 1.484131e-38 329 300
0.010449867 0.59600002 -0.062699199 1.4012641e-38 330 300
0.011494854 0.59600002 -0.062699199 1.3643857e-38 331 300
0.01256088 0.597 -0.062804401 1.2998862e-38 332 300
0.013584826 0.59600002 -0.062699199 1.2630078e-38 333 300
0.014629813 0.59600002 -0.062699199 1.1708123e-38 334 300
0.0156748 0.59600002 -0.062699199 1.115495e-38 335 300
-0.087898098 0.60399997 -0.064599805 1.7329169e-38 237 301
-0.08683908 0.60399997 -0.064599805 1.668452e-38 238 301
-0.085638054 0.60299999 -0.064492859 1.6500127e-38 239 301
-0.084580794 0.60299999 -0.064492859 1.6039872e-38 240 301
-0.08338502 0.602 -0.064385906 1.5671089e-38 241 301
-0.082329519 0.602 -0.064385906 1.5486345e-38 242 301
-0.08127401 0.602 -0.064385906 1.5117562e-38 243 301
-0.080218501 0.602 -0.064385906 1.4564749e-38 244 301
-0.079163 0.602 -0.064385906 1.410341e-38 245 301
-0.078237236 0.60299999 -0.064492859 1.3091414e-38 246 301
-0.077179976 0.60299999 -0.064492859 1.2446044e-38 247 301
-0.076122716 0.60299999 -0.064492859 1.1801757e-38 248 301
-0.075065456 0.60299999 -0.064492859 1.152553e-38 249 301
-0.073885463 0.602 -0.064385906 1.1524101e-38 250 301
-0.072829954 0.602 -0.064385906 1.1063122e-38 251 301
-0.071655221 0.60100001 -0.064278953 1.0509951e-38 252 301
-0.070601478 0.60100001 -0.064278953 1.0233006e-38 253 301
-0.069432005 0.60000002 -0.064172 9.866031e-39 254 301
-0.068379998 0.60000002 -0.064172 9.7738354e-39 255 301
-0.066386454 0.60100001 -0.064278953 1.0050415e-38 257 301
-0.065332703 0.60100001 -0.064278953 1.0050768e-38 258 301
-0.064172 0.60000002 -0.064172 1.0419551e-38 259 301
-0.063014798 0.59899998 -0.064065039 1.0513191e-38 260 301
-0.061964549 0.59899998 -0.064065039 1.0789778e-38 261 301
-0.0609143 0.59899998 -0.064065039 1.0699735e-38 262 301
-0.059864055 0.59899998 -0.064065039 1.0699735e-38 263 301
-0.058715623 0.59799999 -0.063958094 1.1617372e-38 264 301
-0.057570696 0.597 -0.06385114 1.1801762e-38 265 301
-0.056523956 0.597 -0.06385114 1.2536808e-38 266 301
-0.055384293 0.59600002 -0.063744187 1.2721199e-38 267 301
-0.054339305 0.59600002 -0.063744187 1.2998138e-38 268 301
-0.05329432 0.59600002 -0.063744187 1.3274726e-38 269 301
-0.052161667 0.59500003 -0.063637234 1.3367278e-38 270 301
-0.051118433 0.59500003 -0.063637234 1.3643504e-38 271 301
-0.050075199 0.59500003 -0.063637234 1.382825e-38 272 301
-0.049031969 0.59500003 -0.063637234 1.382825e-38 273 301
-0.047988731 0.59500003 -0.063637234 1.4012641e-38 274 301
-0.047024403 0.59600002 -0.063744187 1.4012641e-38 275 301
-0.045825116 0.59399998 -0.063530274 1.3276524e-38 276 301
-0.044783637 0.59399998 -0.063530274 1.3460555e-38 277 301
-0.04366852 0.59299999 -0.063423328 1.3643507e-38 278 301
-0.042628791 0.59299999 -0.063423328 1.3459117e-38 279 301
-0.041729335 0.59500003 -0.063637234 1.3826098e-38 280 301
-0.040686101 0.59500003 -0.063637234 1.3457675e-38 281 301
-0.039509613 0.59299999 -0.063423328 1.3365473e-38 282 301
-0.038469885 0.59299999 -0.063423328 1.3550224e-38 283 301
-0.03743016 0.59299999 -0.063423328 1.4010479e-38 284 301
-0.036390431 0.59299999 -0.063423328 1.4471099e-38 285 301
-0.035350706 0.59299999 -0.063423328 1.5021751e-38 286 301
-0.034253117 0.59200001 -0.063316368 1.400796e-38 287 301
-0.033215147 0.59200001 -0.063316368 1.2903421e-38 288 301
-0.032177173 0.59200001 -0.063316368 1.253464e-38 289 301
-0.031139199 0.59200001 -0.063316368 1.1801056e-38 290 301
-0.030152073 0.59299999 -0.063423328 1.1985449e-38 291 301
-0.029063253 0.59200001 -0.063316368 1.1895775e-38 292 301
-0.028025279 0.59200001 -0.063316368 1.2264559e-38 293 301
-0.026987307 0.59200001 -0.063316368 1.2910285e-38 294 301
-0.025949333 0.59200001 -0.063316368 1.34631e-38 295 301
-0.024911359 0.59200001 -0.063316368 1.4199221e-38 296 301
-0.023913713 0.59299999 -0.063423328 1.447581e-38 297 301
-0.022873985 0.59299999 -0.063423328 1.5119736e-38 298 301
-0.02183426 0.59299999 -0.063423328 1.5580355e-38 299 301
-0.020759467 0.59200001 -0.063316368 1.5395231e-38 300 301
-0.019721493 0.59200001 -0.063316368 1.2721199e-38 301 301
-0.018683519 0.59200001 -0.063316368 1.1802466e-38 302 301
-0.017645547 0.59200001 -0.063316368 1.2632226e-38 303 301
-0.01657952 0.59100002 -0.063209422 1.4840254e-38 304 301
-0.015543301 0.59100002 -0.063209422 1.6868558e-38 305 301
-0.014507079 0.59100002 -0.063209422 1.7701558e-38 306 301
-0.013470859 0.59100002 -0.063209422 1.8254732e-38 307 301
-0.01243464 0.59100002 -0.063209422 1.8714977e-38 308 301
-0.011398421 0.59100002 -0.063209422 1.8991204e-38 309 301
-0.0103622 0.59100002 -0.063209422 1.9267066e-38 310 301
-0.0093417596 0.59200001 -0.063316368 1.9451458e-38 311 301
-0.0083037866 0.59200001 -0.063316368 1.9818801e-38 312 301
-0.0072658132 0.59200001 -0.063316368 1.6868182e-38 313 301
-0.0062278397 0.59200001 -0.063316368 1.4014792e-38 314 301
-0.0051986328 0.59299999 -0.063423328 1.2631858e-38 315 301
-0.0041589066 0.59299999 -0.063423328 1.4471449e-38 316 301
-0.00311918 0.59299999 -0.063423328 1.5209373e-38 317 301
-0.0020794533 0.59299999 -0.063423328 1.5300486e-38 318 301
-0.0010397267 0.59299999 -0.063423328 1.5392682e-38 319 301
0 0.59299999 -0.063423328 1.5392682e-38 320 301
0.0010397267 0.59299999 -0.063423328 1.5392682e-38 321 301
0.0020794533 0.59299999 -0.063423328 1.5484159e-38 322 301
0.0031244399 0.59399998 -0.063530274 1.5484159e-38 323 301
0.00416592 0.59399998 -0.063530274 1.5392682e-38 324 301
0.0052073994 0.59399998 -0.063530274 1.5484878e-38 325 301
0.0062488797 0.59399998 -0.063530274 1.5301568e-38 326 301
0.0072903596 0.59399998 -0.063530274 1.5209373e-38 327 301
0.0083318399 0.59399998 -0.063530274 1.5300133e-38 328 301
0.0093733193 0.59399998 -0.063530274 1.493171e-38 329 301
0.010414799 0.59399998 -0.063530274 1.4103761e-38 330 301
0.011456279 0.59399998 -0.063530274 1.3642783e-38 331 301
0.0125188 0.59500003 -0.063637234 1.2906667e-38 332 301
0.013562034 0.59500003 -0.063637234 1.2261297e-38 333 301
0.014605266 0.59500003 -0.063637234 1.1891438e-38 334 301
0.015648499 0.59500003 -0.063637234 1.1153873e-38 335 301
0.016691733 0.59500003 -0.063637234 1.124535e-38 336 301
-0.08683908 0.60399997 -0.065658823 1.6776718e-38 238 302
-0.085638054 0.60299999 -0.065550111 1.6684522e-38 239 302
-0.084580794 0.60299999 -0.065550111 1.6959674e-38 240 302
-0.08338502 0.602 -0.065441415 1.6959674e-38 241 302
-0.082329519 0.602 -0.065441415 1.6960756e-38 242 302
-0.081409015 0.60299999 -0.065550111 1.6776365e-38 243 302
-0.080218501 0.602 -0.065441415 1.6591616e-38 244 302
-0.079163 0.602 -0.065441415 1.6407225e-38 245 302
-0.078237236 0.60299999 -0.065550111 1.5854404e-38 246 302
-0.077179976 0.60299999 -0.065550111 1.5393428e-38 247 302
-0.064172 0.60000002 -0.065223999 1.1432984e-38 259 302
-0.063014798 0.59899998 -0.065115295 1.0696864e-38 260 302
-0.061964549 0.59899998 -0.065115295 1.014369e-38 261 302
-0.059964001 0.60000002 -0.065223999 8.5803243e-39 263 302
-0.058715623 0.59799999 -0.065006584 8.5778061e-39 264 302
-0.057570696 0.597 -0.06489788 8.3934149e-39 265 302
-0.056429282 0.59600002 -0.064789169 8.7607583e-39 266 302
-0.055384293 0.59600002 -0.064789169 8.6682039e-39 267 302
-0.054339305 0.59600002 -0.064789169 8.8529511e-39 268 302
-0.05329432 0.59600002 -0.064789169 9.2217336e-39 269 302
-0.052161667 0.59500003 -0.064680472 9.6816229e-39 270 302
-0.051118433 0.59500003 -0.064680472 9.9578497e-39 271 302
-0.050075199 0.59500003 -0.064680472 1.069397e-38 272 302
-0.049031969 0.59500003 -0.064680472 1.1339339e-38 273 302
-0.047988731 0.59500003 -0.064680472 1.161593e-38 274 302
-0.046787698 0.59299999 -0.064463049 1.2076549e-38 275 302
-0.045747969 0.59299999 -0.064463049 1.2170546e-38 276 302
-0.044708245 0.59299999 -0.064463049 1.272372e-38 277 302
-0.04366852 0.59299999 -0.064463049 1.3642432e-38 278 302
-0.042628791 0.59299999 -0.064463049 1.3826824e-38 279 302
-0.041589063 0.59299999 -0.064463049 1.4748414e-38 280 302
-0.040549338 0.59299999 -0.064463049 1.484061e-38 281 302
-0.039442986 0.59200001 -0.064354345 1.5116471e-38 282 302
-0.038405012 0.59200001 -0.064354345 1.5300862e-38 283 302
-0.037367038 0.59200001 -0.064354345 1.5576729e-38 284 302
-0.036329068 0.59200001 -0.064354345 1.5668926e-38 285 302
-0.035291094 0.59200001 -0.064354345 1.5301218e-38 286 302
-0.034253117 0.59200001 -0.064354345 1.4932077e-38 287 302
-0.033215147 0.59200001 -0.064354345 1.4655493e-38 288 302
-0.032177173 0.59200001 -0.064354345 1.4471101e-38 289 302
-0.031139199 0.59200001 -0.064354345 1.3643154e-38 290 302
-0.030101225 0.59200001 -0.064354345 1.3182177e-38 291 302
-0.029063253 0.59200001 -0.064354345 1.189576e-38 292 302
-0.028025279 0.59200001 -0.064354345 1.1618813e-38 293 302
-0.026941719 0.59100002 -0.064245641 1.1708126e-38 294 302
-0.025905499 0.59100002 -0.064245641 1.1431179e-38 295 302
-0.02486928 0.59100002 -0.064245641 1.0694343e-38 296 302
-0.023873387 0.59200001 -0.064354345 1.0602147e-38 297 302
-0.022835413 0.59200001 -0.064354345 1.0509598e-38 298 302
-0.021797439 0.59200001 -0.064354345 1.0601794e-38 299 302
-0.020724401 0.59100002 -0.064245641 1.0695413e-38 300 302
-0.01968818 0.59100002 -0.064245641 1.1340783e-38 301 302
-0.01865196 0.59100002 -0.064245641 1.2632224e-38 302 302
-0.017615739 0.59100002 -0.064245641 1.3277593e-38 303 302
-0.016551465 0.58999997 -0.06413693 1.4010495e-38 304 302
-0.015516998 0.58999997 -0.06413693 1.4655864e-38 305 302
-0.014482532 0.58999997 -0.06413693 1.4754548e-38 306 302
-0.013448065 0.58999997 -0.06413693 1.4846743e-38 307 302
-0.0124136 0.58999997 -0.06413693 1.5765818e-38 308 302
-0.011379133 0.58999997 -0.06413693 1.6318992e-38 309 302
-0.0103622 0.59100002 -0.064245641 1.6963274e-38 310 302
-0.0093259802 0.59100002 -0.064245641 1.7332055e-38 311 302
-0.00828976 0.59100002 -0.064245641 1.7146577e-38 312 302
-0.0072535397 0.59100002 -0.064245641 1.4195956e-38 313 302
-0.0062278397 0.59200001 -0.064354345 1.2448183e-38 314 302
-0.0051898668 0.59200001 -0.064354345 1.3185748e-38 315 302
-0.0041518933 0.59200001 -0.064354345 1.4932779e-38 316 302
-0.0031139199 0.59200001 -0.064354345 1.5117171e-38 317 302
-0.0020759467 0.59200001 -0.064354345 1.5209367e-38 318 302
-0.00103622 0.59100002 -0.064245641 1.5209367e-38 319 302
0 0.59100002 -0.064245641 1.5393038e-38 320 302
0.0010397267 0.59299999 -0.064463049 1.5393038e-38 321 302
0.0020794533 0.59299999 -0.064463049 1.5484159e-38 322 302
0.00311918 0.59299999 -0.064463049 1.5484159e-38 323 302
0.0041518933 0.59200001 -0.064354345 1.5392685e-38 324 302
0.0051898668 0.59200001 -0.064354345 1.5392685e-38 325 302
0.00623836 0.59299999 -0.064463049 1.5301212e-38 326 302
0.0072780866 0.59299999 -0.064463049 1.5209017e-38 327 302
0.0083178133 0.59299999 -0.064463049 1.4932074e-38 328 302
0.0093575399 0.59299999 -0.064463049 1.4655846e-38 329 302
0.010397266 0.59299999 -0.064463049 1.3552385e-38 330 302
0.011456279 0.59399998 -0.064571753 1.3091767e-38 331 302
0.0125188 0.59500003 -0.064680472 1.2814467e-38 332 302
0.013562034 0.59500003 -0.064680472 1.2076902e-38 333 302
0.014605266 0.59500003 -0.064680472 1.1798873e-38 334 302
0.015595899 0.59299999 -0.064463049 1.12457e-38 335 302
0.016635627 0.59299999 -0.064463049 1.1245703e-38 336 302
0.017675353 0.59299999 -0.064463049 1.2259495e-38 337 302
-0.057570696 0.597 -0.065944619 1.106457e-38 265 303
-0.056429282 0.59600002 -0.065834157 1.106457e-38 266 303
-0.055384293 0.59600002 -0.065834157 1.0787983e-38 267 303
-0.054339305 0.59600002 -0.065834157 1.0694346e-38 268 303
-0.05329432 0.59600002 -0.065834157 1.0694346e-38 269 303
-0.052161667 0.59500003 -0.065723702 1.0785459e-38 270 303
-0.051032517 0.59399998 -0.065613233 1.0693264e-38 271 303
-0.049991038 0.59399998 -0.065613233 1.0785096e-38 272 303
-0.048949558 0.59399998 -0.065613233 1.115352e-38 273 303
-0.047908079 0.59399998 -0.065613233 1.0509951e-38 274 303
-0.046787698 0.59299999 -0.065502778 1.0417756e-38 275 303
-0.045747969 0.59299999 -0.065502778 1.0142964e-38 276 303
-0.044708245 0.59299999 -0.065502778 1.0419551e-38 277 303
-0.04366852 0.59299999 -0.065502778 1.0695416e-38 278 303
-0.042628791 0.59299999 -0.065502778 1.0511023e-38 279 303
-0.041589063 0.59299999 -0.065502778 1.0694693e-38 280 303
-0.04048096 0.59200001 -0.065392323 1.1063476e-38 281 303
-0.039442986 0.59200001 -0.065392323 1.1156024e-38 282 303
-0.038405012 0.59200001 -0.065392323 1.1340416e-38 283 303
-0.037367038 0.59200001 -0.065392323 1.1525883e-38 284 303
-0.036329068 0.59200001 -0.065392323 1.198686e-38 285 303
-0.035291094 0.59200001 -0.065392323 1.2722624e-38 286 303
-0.034253117 0.59200001 -0.065392323 1.2999212e-38 287 303
-0.03315904 0.59100002 -0.065281861 1.3367996e-38 288 303
-0.032122821 0.59100002 -0.065281861 1.3460192e-38 289 303
-0.031086601 0.59100002 -0.065281861 1.3276171e-38 290 303
-0.030050378 0.59100002 -0.065281861 1.3276171e-38 291 303
-0.029014159 0.59100002 -0.065281861 1.3276171e-38 292 303
-0.02797794 0.59100002 -0.065281861 1.3737149e-38 293 303
-0.026941719 0.59100002 -0.065281861 1.4195959e-38 294 303
-0.025905499 0.59100002 -0.065281861 1.3919374e-38 295 303
-0.02486928 0.59100002 -0.065281861 1.4010492e-38 296 303
-0.023833061 0.59100002 -0.065281861 1.3918296e-38 297 303
-0.022796841 0.59100002 -0.065281861 1.4101617e-38 298 303
-0.02176062 0.59100002 -0.065281861 1.3917224e-38 299 303
-0.020689331 0.58999997 -0.065171398 1.3917574e-38 300 303
-0.019654864 0.58999997 -0.065171398 1.4562944e-38 301 303
-0.018588837 0.58899999 -0.065060936 1.5115749e-38 302 303
-0.017556125 0.58899999 -0.065060936 1.5115749e-38 303 303
-0.016551465 0.58999997 -0.065171398 1.4562947e-38 304 303
-0.0154907 0.58899999 -0.065060936 1.4378555e-38 305 303
-0.014457987 0.58899999 -0.065060936 1.3646401e-38 306 303
-0.013425272 0.58899999 -0.065060936 1.3554205e-38 307 303
-0.012392559 0.58899999 -0.065060936 1.3737161e-38 308 303
-0.011359846 0.58899999 -0.065060936 1.3921913e-38 309 303
-0.010327132 0.58899999 -0.065060936 1.4289967e-38 310 303
-0.0092944186 0.58899999 -0.065060936 1.4289967e-38 311 303
-0.0082617057 0.58899999 -0.065060936 1.4014442e-38 312 303
-0.0072535397 0.59100002 -0.065281861 1.2999931e-38 313 303
-0.00621732 0.59100002 -0.065281861 1.355129e-38 314 303
-0.0051898668 0.59200001 -0.065392323 1.4473605e-38 315 303
-0.00414488 0.59100002 -0.065281861 1.4841664e-38 316 303
-0.0031033999 0.58999997 -0.065171398 1.4933859e-38 317 303
-0.0020654264 0.58899999 -0.065060936 1.5300486e-38 318 303
-0.0010327132 0.58899999 -0.065060936 1.5392682e-38 319 303
0 0.58899999 -0.065060936 1.5391966e-38 320 303
0.0010327132 0.58899999 -0.065060936 1.5484162e-38 321 303
0.0020654264 0.58899999 -0.065060936 1.5392329e-38 322 303
0.00310866 0.59100002 -0.065281861 1.5392329e-38 323 303
0.00414488 0.59100002 -0.065281861 1.5484164e-38 324 303
0.0051811002 0.59100002 -0.065281861 1.557636e-38 325 303
0.0062278397 0.59200001 -0.065392323 1.5209017e-38 326 303
0.0072658132 0.59200001 -0.065392323 1.5116821e-38 327 303
0.0083037866 0.59200001 -0.065392323 1.4748044e-38 328 303
0.0093417596 0.59200001 -0.065392323 1.4378903e-38 329 303
0.010397266 0.59299999 -0.065502778 1.3367996e-38 330 303
0.011436992 0.59299999 -0.065502778 1.2814823e-38 331 303
0.012497759 0.59399998 -0.065613233 1.2537161e-38 332 303
0.013539239 0.59399998 -0.065613233 1.1983987e-38 333 303
0.014580719 0.59399998 -0.065613233 1.1338618e-38 334 303
0.015595899 0.59299999 -0.065502778 1.1246422e-38 335 303
0.016635627 0.59299999 -0.065502778 1.1613407e-38 336 303
0.017675353 0.59299999 -0.065502778 1.2627557e-38 337 303
-0.054339305 0.59600002 -0.066879146 1.2721921e-38 268 304
-0.05329432 0.59600002 -0.066879146 1.2629725e-38 269 304
-0.052161667 0.59500003 -0.066766933 1.2629722e-38 270 304
-0.051032517 0.59399998 -0.066654719 1.2353496e-38 271 304
-0.049991038 0.59399998 -0.066654719 1.2169103e-38 272 304
-0.048949558 0.59399998 -0.066654719 1.2076549e-38 273 304
-0.047908079 0.59399998 -0.066654719 1.1524101e-38 274 304
-0.046708796 0.59200001 -0.066430293 1.0970927e-38 275 304
-0.045670826 0.59200001 -0.066430293 1.0051491e-38 276 304
-0.044632856 0.59200001 -0.066430293 9.8671002e-39 277 304
-0.043594878 0.59200001 -0.066430293 9.4068465e-39 278 304
-0.042556904 0.59200001 -0.066430293 8.9458698e-39 279 304
-0.041518934 0.59200001 -0.066430293 8.8518749e-39 280 304
-0.040412582 0.59100002 -0.06631808 8.7593205e-39 281 304
-0.039376359 0.59100002 -0.06631808 8.3916142e-39 282 304
-0.03834014 0.59100002 -0.06631808 8.4838098e-39 283 304
-0.037303921 0.59100002 -0.06631808 8.2090208e-39 284 304
-0.036267702 0.59100002 -0.06631808 8.5781621e-39 285 304
-0.035231479 0.59100002 -0.06631808 9.2217336e-39 286 304
-0.034195259 0.59100002 -0.06631808 9.867103e-39 287 304
-0.03315904 0.59100002 -0.06631808 1.0419554e-38 288 304
-0.032122821 0.59100002 -0.06631808 1.0972727e-38 289 304
-0.031086601 0.59100002 -0.06631808 1.1618094e-38 290 304
-0.030050378 0.59100002 -0.06631808 1.2171268e-38 291 304
-0.029014159 0.59100002 -0.06631808 1.2814472e-38 292 304
-0.02797794 0.59100002 -0.06631808 1.3275092e-38 293 304
-0.026941719 0.59100002 -0.06631808 1.3735703e-38 294 304
-0.025905499 0.59100002 -0.06631808 1.4104487e-38 295 304
