# .PCD v.7 - Point Cloud Data file format
FIELDS x y z rgb imX imY
SIZE 4 4 4 4 4 4
TYPE F F F F F F
COUNT 1 1 1 1 1 1
WIDTH 834
HEIGHT 1
VIEWPOINT 0 0 0 1 0 0 0
POINTS 834
DATA ascii
-0.024490559 0.77600002 0.0068029333 1.7964243e-38 302 235
-0.023129974 0.77600002 0.0068029333 1.7872049e-38 303 235
-0.021769386 0.77600002 0.0068029333 1.7596183e-38 304 235
-0.0204088 0.77600002 0.0068029333 1.7411436e-38 305 235
-0.019048214 0.77600002 0.0068029333 1.7502554e-38 306 235
-0.01764204 0.77399999 0.0067853997 1.7502554e-38 307 235
-0.016284959 0.77399999 0.0067853997 1.7594748e-38 308 235
-0.014927879 0.77399999 0.0067853997 1.7502554e-38 309 235
-0.013570799 0.77399999 0.0067853997 1.7685149e-38 310 235
-0.01221372 0.77399999 0.0067853997 1.7777343e-38 311 235
-0.01085664 0.77399999 0.0067853997 1.7869896e-38 312 235
-0.0094995592 0.77399999 0.0067853997 1.7869896e-38 313 235
-0.0081319595 0.773 0.0067766332 1.7869896e-38 314 235
-0.0067766332 0.773 0.0067766332 1.796209e-38 315 235
-0.0054213065 0.773 0.0067766332 1.8145403e-38 316 235
-0.0040554604 0.77100003 0.0067590997 1.7961373e-38 317 235
-0.0027036399 0.77100003 0.0067590997 1.7869179e-38 318 235
-0.00135182 0.77100003 0.0067590997 1.7869179e-38 319 235
0 0.77100003 0.0067590997 1.7959938e-38 320 235
0.00135182 0.77100003 0.0067590997 1.7867744e-38 321 235
0.0027036399 0.77100003 0.0067590997 1.7499684e-38 322 235
0.0040659797 0.773 0.0067766332 1.7591879e-38 323 235
0.0054213065 0.773 0.0067766332 1.7315655e-38 324 235
0.0067766332 0.773 0.0067766332 1.7315655e-38 325 235
0.0081319595 0.773 0.0067766332 1.7315655e-38 326 235
0.0094872871 0.773 0.0067766332 1.7223102e-38 327 235
0.010842613 0.773 0.0067766332 1.7039431e-38 328 235
0.01221372 0.77399999 0.0067853997 1.6855401e-38 329 235
0.013570799 0.77399999 0.0067853997 1.6671371e-38 330 235
0.014927879 0.77399999 0.0067853997 1.6487341e-38 331 235
0.016284959 0.77399999 0.0067853997 1.6302594e-38 332 235
0.017687626 0.77600002 0.0068029333 1.6210041e-38 333 235
0.019048214 0.77600002 0.0068029333 1.6117847e-38 334 235
0.0204088 0.77600002 0.0068029333 1.6117847e-38 335 235
0.021825492 0.778 0.0068204664 1.6025294e-38 336 235
0.023189586 0.778 0.0068204664 1.574907e-38 337 235
0.024616797 0.77999997 0.0068379994 1.556504e-38 338 235
0.025984399 0.77999997 0.0068379994 1.5288816e-38 339 235
0.027351998 0.77999997 0.0068379994 1.4645968e-38 340 235
0.028719598 0.77999997 0.0068379994 1.4645968e-38 341 235
0.030125774 0.78100002 0.0068467669 1.4467762e-38 342 235
-0.03725658 0.787 0.005519493 1.6498641e-38 293 236
-0.035785533 0.78500003 0.0055054668 1.6584624e-38 294 236
-0.034233831 0.78100002 0.0054774131 1.6676819e-38 295 236
-0.032864477 0.78100002 0.0054774131 1.7506141e-38 296 236
-0.031454798 0.77999997 0.0054703997 1.7506141e-38 297 236
-0.030087199 0.77999997 0.0054703997 1.7599053e-38 298 236
-0.028645959 0.778 0.0054563731 1.7599053e-38 299 236
-0.027281865 0.778 0.0054563731 1.7873842e-38 300 236
-0.025851147 0.77600002 0.0054423464 1.7873842e-38 301 236
-0.02442744 0.77399999 0.0054283198 1.796496e-38 302 236
-0.02307036 0.77399999 0.0054283198 1.796496e-38 303 236
-0.021769386 0.77600002 0.0054423464 1.7595825e-38 304 236
-0.020356199 0.77399999 0.0054283198 1.7134853e-38 305 236
-0.018999118 0.77399999 0.0054283198 1.7409642e-38 306 236
-0.01764204 0.77399999 0.0054283198 1.7409642e-38 307 236
-0.016284959 0.77399999 0.0054283198 1.7594031e-38 308 236
-0.014927879 0.77399999 0.0054283198 1.7686225e-38 309 236
-0.013553266 0.773 0.0054213065 1.7869896e-38 310 236
-0.012197939 0.773 0.0054213065 1.796209e-38 311 236
-0.010842613 0.773 0.0054213065 1.796209e-38 312 236
-0.0094872871 0.773 0.0054213065 1.796209e-38 313 236
-0.0081109209 0.77100003 0.0054072798 1.8145403e-38 314 236
-0.0067590997 0.77100003 0.0054072798 1.8145403e-38 315 236
-0.0054072798 0.77100003 0.0054072798 1.8145403e-38 316 236
-0.0040554604 0.77100003 0.0054072798 1.7961373e-38 317 236
-0.0027036399 0.77100003 0.0054072798 1.7961373e-38 318 236
-0.00135182 0.77100003 0.0054072798 1.7869179e-38 319 236
0 0.77100003 0.0054072798 1.7684431e-38 320 236
0.00135182 0.77100003 0.0054072798 1.7684431e-38 321 236
0.0027036399 0.77100003 0.0054072798 1.7591879e-38 322 236
0.0040554604 0.77100003 0.0054072798 1.7591879e-38 323 236
0.0054072798 0.77100003 0.0054072798 1.7499684e-38 324 236
0.0067590997 0.77100003 0.0054072798 1.7315655e-38 325 236
0.0081109209 0.77100003 0.0054072798 1.7315655e-38 326 236
0.0094872871 0.773 0.0054213065 1.7223102e-38 327 236
0.010842613 0.773 0.0054213065 1.7039431e-38 328 236
0.01221372 0.77399999 0.0054283198 1.7039431e-38 329 236
0.013570799 0.77399999 0.0054283198 1.6670654e-38 330 236
0.014927879 0.77399999 0.0054283198 1.6670654e-38 331 236
0.016284959 0.77399999 0.0054283198 1.6302594e-38 332 236
0.01764204 0.77399999 0.0054283198 1.6210041e-38 333 236
0.019048214 0.77600002 0.0054423464 1.611713e-38 334 236
0.0204088 0.77600002 0.0054423464 1.6024935e-38 335 236
0.021769386 0.77600002 0.0054423464 1.5932382e-38 336 236
0.023189586 0.778 0.0054563731 1.5840188e-38 337 236
0.024616797 0.77999997 0.0054703997 1.5381728e-38 338 236
0.025984399 0.77999997 0.0054703997 1.5196981e-38 339 236
0.027351998 0.77999997 0.0054703997 1.4921116e-38 340 236
0.028719598 0.77999997 0.0054703997 1.4921116e-38 341 236
0.030125774 0.78100002 0.0054774131 1.4371208e-38 342 236
0.031495128 0.78100002 0.0054774131 1.520097e-38 343 236
-0.03853827 0.78500003 0.0041291001 1.6866297e-38 292 237
-0.037161902 0.78500003 0.0041291001 1.5943981e-38 293 237
-0.035785533 0.78500003 0.0041291001 1.6952273e-38 294 237
-0.034233831 0.78100002 0.0041080597 1.7137024e-38 295 237
-0.032864477 0.78100002 0.0041080597 1.7414306e-38 296 237
-0.031454798 0.77999997 0.0041027996 1.75065e-38 297 237
-0.030087199 0.77999997 0.0041027996 1.7690171e-38 298 237
-0.028645959 0.778 0.0040922803 1.7690171e-38 299 237
-0.027281865 0.778 0.0040922803 1.7781648e-38 300 237
-0.025851147 0.77600002 0.0040817601 1.7873842e-38 301 237
-0.02442744 0.77399999 0.0040712398 1.7781648e-38 302 237
-0.02307036 0.77399999 0.0040712398 1.7689454e-38 303 237
-0.021713279 0.77399999 0.0040712398 1.7227048e-38 304 237
-0.020356199 0.77399999 0.0040712398 1.6673882e-38 305 237
-0.018999118 0.77399999 0.0040712398 1.694903e-38 306 237
-0.01764204 0.77399999 0.0040712398 1.694903e-38 307 237
-0.016263919 0.773 0.0040659797 1.7134495e-38 308 237
-0.014908593 0.773 0.0040659797 1.7318883e-38 309 237
-0.013553266 0.773 0.0040659797 1.7686225e-38 310 237
-0.012197939 0.773 0.0040659797 1.7778778e-38 311 237
-0.010842613 0.773 0.0040659797 1.8054285e-38 312 237
-0.0094627403 0.77100003 0.0040554604 1.8054285e-38 313 237
-0.0080898795 0.76899999 0.0040449398 1.8054643e-38 314 237
-0.0067415666 0.76899999 0.0040449398 1.8054643e-38 315 237
-0.0053932532 0.76899999 0.0040449398 1.8054285e-38 316 237
-0.0040554604 0.77100003 0.0040554604 1.8054285e-38 317 237
-0.0026966266 0.76899999 0.0040449398 1.796209e-38 318 237
-0.0013483133 0.76899999 0.0040449398 1.7777343e-38 319 237
0 0.76899999 0.0040449398 1.7776626e-38 320 237
0.00135182 0.77100003 0.0040554604 1.7684431e-38 321 237
0.0027036399 0.77100003 0.0040554604 1.7684431e-38 322 237
0.0040554604 0.77100003 0.0040554604 1.7684431e-38 323 237
0.0054072798 0.77100003 0.0040554604 1.7408566e-38 324 237
0.0067590997 0.77100003 0.0040554604 1.7316372e-38 325 237
0.0081109209 0.77100003 0.0040554604 1.7223819e-38 326 237
0.0094872871 0.773 0.0040659797 1.7131625e-38 327 237
0.010842613 0.773 0.0040659797 1.6856118e-38 328 237
0.012197939 0.773 0.0040659797 1.6856118e-38 329 237
0.013553266 0.773 0.0040659797 1.6671371e-38 330 237
0.014927879 0.77399999 0.0040712398 1.6487341e-38 331 237
0.016284959 0.77399999 0.0040712398 1.6210759e-38 332 237
0.01764204 0.77399999 0.0040712398 1.5934535e-38 333 237
0.018999118 0.77399999 0.0040712398 1.6025294e-38 334 237
0.0204088 0.77600002 0.0040817601 1.5841264e-38 335 237
0.021769386 0.77600002 0.0040817601 1.5932382e-38 336 237
0.023129974 0.77600002 0.0040817601 1.5840188e-38 337 237
0.024616797 0.77999997 0.0041027996 1.5381011e-38 338 237
0.025984399 0.77999997 0.0041027996 1.5196263e-38 339 237
0.027351998 0.77999997 0.0041027996 1.4828922e-38 340 237
0.028756421 0.78100002 0.0041080597 1.4828922e-38 341 237
0.030125774 0.78100002 0.0041080597 1.4369385e-38 342 237
0.031495128 0.78100002 0.0041080597 1.4645609e-38 343 237
0.032948639 0.78299999 0.0041185799 1.4281573e-38 344 237
-0.039914634 0.78500003 0.0027527334 1.7144382e-38 291 238
-0.03853827 0.78500003 0.0027527334 1.6861215e-38 292 238
-0.037161902 0.78500003 0.0027527334 1.6492431e-38 293 238
-0.035785533 0.78500003 0.0027527334 1.7597259e-38 294 238
-0.034233831 0.78100002 0.0027387065 1.7597259e-38 295 238
-0.032864477 0.78100002 0.0027387065 1.7597977e-38 296 238
-0.031454798 0.77999997 0.0027351999 1.7597977e-38 297 238
-0.030087199 0.77999997 0.0027351999 1.7597977e-38 298 238
-0.028645959 0.778 0.0027281865 1.7782365e-38 299 238
-0.027211733 0.77600002 0.0027211732 1.7782365e-38 300 238
-0.025851147 0.77600002 0.0027211732 1.7782365e-38 301 238
-0.02442744 0.77399999 0.0027141599 1.796496e-38 302 238
-0.02307036 0.77399999 0.0027141599 1.7780572e-38 303 238
-0.021713279 0.77399999 0.0027141599 1.7319242e-38 304 238
-0.0203299 0.773 0.0027106532 1.6673882e-38 305 238
-0.018974574 0.773 0.0027106532 1.6763565e-38 306 238
-0.017619247 0.773 0.0027106532 1.6763565e-38 307 238
-0.016263919 0.773 0.0027106532 1.6951182e-38 308 238
-0.01487002 0.77100003 0.0027036399 1.7227765e-38 309 238
-0.013518199 0.77100003 0.0027036399 1.7687301e-38 310 238
-0.012134819 0.76899999 0.0026966266 1.7779496e-38 311 238
-0.010786506 0.76899999 0.0026966266 1.8237956e-38 312 238
-0.0094381925 0.76899999 0.0026966266 1.8237956e-38 313 238
-0.0080898795 0.76899999 0.0026966266 1.8237956e-38 314 238
-0.0067415666 0.76899999 0.0026966266 1.8237956e-38 315 238
-0.0053932532 0.76899999 0.0026966266 1.8054643e-38 316 238
-0.0040449398 0.76899999 0.0026966266 1.8054643e-38 317 238
-0.0026966266 0.76899999 0.0026966266 1.796209e-38 318 238
-0.0013483133 0.76899999 0.0026966266 1.7869896e-38 319 238
0 0.76899999 0.0026966266 1.7776626e-38 320 238
0.0013483133 0.76899999 0.0026966266 1.7869179e-38 321 238
0.0026966266 0.76899999 0.0026966266 1.7776626e-38 322 238
0.0040449398 0.76899999 0.0026966266 1.7684431e-38 323 238
0.0054072798 0.77100003 0.0027036399 1.750076e-38 324 238
0.0067590997 0.77100003 0.0027036399 1.7316372e-38 325 238
0.0081109209 0.77100003 0.0027036399 1.7316372e-38 326 238
0.0094627403 0.77100003 0.0027036399 1.7131625e-38 327 238
0.01081456 0.77100003 0.0027036399 1.7131625e-38 328 238
0.012197939 0.773 0.0027106532 1.7039431e-38 329 238
0.013553266 0.773 0.0027106532 1.6671371e-38 330 238
0.014908593 0.773 0.0027106532 1.6487341e-38 331 238
0.016263919 0.773 0.0027106532 1.6302594e-38 332 238
0.01764204 0.77399999 0.0027141599 1.6117847e-38 333 238
0.018999118 0.77399999 0.0027141599 1.5841623e-38 334 238
0.0204088 0.77600002 0.0027211732 1.5841623e-38 335 238
0.021769386 0.77600002 0.0027211732 1.574907e-38 336 238
0.023129974 0.77600002 0.0027211732 1.5564323e-38 337 238
0.024553679 0.778 0.0027281865 1.5380652e-38 338 238
0.025984399 0.77999997 0.0027351999 1.5104069e-38 339 238
0.027387068 0.78100002 0.0027387065 1.4828204e-38 340 238
0.028756421 0.78100002 0.0027387065 1.4828204e-38 341 238
0.03020292 0.78299999 0.0027457199 1.4552339e-38 342 238
0.031575777 0.78299999 0.0027457199 1.4552339e-38 343 238
0.032948639 0.78299999 0.0027457199 1.3817316e-38 344 238
0.034409165 0.78500003 0.0027527334 1.4738913e-38 345 238
-0.039914634 0.78500003 0.0013763667 1.6220943e-38 291 239
-0.03853827 0.78500003 0.0013763667 1.7504021e-38 292 239
-0.037161902 0.78500003 0.0013763667 1.7411826e-38 293 239
-0.035694357 0.78299999 0.0013728599 1.7597977e-38 294 239
-0.034233831 0.78100002 0.0013693533 1.7597977e-38 295 239
-0.032864477 0.78100002 0.0013693533 1.7597977e-38 296 239
-0.031454798 0.77999997 0.0013675999 1.7690171e-38 297 239
-0.030087199 0.77999997 0.0013675999 1.7782365e-38 298 239
-0.028645959 0.778 0.0013640933 1.7782365e-38 299 239
-0.027211733 0.77600002 0.0013605866 1.787456e-38 300 239
-0.025784519 0.77399999 0.0013570799 1.7782365e-38 301 239
-0.02442744 0.77399999 0.0013570799 1.8056437e-38 302 239
-0.02307036 0.77399999 0.0013570799 1.7964243e-38 303 239
-0.021685226 0.773 0.0013553266 1.7594748e-38 304 239
-0.0203299 0.773 0.0013553266 1.7041583e-38 305 239
-0.018974574 0.773 0.0013553266 1.6488059e-38 306 239
-0.017619247 0.773 0.0013553266 1.6580612e-38 307 239
-0.016263919 0.773 0.0013553266 1.6950824e-38 308 239
-0.01487002 0.77100003 0.00135182 1.7411795e-38 309 239
-0.013483133 0.76899999 0.0013483133 1.7778778e-38 310 239
-0.012134819 0.76899999 0.0013483133 1.8055002e-38 311 239
-0.010786506 0.76899999 0.0013483133 1.8146838e-38 312 239
-0.0094381925 0.76899999 0.0013483133 1.8054643e-38 313 239
-0.0080898795 0.76899999 0.0013483133 1.8054643e-38 314 239
-0.0067415666 0.76899999 0.0013483133 1.8146838e-38 315 239
-0.0053932532 0.76899999 0.0013483133 1.8054643e-38 316 239
-0.0040449398 0.76899999 0.0013483133 1.8054643e-38 317 239
-0.0026966266 0.76899999 0.0013483133 1.796209e-38 318 239
-0.0013483133 0.76899999 0.0013483133 1.7777702e-38 319 239
0 0.76899999 0.0013483133 1.7777343e-38 320 239
0.0013483133 0.76899999 0.0013483133 1.7685149e-38 321 239
0.0026966266 0.76899999 0.0013483133 1.7776626e-38 322 239
0.0040449398 0.76899999 0.0013483133 1.7776626e-38 323 239
0.0053932532 0.76899999 0.0013483133 1.7408566e-38 324 239
0.0067415666 0.76899999 0.0013483133 1.7408566e-38 325 239
0.0080898795 0.76899999 0.0013483133 1.7223819e-38 326 239
0.0094381925 0.76899999 0.0013483133 1.7223819e-38 327 239
0.01081456 0.77100003 0.00135182 1.7039431e-38 328 239
0.01216638 0.77100003 0.00135182 1.6855401e-38 329 239
0.013518199 0.77100003 0.00135182 1.6488059e-38 330 239
0.014908593 0.773 0.0013553266 1.6395506e-38 331 239
0.016263919 0.773 0.0013553266 1.6026729e-38 332 239
0.01764204 0.77399999 0.0013570799 1.5842341e-38 333 239
0.018999118 0.77399999 0.0013570799 1.5841982e-38 334 239
0.020356199 0.77399999 0.0013570799 1.5657593e-38 335 239
0.021769386 0.77600002 0.0013605866 1.5656517e-38 336 239
0.023129974 0.77600002 0.0013605866 1.5564323e-38 337 239
0.024490559 0.77600002 0.0013605866 1.5196981e-38 338 239
0.025984399 0.77999997 0.0013675999 1.5012951e-38 339 239
0.027387068 0.78100002 0.0013693533 1.4643816e-38 340 239
0.028756421 0.78100002 0.0013693533 1.473601e-38 341 239
0.03020292 0.78299999 0.0013728599 1.4643457e-38 342 239
0.031575777 0.78299999 0.0013728599 1.4735651e-38 343 239
0.033032801 0.78500003 0.0013763667 1.473601e-38 344 239
0.034409165 0.78500003 0.0013763667 1.473601e-38 345 239
0.035967879 0.78899997 0.0013833799 1.3542566e-38 346 239
-0.041291002 0.78500003 -0 1.704848e-38 290 240
-0.039914634 0.78500003 -0 1.6126522e-38 291 240
-0.03853827 0.78500003 -0 1.7596542e-38 292 240
-0.037067216 0.78299999 -0 1.7689095e-38 293 240
-0.035603184 0.78100002 -0 1.7597977e-38 294 240
-0.034233831 0.78100002 -0 1.7597977e-38 295 240
-0.032864477 0.78100002 -0 1.7597977e-38 296 240
-0.031454798 0.77999997 -0 1.7690171e-38 297 240
-0.03001005 0.778 -0 1.7690171e-38 298 240
-0.028645959 0.778 -0 1.787456e-38 299 240
-0.027211733 0.77600002 -0 1.7874918e-38 300 240
-0.025784519 0.77399999 -0 1.7874918e-38 301 240
-0.02442744 0.77399999 -0 1.8056796e-38 302 240
-0.02307036 0.77399999 -0 1.7964243e-38 303 240
-0.021685226 0.773 -0 1.7594748e-38 304 240
-0.0203299 0.773 -0 1.7041583e-38 305 240
-0.018925481 0.77100003 -0 1.6120717e-38 306 240
-0.01757366 0.77100003 -0 1.5752299e-38 307 240
-0.016221842 0.77100003 -0 1.6858629e-38 308 240
-0.014831445 0.76899999 -0 1.7411436e-38 309 240
-0.013483133 0.76899999 -0 1.7595825e-38 310 240
-0.012134819 0.76899999 -0 1.7595825e-38 311 240
-0.010786506 0.76899999 -0 1.8054643e-38 312 240
-0.0094381925 0.76899999 -0 1.8054643e-38 313 240
-0.0080898795 0.76899999 -0 1.8055361e-38 314 240
-0.0067415666 0.76899999 -0 1.7963167e-38 315 240
-0.0053932532 0.76899999 -0 1.8054285e-38 316 240
-0.0040449398 0.76899999 -0 1.796209e-38 317 240
-0.0026966266 0.76899999 -0 1.7869896e-38 318 240
-0.0013483133 0.76899999 -0 1.7869896e-38 319 240
0 0.76899999 -0 1.7685149e-38 320 240
0.0013483133 0.76899999 -0 1.7685149e-38 321 240
0.0026966266 0.76899999 -0 1.7685149e-38 322 240
0.0040449398 0.76899999 -0 1.7685149e-38 323 240
0.0053932532 0.76899999 -0 1.7684431e-38 324 240
0.0067415666 0.76899999 -0 1.7591879e-38 325 240
0.0080898795 0.76899999 -0 1.7316372e-38 326 240
0.0094381925 0.76899999 -0 1.7131625e-38 327 240
0.010786506 0.76899999 -0 1.7039431e-38 328 240
0.012134819 0.76899999 -0 1.6855401e-38 329 240
0.013518199 0.77100003 -0 1.6762848e-38 330 240
0.01487002 0.77100003 -0 1.6670654e-38 331 240
0.016263919 0.773 -0 1.6210759e-38 332 240
0.017619247 0.773 -0 1.5934535e-38 333 240
0.018974574 0.773 -0 1.5841264e-38 334 240
0.020356199 0.77399999 -0 1.574907e-38 335 240
0.021713279 0.77399999 -0 1.556504e-38 336 240
0.023129974 0.77600002 -0 1.5381011e-38 337 240
0.024490559 0.77600002 -0 1.5012951e-38 338 240
0.025917772 0.778 -0 1.4828204e-38 339 240
0.027387068 0.78100002 -0 1.4552339e-38 340 240
0.028756421 0.78100002 -0 1.436795e-38 341 240
0.03020292 0.78299999 -0 1.436795e-38 342 240
0.031656433 0.78500003 -0 1.4460145e-38 343 240
0.033032801 0.78500003 -0 1.427755e-38 344 240
0.034496833 0.787 -0 1.4369744e-38 345 240
0.035967879 0.78899997 -0 1.3632908e-38 346 240
-0.041291002 0.78500003 -0.0013763667 1.7138466e-38 290 241
-0.039914634 0.78500003 -0.0013763667 1.704627e-38 291 241
-0.03853827 0.78500003 -0.0013763667 1.7597618e-38 292 241
-0.036972538 0.78100002 -0.0013693533 1.7597618e-38 293 241
-0.035603184 0.78100002 -0.0013693533 1.7689454e-38 294 241
-0.034233831 0.78100002 -0.0013693533 1.7781648e-38 295 241
-0.032864477 0.78100002 -0.0013693533 1.7690171e-38 296 241
-0.031454798 0.77999997 -0.0013675999 1.7782365e-38 297 241
-0.03001005 0.778 -0.0013640933 1.7782365e-38 298 241
-0.028645959 0.778 -0.0013640933 1.787456e-38 299 241
-0.027211733 0.77600002 -0.0013605866 1.8060024e-38 300 241
-0.025784519 0.77399999 -0.0013570799 1.7875636e-38 301 241
-0.024395877 0.773 -0.0013553266 1.8149349e-38 302 241
-0.023040552 0.773 -0.0013553266 1.8057154e-38 303 241
-0.021685226 0.773 -0.0013553266 1.7503272e-38 304 241
-0.0203299 0.773 -0.0013553266 1.6950106e-38 305 241
-0.018925481 0.77100003 -0.00135182 1.547751e-38 306 241
-0.01757366 0.77100003 -0.00135182 1.4924344e-38 307 241
-0.016221842 0.77100003 -0.00135182 1.6489494e-38 308 241
-0.014831445 0.76899999 -0.0013483133 1.6950465e-38 309 241
-0.013483133 0.76899999 -0.0013483133 1.7778778e-38 310 241
-0.012134819 0.76899999 -0.0013483133 1.7962808e-38 311 241
-0.010786506 0.76899999 -0.0013483133 1.8054643e-38 312 241
-0.0094381925 0.76899999 -0.0013483133 1.8054643e-38 313 241
-0.0080898795 0.76899999 -0.0013483133 1.7963167e-38 314 241
-0.0067415666 0.76899999 -0.0013483133 1.7963167e-38 315 241
-0.0053932532 0.76899999 -0.0013483133 1.8054285e-38 316 241
-0.0040449398 0.76899999 -0.0013483133 1.796209e-38 317 241
-0.0026966266 0.76899999 -0.0013483133 1.7686225e-38 318 241
-0.0013483133 0.76899999 -0.0013483133 1.7594031e-38 319 241
0 0.76899999 -0.0013483133 1.7685149e-38 320 241
0.0013483133 0.76899999 -0.0013483133 1.7685149e-38 321 241
0.0026966266 0.76899999 -0.0013483133 1.7685149e-38 322 241
0.0040449398 0.76899999 -0.0013483133 1.7685149e-38 323 241
0.0053932532 0.76899999 -0.0013483133 1.7501119e-38 324 241
0.0067415666 0.76899999 -0.0013483133 1.7408925e-38 325 241
0.0080898795 0.76899999 -0.0013483133 1.7133777e-38 326 241
0.0094381925 0.76899999 -0.0013483133 1.694903e-38 327 241
0.010786506 0.76899999 -0.0013483133 1.7038713e-38 328 241
0.012134819 0.76899999 -0.0013483133 1.7038713e-38 329 241
0.013483133 0.76899999 -0.0013483133 1.6486983e-38 330 241
0.01487002 0.77100003 -0.00135182 1.6302594e-38 331 241
0.016221842 0.77100003 -0.00135182 1.6026729e-38 332 241
0.017619247 0.773 -0.0013553266 1.5934535e-38 333 241
0.018974574 0.773 -0.0013553266 1.565867e-38 334 241
0.020356199 0.77399999 -0.0013570799 1.5474281e-38 335 241
0.021713279 0.77399999 -0.0013570799 1.5289175e-38 336 241
0.023129974 0.77600002 -0.0013605866 1.5012951e-38 337 241
0.024490559 0.77600002 -0.0013605866 1.4920398e-38 338 241
0.025917772 0.778 -0.0013640933 1.473601e-38 339 241
0.027387068 0.78100002 -0.0013693533 1.4460145e-38 340 241
0.028830061 0.78299999 -0.0013728599 1.4460145e-38 341 241
0.03020292 0.78299999 -0.0013728599 1.436795e-38 342 241
0.031656433 0.78500003 -0.0013763667 1.436795e-38 343 241
0.033032801 0.78500003 -0.0013763667 1.4368668e-38 344 241
0.034584496 0.78899997 -0.0013833799 1.4368668e-38 345 241
0.036013465 0.79000002 -0.0013851334 1.4184997e-38 346 241
0.037493281 0.792 -0.0013886399 1.3724384e-38 347 241
-0.042884778 0.78899997 -0.0027667598 1.5759182e-38 289 242
-0.041291002 0.78500003 -0.0027527334 1.7414306e-38 290 242
-0.039914634 0.78500003 -0.0027527334 1.7414306e-38 291 242
-0.03853827 0.78500003 -0.0027527334 1.7689454e-38 292 242
-0.036972538 0.78100002 -0.0027387065 1.7689454e-38 293 242
-0.035603184 0.78100002 -0.0027387065 1.7690171e-38 294 242
-0.034233831 0.78100002 -0.0027387065 1.7690171e-38 295 242
-0.032822397 0.77999997 -0.0027351999 1.7599053e-38 296 242
-0.031454798 0.77999997 -0.0027351999 1.7599053e-38 297 242
-0.03001005 0.778 -0.0027281865 1.7691247e-38 298 242
-0.028645959 0.778 -0.0027281865 1.7875277e-38 299 242
-0.027211733 0.77600002 -0.0027211732 1.8059307e-38 300 242
-0.025784519 0.77399999 -0.0027141599 1.7967113e-38 301 242
-0.024395877 0.773 -0.0027106532 1.7967113e-38 302 242
-0.023040552 0.773 -0.0027106532 1.7782365e-38 303 242
-0.021685226 0.773 -0.0027106532 1.7503272e-38 304 242
-0.0203299 0.773 -0.0027106532 1.7134495e-38 305 242
-0.018925481 0.77100003 -0.0027036399 1.5843775e-38 306 242
-0.01757366 0.77100003 -0.0027036399 1.482928e-38 307 242
-0.016221842 0.77100003 -0.0027036399 1.6212911e-38 308 242
-0.014831445 0.76899999 -0.0026966266 1.7042659e-38 309 242
-0.013483133 0.76899999 -0.0026966266 1.787169e-38 310 242
-0.012134819 0.76899999 -0.0026966266 1.787169e-38 311 242
-0.010786506 0.76899999 -0.0026966266 1.7779496e-38 312 242
-0.0094381925 0.76899999 -0.0026966266 1.7779496e-38 313 242
-0.0080898795 0.76899999 -0.0026966266 1.7872049e-38 314 242
-0.0067415666 0.76899999 -0.0026966266 1.7779496e-38 315 242
-0.0053932532 0.76899999 -0.0026966266 1.7962808e-38 316 242
-0.0040449398 0.76899999 -0.0026966266 1.7778778e-38 317 242
-0.0026966266 0.76899999 -0.0026966266 1.7686225e-38 318 242
-0.0013483133 0.76899999 -0.0026966266 1.7594031e-38 319 242
0 0.76899999 -0.0026966266 1.7685149e-38 320 242
0.0013483133 0.76899999 -0.0026966266 1.7685149e-38 321 242
0.0026966266 0.76899999 -0.0026966266 1.7685149e-38 322 242
0.0040449398 0.76899999 -0.0026966266 1.7685149e-38 323 242
0.0053932532 0.76899999 -0.0026966266 1.7501119e-38 324 242
0.0067415666 0.76899999 -0.0026966266 1.7408925e-38 325 242
0.0080898795 0.76899999 -0.0026966266 1.7317089e-38 326 242
0.0094381925 0.76899999 -0.0026966266 1.7040866e-38 327 242
0.010786506 0.76899999 -0.0026966266 1.6855401e-38 328 242
0.012134819 0.76899999 -0.0026966266 1.6762848e-38 329 242
0.013483133 0.76899999 -0.0026966266 1.6486983e-38 330 242
0.014831445 0.76899999 -0.0026966266 1.6302594e-38 331 242
0.016221842 0.77100003 -0.0027036399 1.5934535e-38 332 242
0.01757366 0.77100003 -0.0027036399 1.5842341e-38 333 242
0.018974574 0.773 -0.0027106532 1.5749788e-38 334 242
0.020356199 0.77399999 -0.0027141599 1.5657593e-38 335 242
0.021713279 0.77399999 -0.0027141599 1.5289175e-38 336 242
0.02307036 0.77399999 -0.0027141599 1.4920757e-38 337 242
0.024490559 0.77600002 -0.0027211732 1.4828204e-38 338 242
0.025917772 0.778 -0.0027281865 1.473601e-38 339 242
0.027387068 0.78100002 -0.0027387065 1.4551263e-38 340 242
0.028830061 0.78299999 -0.0027457199 1.4551263e-38 341 242
0.03020292 0.78299999 -0.0027457199 1.436795e-38 342 242
0.031737085 0.787 -0.0027597465 1.436795e-38 343 242
0.033116959 0.787 -0.0027597465 1.4184638e-38 344 242
0.034584496 0.78899997 -0.0027667598 1.4184638e-38 345 242
0.035967879 0.78899997 -0.0027667598 1.3818014e-38 346 242
0.037398599 0.79000002 -0.0027702667 1.3449237e-38 347 242
-0.042884778 0.78899997 -0.0041501396 1.6494927e-38 289 243
-0.041396201 0.787 -0.0041396199 1.75065e-38 290 243
-0.039914634 0.78500003 -0.0041291001 1.7414306e-38 291 243
-0.038440078 0.78299999 -0.0041185799 1.7689454e-38 292 243
-0.036972538 0.78100002 -0.0041080597 1.7689454e-38 293 243
-0.035603184 0.78100002 -0.0041080597 1.7782365e-38 294 243
-0.034233831 0.78100002 -0.0041080597 1.7782365e-38 295 243
-0.032822397 0.77999997 -0.0041027996 1.7599053e-38 296 243
-0.031454798 0.77999997 -0.0041027996 1.7691247e-38 297 243
-0.030087199 0.77999997 -0.0041027996 1.7874918e-38 298 243
-0.028645959 0.778 -0.0040922803 1.8059307e-38 299 243
-0.027141599 0.77399999 -0.0040712398 1.8243337e-38 300 243
-0.025784519 0.77399999 -0.0040712398 1.7967113e-38 301 243
-0.02442744 0.77399999 -0.0040712398 1.8058231e-38 302 243
-0.02307036 0.77399999 -0.0040712398 1.7781648e-38 303 243
-0.021713279 0.77399999 -0.0040712398 1.7596183e-38 304 243
-0.020356199 0.77399999 -0.0040712398 1.7227048e-38 305 243
-0.018974574 0.773 -0.0040659797 1.5935252e-38 306 243
-0.017619247 0.773 -0.0040659797 1.4828922e-38 307 243
-0.016221842 0.77100003 -0.0040554604 1.6119641e-38 308 243
-0.014831445 0.76899999 -0.0040449398 1.7318168e-38 309 243
-0.013483133 0.76899999 -0.0040449398 1.8057513e-38 310 243
-0.012134819 0.76899999 -0.0040449398 1.778093e-38 311 243
-0.010786506 0.76899999 -0.0040449398 1.7872407e-38 312 243
-0.0094381925 0.76899999 -0.0040449398 1.7780213e-38 313 243
-0.0080898795 0.76899999 -0.0040449398 1.7779496e-38 314 243
-0.0067415666 0.76899999 -0.0040449398 1.7779496e-38 315 243
-0.0053932532 0.76899999 -0.0040449398 1.7778778e-38 316 243
-0.0040449398 0.76899999 -0.0040449398 1.7686584e-38 317 243
-0.0026966266 0.76899999 -0.0040449398 1.7594031e-38 318 243
-0.0013483133 0.76899999 -0.0040449398 1.7594031e-38 319 243
0 0.76899999 -0.0040449398 1.7777343e-38 320 243
0.0013483133 0.76899999 -0.0040449398 1.7685149e-38 321 243
0.0026966266 0.76899999 -0.0040449398 1.7501119e-38 322 243
0.0040449398 0.76899999 -0.0040449398 1.7501119e-38 323 243
0.0053932532 0.76899999 -0.0040449398 1.7317089e-38 324 243
0.0067415666 0.76899999 -0.0040449398 1.713306e-38 325 243
0.0080898795 0.76899999 -0.0040449398 1.7223819e-38 326 243
0.0094381925 0.76899999 -0.0040449398 1.7131625e-38 327 243
0.010786506 0.76899999 -0.0040449398 1.6855401e-38 328 243
0.012134819 0.76899999 -0.0040449398 1.6762848e-38 329 243
0.013483133 0.76899999 -0.0040449398 1.6303312e-38 330 243
0.014831445 0.76899999 -0.0040449398 1.6027088e-38 331 243
0.016221842 0.77100003 -0.0040554604 1.565867e-38 332 243
0.01757366 0.77100003 -0.0040554604 1.5566475e-38 333 243
0.018974574 0.773 -0.0040659797 1.556504e-38 334 243
0.020356199 0.77399999 -0.0040712398 1.5381011e-38 335 243
0.021713279 0.77399999 -0.0040712398 1.5196263e-38 336 243
0.02307036 0.77399999 -0.0040712398 1.5011875e-38 337 243
0.024490559 0.77600002 -0.0040817601 1.4735651e-38 338 243
0.025917772 0.778 -0.0040922803 1.4643457e-38 339 243
0.027387068 0.78100002 -0.0041080597 1.436795e-38 340 243
0.028830061 0.78299999 -0.0041185799 1.4275397e-38 341 243
0.03020292 0.78299999 -0.0041185799 1.4092085e-38 342 243
0.031656433 0.78500003 -0.0041291001 1.3999891e-38 343 243
0.033116959 0.787 -0.0041396199 1.4092085e-38 344 243
0.034584496 0.78899997 -0.0041501396 1.4092085e-38 345 243
0.035967879 0.78899997 -0.0041501396 1.3816937e-38 346 243
0.037398599 0.79000002 -0.0041554002 1.3356325e-38 347 243
-0.044268157 0.78899997 -0.0055335197 1.6955173e-38 288 244
-0.042884778 0.78899997 -0.0055335197 1.6862976e-38 289 244
-0.041396201 0.787 -0.005519493 1.7507218e-38 290 244
-0.039914634 0.78500003 -0.0055054668 1.7230994e-38 291 244
-0.038440078 0.78299999 -0.0054914397 1.7597977e-38 292 244
-0.036972538 0.78100002 -0.0054774131 1.7690171e-38 293 244
-0.035603184 0.78100002 -0.0054774131 1.7782365e-38 294 244
-0.034189999 0.77999997 -0.0054703997 1.787456e-38 295 244
-0.032822397 0.77999997 -0.0054703997 1.7599053e-38 296 244
-0.031454798 0.77999997 -0.0054703997 1.7691247e-38 297 244
-0.03001005 0.778 -0.0054563731 1.7691606e-38 298 244
-0.028572321 0.77600002 -0.0054423464 1.7875636e-38 299 244
-0.027141599 0.77399999 -0.0054283198 1.7967113e-38 300 244
-0.025784519 0.77399999 -0.0054283198 1.7874918e-38 301 244
-0.02442744 0.77399999 -0.0054283198 1.8057513e-38 302 244
-0.02307036 0.77399999 -0.0054283198 1.8057513e-38 303 244
-0.021713279 0.77399999 -0.0054283198 1.7689095e-38 304 244
-0.020356199 0.77399999 -0.0054283198 1.7228483e-38 305 244
-0.018974574 0.773 -0.0054213065 1.6122152e-38 306 244
-0.01757366 0.77100003 -0.0054072798 1.5292045e-38 307 244
-0.016221842 0.77100003 -0.0054072798 1.6120717e-38 308 244
-0.01487002 0.77100003 -0.0054072798 1.7042659e-38 309 244
-0.013483133 0.76899999 -0.0053932532 1.7506859e-38 310 244
-0.012134819 0.76899999 -0.0053932532 1.7414665e-38 311 244
-0.010786506 0.76899999 -0.0053932532 1.7780213e-38 312 244
-0.0094381925 0.76899999 -0.0053932532 1.7596183e-38 313 244
-0.0080898795 0.76899999 -0.0053932532 1.7687301e-38 314 244
-0.0067415666 0.76899999 -0.0053932532 1.7687301e-38 315 244
-0.0053932532 0.76899999 -0.0053932532 1.7686225e-38 316 244
-0.0040449398 0.76899999 -0.0053932532 1.7501837e-38 317 244
-0.0026966266 0.76899999 -0.0053932532 1.7685149e-38 318 244
-0.0013483133 0.76899999 -0.0053932532 1.7685149e-38 319 244
0 0.76700002 -0.0053792265 1.7501119e-38 320 244
0.0013448066 0.76700002 -0.0053792265 1.7501119e-38 321 244
0.0026896133 0.76700002 -0.0053792265 1.7317089e-38 322 244
0.0040449398 0.76899999 -0.0053932532 1.713306e-38 323 244
0.0053932532 0.76899999 -0.0053932532 1.7316372e-38 324 244
0.006724033 0.76700002 -0.0053792265 1.7131625e-38 325 244
0.00806884 0.76700002 -0.0053792265 1.6948313e-38 326 244
0.0094381925 0.76899999 -0.0053932532 1.6856118e-38 327 244
0.010786506 0.76899999 -0.0053932532 1.6487341e-38 328 244
0.012134819 0.76899999 -0.0053932532 1.6395147e-38 329 244
0.013483133 0.76899999 -0.0053932532 1.6026729e-38 330 244
0.014831445 0.76899999 -0.0053932532 1.5934535e-38 331 244
0.016179759 0.76899999 -0.0053932532 1.5567193e-38 332 244
0.01757366 0.77100003 -0.0054072798 1.5382446e-38 333 244
0.018925481 0.77100003 -0.0054072798 1.5289175e-38 334 244
0.020277301 0.77100003 -0.0054072798 1.5012951e-38 335 244
0.021685226 0.773 -0.0054213065 1.4920398e-38 336 244
0.02307036 0.77399999 -0.0054283198 1.473601e-38 337 244
0.024490559 0.77600002 -0.0054423464 1.4552339e-38 338 244
0.025984399 0.77999997 -0.0054703997 1.4460145e-38 339 244
0.027387068 0.78100002 -0.0054774131 1.4184638e-38 340 244
0.028830061 0.78299999 -0.0054914397 1.4184638e-38 341 244
0.030280067 0.78500003 -0.0055054668 1.3999891e-38 342 244
0.031656433 0.78500003 -0.0055054668 1.3999891e-38 343 244
0.033116959 0.787 -0.005519493 1.3999891e-38 344 244
0.034584496 0.78899997 -0.0055335197 1.4092085e-38 345 244
0.035967879 0.78899997 -0.0055335197 1.3724743e-38 346 244
0.037398599 0.79000002 -0.0055405335 1.3263772e-38 347 244
-0.044268157 0.78899997 -0.0069168997 1.6955183e-38 288 245
-0.042884778 0.78899997 -0.0069168997 1.6862987e-38 289 245
-0.041396201 0.787 -0.0068993662 1.7506141e-38 290 245
-0.039914634 0.78500003 -0.0068818335 1.7413947e-38 291 245
-0.038440078 0.78299999 -0.0068642995 1.7414306e-38 292 245
-0.036972538 0.78100002 -0.0068467669 1.7414306e-38 293 245
-0.035603184 0.78100002 -0.0068467669 1.7599053e-38 294 245
-0.034189999 0.77999997 -0.0068379994 1.7599053e-38 295 245
-0.032822397 0.77999997 -0.0068379994 1.7599053e-38 296 245
-0.031454798 0.77999997 -0.0068379994 1.7691247e-38 297 245
-0.03001005 0.778 -0.0068204664 1.7691606e-38 298 245
-0.028572321 0.77600002 -0.0068029333 1.796783e-38 299 245
-0.027141599 0.77399999 -0.0067853997 1.7967113e-38 300 245
-0.025784519 0.77399999 -0.0067853997 1.7967113e-38 301 245
-0.02442744 0.77399999 -0.0067853997 1.7874918e-38 302 245
-0.02307036 0.77399999 -0.0067853997 1.7874918e-38 303 245
-0.021713279 0.77399999 -0.0067853997 1.7874201e-38 304 245
-0.020356199 0.77399999 -0.0067853997 1.7689812e-38 305 245
-0.018974574 0.773 -0.0067766332 1.676787e-38 306 245
-0.01757366 0.77100003 -0.0067590997 1.6030316e-38 307 245
-0.016221842 0.77100003 -0.0067590997 1.621327e-38 308 245
-0.01487002 0.77100003 -0.0067590997 1.6950824e-38 309 245
-0.013483133 0.76899999 -0.0067415666 1.7598336e-38 310 245
-0.012134819 0.76899999 -0.0067415666 1.7506141e-38 311 245
-0.010786506 0.76899999 -0.0067415666 1.7596901e-38 312 245
-0.0094381925 0.76899999 -0.0067415666 1.7412154e-38 313 245
-0.0080898795 0.76899999 -0.0067415666 1.7596183e-38 314 245
-0.0067415666 0.76899999 -0.0067415666 1.7411436e-38 315 245
-0.0053932532 0.76899999 -0.0067415666 1.7502554e-38 316 245
-0.0040449398 0.76899999 -0.0067415666 1.7318524e-38 317 245
-0.0026966266 0.76899999 -0.0067415666 1.7501837e-38 318 245
-0.0013483133 0.76899999 -0.0067415666 1.7501837e-38 319 245
0 0.76700002 -0.006724033 1.7225971e-38 320 245
0.0013448066 0.76700002 -0.006724033 1.7225971e-38 321 245
0.0026896133 0.76700002 -0.006724033 1.7041583e-38 322 245
0.00403442 0.76700002 -0.006724033 1.694903e-38 323 245
0.0053792265 0.76700002 -0.006724033 1.6856836e-38 324 245
0.006724033 0.76700002 -0.006724033 1.6672806e-38 325 245
0.00806884 0.76700002 -0.006724033 1.6948313e-38 326 245
0.0094381925 0.76899999 -0.0067415666 1.6763565e-38 327 245
0.010786506 0.76899999 -0.0067415666 1.6394788e-38 328 245
0.012134819 0.76899999 -0.0067415666 1.6302594e-38 329 245
0.013483133 0.76899999 -0.0067415666 1.5842699e-38 330 245
0.014831445 0.76899999 -0.0067415666 1.565867e-38 331 245
0.016179759 0.76899999 -0.0067415666 1.5474999e-38 332 245
0.01757366 0.77100003 -0.0067590997 1.5382446e-38 333 245
0.018925481 0.77100003 -0.0067590997 1.5013669e-38 334 245
0.020277301 0.77100003 -0.0067590997 1.482928e-38 335 245
0.021685226 0.773 -0.0067766332 1.4828204e-38 336 245
0.023129974 0.77600002 -0.0068029333 1.473601e-38 337 245
0.024553679 0.778 -0.0068204664 1.4552339e-38 338 245
0.025984399 0.77999997 -0.0068379994 1.4460145e-38 339 245
0.027387068 0.78100002 -0.0068467669 1.4184279e-38 340 245
0.028830061 0.78299999 -0.0068642995 1.4092085e-38 341 245
0.030280067 0.78500003 -0.0068818335 1.3999891e-38 342 245
0.031656433 0.78500003 -0.0068818335 1.3999891e-38 343 245
0.033116959 0.787 -0.0068993662 1.4000608e-38 344 245
0.034584496 0.78899997 -0.0069168997 1.4000608e-38 345 245
0.035967879 0.78899997 -0.0069168997 1.363219e-38 346 245
0.037398599 0.79000002 -0.0069256667 1.3171578e-38 347 245
-0.044268157 0.78899997 -0.0083002793 1.7048103e-38 288 246
-0.042884778 0.78899997 -0.0083002793 1.6402734e-38 289 246
-0.041396201 0.787 -0.0082792398 1.7689095e-38 290 246
-0.040016327 0.787 -0.0082792398 1.7596901e-38 291 246
-0.038440078 0.78299999 -0.0082371598 1.7413588e-38 292 246
-0.036972538 0.78100002 -0.0082161194 1.7690171e-38 293 246
-0.035603184 0.78100002 -0.0082161194 1.75065e-38 294 246
-0.034189999 0.77999997 -0.0082055992 1.7599053e-38 295 246
-0.032822397 0.77999997 -0.0082055992 1.7599053e-38 296 246
-0.031454798 0.77999997 -0.0082055992 1.7691247e-38 297 246
-0.03001005 0.778 -0.0081845606 1.7691965e-38 298 246
-0.028572321 0.77600002 -0.0081635201 1.7784159e-38 299 246
-0.027141599 0.77399999 -0.0081424797 1.8059307e-38 300 246
-0.025784519 0.77399999 -0.0081424797 1.7967113e-38 301 246
-0.02442744 0.77399999 -0.0081424797 1.8243337e-38 302 246
-0.02307036 0.77399999 -0.0081424797 1.8335531e-38 303 246
-0.021713279 0.77399999 -0.0081424797 1.8152951e-38 304 246
-0.020356199 0.77399999 -0.0081424797 1.796856e-38 305 246
-0.018974574 0.773 -0.0081319595 1.7415036e-38 306 246
-0.017619247 0.773 -0.0081319595 1.6400528e-38 307 246
-0.016221842 0.77100003 -0.0081109209 1.6766794e-38 308 246
-0.01487002 0.77100003 -0.0081109209 1.7043377e-38 309 246
-0.013483133 0.76899999 -0.0080898795 1.7506141e-38 310 246
-0.012134819 0.76899999 -0.0080898795 1.7413947e-38 311 246
-0.010786506 0.76899999 -0.0080898795 1.7595825e-38 312 246
-0.0094381925 0.76899999 -0.0080898795 1.750363e-38 313 246
-0.0080898795 0.76899999 -0.0080898795 1.7411436e-38 314 246
-0.0067415666 0.76899999 -0.0080898795 1.7319242e-38 315 246
-0.0053932532 0.76899999 -0.0080898795 1.7318524e-38 316 246
-0.0040449398 0.76899999 -0.0080898795 1.7225971e-38 317 246
-0.0026966266 0.76899999 -0.0080898795 1.7501837e-38 318 246
-0.0013483133 0.76899999 -0.0080898795 1.7409642e-38 319 246
0 0.76899999 -0.0080898795 1.7225971e-38 320 246
0.0013483133 0.76899999 -0.0080898795 1.7041583e-38 321 246
0.0026896133 0.76700002 -0.00806884 1.6948313e-38 322 246
0.00403442 0.76700002 -0.00806884 1.6856118e-38 323 246
0.0053792265 0.76700002 -0.00806884 1.6856118e-38 324 246
0.006724033 0.76700002 -0.00806884 1.6856118e-38 325 246
0.0080898795 0.76899999 -0.0080898795 1.6580253e-38 326 246
0.0094381925 0.76899999 -0.0080898795 1.6488059e-38 327 246
0.010786506 0.76899999 -0.0080898795 1.6303312e-38 328 246
0.012134819 0.76899999 -0.0080898795 1.6027088e-38 329 246
0.013483133 0.76899999 -0.0080898795 1.565867e-38 330 246
0.014831445 0.76899999 -0.0080898795 1.5566475e-38 331 246
0.016221842 0.77100003 -0.0081109209 1.556504e-38 332 246
0.01757366 0.77100003 -0.0081109209 1.5288816e-38 333 246
0.018925481 0.77100003 -0.0081109209 1.5013669e-38 334 246
0.0203299 0.773 -0.0081319595 1.4828922e-38 335 246
0.021713279 0.77399999 -0.0081424797 1.4736727e-38 336 246
0.023129974 0.77600002 -0.0081635201 1.4460503e-38 337 246
0.024616797 0.77999997 -0.0082055992 1.4368668e-38 338 246
0.025984399 0.77999997 -0.0082055992 1.4368668e-38 339 246
0.027387068 0.78100002 -0.0082161194 1.4092803e-38 340 246
0.028830061 0.78299999 -0.0082371598 1.4092803e-38 341 246
0.030280067 0.78500003 -0.0082582003 1.3999891e-38 342 246
0.031656433 0.78500003 -0.0082582003 1.3999891e-38 343 246
0.033032801 0.78500003 -0.0082582003 1.3907697e-38 344 246
0.034584496 0.78899997 -0.0083002793 1.3907697e-38 345 246
0.035967879 0.78899997 -0.0083002793 1.3446009e-38 346 246
0.037398599 0.79000002 -0.0083108004 1.5013337e-38 347 246
-0.044268157 0.78899997 -0.0096836593 1.6588577e-38 288 247
-0.042884778 0.78899997 -0.0096836593 1.5943207e-38 289 247
-0.041501399 0.78899997 -0.0096836593 1.7413588e-38 290 247
-0.040016327 0.787 -0.0096591124 1.7413588e-38 291 247
-0.03853827 0.78500003 -0.0096345674 1.7230994e-38 292 247
-0.036972538 0.78100002 -0.0095854728 1.7230994e-38 293 247
-0.035603184 0.78100002 -0.0095854728 1.7415023e-38 294 247
-0.034189999 0.77999997 -0.0095731998 1.7415023e-38 295 247
-0.032822397 0.77999997 -0.0095731998 1.7507576e-38 296 247
-0.031454798 0.77999997 -0.0095731998 1.7507576e-38 297 247
-0.03001005 0.778 -0.0095486529 1.7416458e-38 298 247
-0.028572321 0.77600002 -0.009524107 1.7508653e-38 299 247
-0.027141599 0.77399999 -0.0094995592 1.7508653e-38 300 247
-0.025784519 0.77399999 -0.0094995592 1.7877071e-38 301 247
-0.02442744 0.77399999 -0.0094995592 1.824513e-38 302 247
-0.02307036 0.77399999 -0.0094995592 1.8152936e-38 303 247
-0.021713279 0.77399999 -0.0094995592 1.7968204e-38 304 247
-0.020356199 0.77399999 -0.0094995592 1.8152597e-38 305 247
-0.018974574 0.773 -0.0094872871 1.7322131e-38 306 247
-0.017619247 0.773 -0.0094872871 1.713774e-38 307 247
-0.016263919 0.773 -0.0094872871 1.7136288e-38 308 247
-0.01487002 0.77100003 -0.0094627403 1.7228483e-38 309 247
-0.013518199 0.77100003 -0.0094627403 1.7412154e-38 310 247
-0.01216638 0.77100003 -0.0094627403 1.7412154e-38 311 247
-0.010786506 0.76899999 -0.0094381925 1.7411436e-38 312 247
-0.0094381925 0.76899999 -0.0094381925 1.7411436e-38 313 247
-0.0080898795 0.76899999 -0.0094381925 1.713593e-38 314 247
-0.0067415666 0.76899999 -0.0094381925 1.7043735e-38 315 247
-0.0053932532 0.76899999 -0.0094381925 1.7226689e-38 316 247
-0.0040449398 0.76899999 -0.0094381925 1.6950465e-38 317 247
-0.0026966266 0.76899999 -0.0094381925 1.6950465e-38 318 247
-0.0013483133 0.76899999 -0.0094381925 1.6950465e-38 319 247
0 0.76899999 -0.0094381925 1.6857912e-38 320 247
0.0013483133 0.76899999 -0.0094381925 1.6673524e-38 321 247
0.0026896133 0.76700002 -0.0094136465 1.6580612e-38 322 247
0.00403442 0.76700002 -0.0094136465 1.6580612e-38 323 247
0.0053792265 0.76700002 -0.0094136465 1.6488776e-38 324 247
0.006724033 0.76700002 -0.0094136465 1.6488776e-38 325 247
0.0080898795 0.76899999 -0.0094381925 1.6304388e-38 326 247
0.0094381925 0.76899999 -0.0094381925 1.6119999e-38 327 247
0.010786506 0.76899999 -0.0094381925 1.6027446e-38 328 247
0.012134819 0.76899999 -0.0094381925 1.5843058e-38 329 247
0.013483133 0.76899999 -0.0094381925 1.5657593e-38 330 247
0.01487002 0.77100003 -0.0094627403 1.5565399e-38 331 247
0.016221842 0.77100003 -0.0094627403 1.5289175e-38 332 247
0.01757366 0.77100003 -0.0094627403 1.5196981e-38 333 247
0.018974574 0.773 -0.0094872871 1.4921474e-38 334 247
0.020356199 0.77399999 -0.0094995592 1.4736727e-38 335 247
0.021713279 0.77399999 -0.0094995592 1.473601e-38 336 247
0.023129974 0.77600002 -0.009524107 1.473601e-38 337 247
0.024616797 0.77999997 -0.0095731998 1.4460145e-38 338 247
0.026017714 0.78100002 -0.0095854728 1.436795e-38 339 247
0.027387068 0.78100002 -0.0095854728 1.436795e-38 340 247
0.028830061 0.78299999 -0.0096100196 1.4275397e-38 341 247
0.03020292 0.78299999 -0.0096100196 1.4000608e-38 342 247
0.031656433 0.78500003 -0.0096345674 1.3908055e-38 343 247
0.033032801 0.78500003 -0.0096345674 1.3817296e-38 344 247
0.034496833 0.787 -0.0096591124 1.4002043e-38 345 247
0.035967879 0.78899997 -0.0096836593 1.3728749e-38 346 247
-0.044268157 0.78899997 -0.011067039 1.6222328e-38 288 248
-0.042884778 0.78899997 -0.011067039 1.5208176e-38 289 248
-0.041501399 0.78899997 -0.011067039 1.7229559e-38 290 248
-0.040016327 0.787 -0.011038986 1.7321753e-38 291 248
-0.03853827 0.78500003 -0.011010934 1.7322112e-38 292 248
-0.036972538 0.78100002 -0.010954826 1.7414306e-38 293 248
-0.035603184 0.78100002 -0.010954826 1.75065e-38 294 248
-0.034189999 0.77999997 -0.010940799 1.7599053e-38 295 248
-0.032822397 0.77999997 -0.010940799 1.7507576e-38 296 248
-0.031374145 0.778 -0.010912746 1.7507576e-38 297 248
-0.03001005 0.778 -0.010912746 1.7507218e-38 298 248
-0.028572321 0.77600002 -0.010884693 1.7599771e-38 299 248
-0.027141599 0.77399999 -0.01085664 1.7876353e-38 300 248
-0.025784519 0.77399999 -0.01085664 1.7968548e-38 301 248
-0.02442744 0.77399999 -0.01085664 1.8152577e-38 302 248
-0.02307036 0.77399999 -0.01085664 1.7876353e-38 303 248
-0.021713279 0.77399999 -0.01085664 1.7874918e-38 304 248
-0.020356199 0.77399999 -0.01085664 1.7598336e-38 305 248
-0.018999118 0.77399999 -0.01085664 1.7045888e-38 306 248
-0.01764204 0.77399999 -0.01085664 1.6953694e-38 307 248
-0.016263919 0.773 -0.010842613 1.7045529e-38 308 248
-0.014908593 0.773 -0.010842613 1.7045529e-38 309 248
-0.013518199 0.77100003 -0.01081456 1.7412154e-38 310 248
-0.01216638 0.77100003 -0.01081456 1.713593e-38 311 248
-0.010786506 0.76899999 -0.010786506 1.7227048e-38 312 248
-0.0094381925 0.76899999 -0.010786506 1.7319242e-38 313 248
-0.0080898795 0.76899999 -0.010786506 1.7135571e-38 314 248
-0.0067415666 0.76899999 -0.010786506 1.7043377e-38 315 248
-0.0053932532 0.76899999 -0.010786506 1.7134495e-38 316 248
-0.0040449398 0.76899999 -0.010786506 1.6950465e-38 317 248
-0.0026966266 0.76899999 -0.010786506 1.7133777e-38 318 248
-0.0013483133 0.76899999 -0.010786506 1.7041583e-38 319 248
0 0.76899999 -0.010786506 1.7040507e-38 320 248
0.0013483133 0.76899999 -0.010786506 1.6948313e-38 321 248
0.0026966266 0.76899999 -0.010786506 1.6580971e-38 322 248
0.0040449398 0.76899999 -0.010786506 1.6488776e-38 323 248
0.0053932532 0.76899999 -0.010786506 1.6488776e-38 324 248
0.0067415666 0.76899999 -0.010786506 1.6304388e-38 325 248
0.0080898795 0.76899999 -0.010786506 1.6212194e-38 326 248
0.0094381925 0.76899999 -0.010786506 1.6119999e-38 327 248
0.010786506 0.76899999 -0.010786506 1.5843058e-38 328 248
0.01216638 0.77100003 -0.01081456 1.5566834e-38 329 248
0.013518199 0.77100003 -0.01081456 1.5474281e-38 330 248
0.01487002 0.77100003 -0.01081456 1.5381728e-38 331 248
0.016221842 0.77100003 -0.01081456 1.5105863e-38 332 248
0.017619247 0.773 -0.010842613 1.5013669e-38 333 248
0.018974574 0.773 -0.010842613 1.4830356e-38 334 248
0.020356199 0.77399999 -0.01085664 1.4645609e-38 335 248
0.021769386 0.77600002 -0.010884693 1.4736727e-38 336 248
0.023189586 0.778 -0.010912746 1.4552698e-38 337 248
0.024616797 0.77999997 -0.010940799 1.4368668e-38 338 248
0.026017714 0.78100002 -0.010954826 1.4184638e-38 339 248
0.027387068 0.78100002 -0.010954826 1.4092803e-38 340 248
0.028830061 0.78299999 -0.010982879 1.4092803e-38 341 248
0.03020292 0.78299999 -0.010982879 1.3816937e-38 342 248
0.031656433 0.78500003 -0.011010934 1.3909132e-38 343 248
0.033032801 0.78500003 -0.011010934 1.3913494e-38 344 248
0.034496833 0.787 -0.011038986 1.4927646e-38 345 248
-0.042884778 0.78899997 -0.012450419 1.5116724e-38 289 249
-0.041501399 0.78899997 -0.012450419 1.6770381e-38 290 249
-0.040016327 0.787 -0.01241886 1.6678187e-38 291 249
-0.03853827 0.78500003 -0.0123873 1.7322112e-38 292 249
-0.036972538 0.78100002 -0.01232418 1.7414306e-38 293 249
-0.035603184 0.78100002 -0.01232418 1.7414306e-38 294 249
-0.034233831 0.78100002 -0.01232418 1.7414306e-38 295 249
-0.032822397 0.77999997 -0.012308398 1.7415023e-38 296 249
-0.031374145 0.778 -0.012276839 1.7230994e-38 297 249
-0.03001005 0.778 -0.012276839 1.7230635e-38 298 249
-0.028572321 0.77600002 -0.01224528 1.7507218e-38 299 249
-0.027141599 0.77399999 -0.01221372 1.7691965e-38 300 249
-0.025784519 0.77399999 -0.01221372 1.7691965e-38 301 249
-0.02442744 0.77399999 -0.01221372 1.7967113e-38 302 249
-0.02307036 0.77399999 -0.01221372 1.7598694e-38 303 249
-0.021769386 0.77600002 -0.01224528 1.7597977e-38 304 249
-0.020356199 0.77399999 -0.01221372 1.7413588e-38 305 249
-0.018999118 0.77399999 -0.01221372 1.7321036e-38 306 249
-0.01764204 0.77399999 -0.01221372 1.7136647e-38 307 249
-0.016284959 0.77399999 -0.01221372 1.7228483e-38 308 249
-0.014908593 0.773 -0.012197939 1.7228483e-38 309 249
-0.013553266 0.773 -0.012197939 1.7135571e-38 310 249
-0.01216638 0.77100003 -0.01216638 1.7043377e-38 311 249
-0.010786506 0.76899999 -0.012134819 1.7227048e-38 312 249
-0.0094381925 0.76899999 -0.012134819 1.7227048e-38 313 249
-0.0080898795 0.76899999 -0.012134819 1.7043377e-38 314 249
-0.0067415666 0.76899999 -0.012134819 1.7043377e-38 315 249
-0.0053932532 0.76899999 -0.012134819 1.7134495e-38 316 249
-0.0040449398 0.76899999 -0.012134819 1.6950465e-38 317 249
-0.0026966266 0.76899999 -0.012134819 1.6857912e-38 318 249
-0.0013483133 0.76899999 -0.012134819 1.6857912e-38 319 249
0 0.76899999 -0.012134819 1.6765718e-38 320 249
0.0013483133 0.76899999 -0.012134819 1.6673524e-38 321 249
0.0026966266 0.76899999 -0.012134819 1.6397658e-38 322 249
0.0040449398 0.76899999 -0.012134819 1.6397658e-38 323 249
0.0053932532 0.76899999 -0.012134819 1.6212194e-38 324 249
0.0067415666 0.76899999 -0.012134819 1.6212194e-38 325 249
0.0080898795 0.76899999 -0.012134819 1.6303312e-38 326 249
0.0094381925 0.76899999 -0.012134819 1.6026729e-38 327 249
0.01081456 0.77100003 -0.01216638 1.5659387e-38 328 249
0.01216638 0.77100003 -0.01216638 1.5474999e-38 329 249
0.013518199 0.77100003 -0.01216638 1.5382446e-38 330 249
0.01487002 0.77100003 -0.01216638 1.5382446e-38 331 249
0.016221842 0.77100003 -0.01216638 1.510658e-38 332 249
0.017619247 0.773 -0.012197939 1.5014386e-38 333 249
0.018999118 0.77399999 -0.01221372 1.4830356e-38 334 249
0.020356199 0.77399999 -0.01221372 1.4737803e-38 335 249
0.021769386 0.77600002 -0.01224528 1.4828922e-38 336 249
