# .PCD v.7 - Point Cloud Data file format
FIELDS x y z rgb imX imY
SIZE 4 4 4 4 4 4
TYPE F F F F F F
COUNT 1 1 1 1 1 1
WIDTH 834
HEIGHT 1
VIEWPOINT 0 0 0 1 0 0 0
POINTS 834
DATA ascii
0.0083739199 0.796 0.0027913067 1.5763635e-38 326 238
0.0097695729 0.796 0.0027913067 1.502607e-38 327 238
0.011165227 0.796 0.0027913067 1.4563663e-38 328 238
0.01256088 0.796 0.0027913067 1.4010489e-38 329 238
0.013956533 0.796 0.0027913067 1.4195603e-38 330 238
0.015352187 0.796 0.0027913067 1.4380353e-38 331 238
-0.073969625 0.796 0.0013956534 1.7975274e-38 267 239
-0.072573967 0.796 0.0013956534 1.7515747e-38 268 239
-0.071178317 0.796 0.0013956534 1.8529539e-38 269 239
-0.069782659 0.796 0.0013956534 1.8352358e-38 270 239
-0.068387017 0.796 0.0013956534 1.8813336e-38 271 239
-0.066823035 0.79400003 0.0013921467 1.8354881e-38 272 239
-0.065430894 0.79400003 0.0013921467 1.7156338e-38 273 239
-0.063877434 0.792 0.0013886399 1.7797026e-38 274 239
-0.061620899 0.78100002 0.0013693533 1.8257644e-38 275 239
-0.060174398 0.77999997 0.0013675999 1.8260515e-38 276 239
-0.058806792 0.77999997 0.0013675999 1.8444906e-38 277 239
-0.057439197 0.77999997 0.0013675999 1.8533495e-38 278 239
-0.056071598 0.77999997 0.0013675999 1.7888126e-38 279 239
-0.054703996 0.77999997 0.0013675999 1.7334223e-38 280 239
-0.053336397 0.77999997 0.0013675999 1.7334223e-38 281 239
-0.051968798 0.77999997 0.0013675999 1.7703732e-38 282 239
-0.050601196 0.77999997 0.0013675999 1.899447e-38 283 239
-0.049233593 0.77999997 0.0013675999 1.9547288e-38 284 239
-0.047865998 0.77999997 0.0013675999 1.908631e-38 285 239
-0.046498396 0.77999997 0.0013675999 1.9084864e-38 286 239
-0.045130797 0.77999997 0.0013675999 1.7425703e-38 287 239
-0.043763198 0.77999997 0.0013675999 1.7608649e-38 288 239
-0.042395595 0.77999997 0.0013675999 1.696328e-38 289 239
-0.041027997 0.77999997 0.0013675999 1.7887041e-38 290 239
-0.039660398 0.77999997 0.0013675999 1.9546921e-38 291 239
-0.038292799 0.77999997 0.0013675999 1.9269613e-38 292 239
-0.036925197 0.77999997 0.0013675999 1.9084861e-38 293 239
-0.035557598 0.77999997 0.0013675999 1.8530599e-38 294 239
-0.034189999 0.77999997 0.0013675999 1.7792675e-38 295 239
-0.032822397 0.77999997 0.0013675999 1.6593769e-38 296 239
-0.02360688 0.792 0.0013886399 1.4938936e-38 303 239
-0.022218239 0.792 0.0013886399 1.5306642e-38 304 239
-0.0208822 0.79400003 0.0013921467 1.5675425e-38 305 239
-0.019490054 0.79400003 0.0013921467 1.6137482e-38 306 239
-0.018097907 0.79400003 0.0013921467 1.6413709e-38 307 239
-0.016705759 0.79400003 0.0013921467 1.6965443e-38 308 239
-0.01527504 0.792 0.0013886399 1.770301e-38 309 239
-0.0138864 0.792 0.0013886399 1.807359e-38 310 239
-0.0124662 0.79000002 0.0013851334 1.7796643e-38 311 239
-0.011081067 0.79000002 0.0013851334 1.7794831e-38 312 239
-0.0096959332 0.79000002 0.0013851334 1.659629e-38 313 239
-0.0083002793 0.78899997 0.0013833799 1.6961462e-38 314 239
-0.0069168997 0.78899997 0.0013833799 1.7145493e-38 315 239
-0.0055335197 0.78899997 0.0013833799 1.6962178e-38 316 239
-0.0041554002 0.79000002 0.0013851334 1.6962178e-38 317 239
-0.0027702667 0.79000002 0.0013851334 1.6041664e-38 318 239
-0.0013851334 0.79000002 0.0013851334 1.5396295e-38 319 239
0 0.79000002 0.0013851334 1.4111674e-38 320 239
0.0013851334 0.79000002 0.0013851334 1.3835086e-38 321 239
0.0027702667 0.79000002 0.0013851334 1.3559941e-38 322 239
0.00416592 0.792 0.0013886399 1.4113114e-38 323 239
0.0055545596 0.792 0.0013886399 1.6684873e-38 324 239
0.0069431998 0.792 0.0013886399 1.6592676e-38 325 239
0.0083528794 0.79400003 0.0013921467 1.60395e-38 326 239
0.0097450269 0.79400003 0.0013921467 1.4933153e-38 327 239
0.011165227 0.796 0.0013956534 1.382825e-38 328 239
0.01256088 0.796 0.0013956534 1.2353119e-38 329 239
0.013956533 0.796 0.0013956534 1.2539678e-38 330 239
0.015352187 0.796 0.0013956534 1.3277243e-38 331 239
0.01674784 0.796 0.0013956534 1.3278692e-38 332 239
-0.073969625 0.796 -0 1.7791959e-38 267 240
-0.072573967 0.796 -0 1.7608659e-38 268 240
-0.071178317 0.796 -0 1.8807202e-38 269 240
-0.069782659 0.796 -0 1.9088478e-38 270 240
-0.068387017 0.796 -0 1.9088478e-38 271 240
-0.066823035 0.79400003 -0 1.872114e-38 272 240
-0.065430894 0.79400003 -0 1.7614793e-38 273 240
-0.063877434 0.792 -0 1.7246366e-38 274 240
-0.061620899 0.78100002 -0 1.7615148e-38 275 240
-0.060174398 0.77999997 -0 1.8353067e-38 276 240
-0.058806792 0.77999997 -0 1.8445262e-38 277 240
-0.057439197 0.77999997 -0 1.8440941e-38 278 240
-0.056071598 0.77999997 -0 1.7980321e-38 279 240
-0.054703996 0.77999997 -0 1.7426419e-38 280 240
-0.053336397 0.77999997 -0 1.761081e-38 281 240
-0.051968798 0.77999997 -0 1.7795927e-38 282 240
-0.050601196 0.77999997 -0 1.9086666e-38 283 240
-0.049233593 0.77999997 -0 1.9731682e-38 284 240
-0.047865998 0.77999997 -0 1.9086313e-38 285 240
-0.046498396 0.77999997 -0 1.8718604e-38 286 240
-0.045130797 0.77999997 -0 1.7243472e-38 287 240
-0.043763198 0.77999997 -0 1.7516817e-38 288 240
-0.042395595 0.77999997 -0 1.6871447e-38 289 240
-0.041027997 0.77999997 -0 1.7703729e-38 290 240
-0.039660398 0.77999997 -0 1.9455444e-38 291 240
-0.038292799 0.77999997 -0 1.9179578e-38 292 240
-0.036925197 0.77999997 -0 1.8903351e-38 293 240
-0.035557598 0.77999997 -0 1.8347283e-38 294 240
-0.034189999 0.77999997 -0 1.7609718e-38 295 240
-0.032822397 0.77999997 -0 1.6411172e-38 296 240
-0.02360688 0.792 -0 1.5029339e-38 303 240
-0.022218239 0.792 -0 1.5397759e-38 304 240
-0.0208822 0.79400003 -0 1.5674705e-38 305 240
-0.019490054 0.79400003 -0 1.6227522e-38 306 240
-0.018097907 0.79400003 -0 1.6412274e-38 307 240
-0.016705759 0.79400003 -0 1.6230765e-38 308 240
-0.01527504 0.792 -0 1.7060526e-38 309 240
-0.0138864 0.792 -0 1.8165433e-38 310 240
-0.0124662 0.79000002 -0 1.7888844e-38 311 240
-0.011081067 0.79000002 -0 1.7611886e-38 312 240
-0.0096959332 0.79000002 -0 1.6413343e-38 313 240
-0.0083002793 0.78899997 -0 1.714514e-38 314 240
-0.0069168997 0.78899997 -0 1.7237336e-38 315 240
-0.0055335197 0.78899997 -0 1.7054377e-38 316 240
-0.0041501396 0.78899997 -0 1.7330605e-38 317 240
-0.0027667598 0.78899997 -0 1.6687389e-38 318 240
-0.0013851334 0.79000002 -0 1.6134216e-38 319 240
0 0.79000002 -0 1.5306973e-38 320 240
0.0013851334 0.79000002 -0 1.5030386e-38 321 240
0.0027702667 0.79000002 -0 1.4570853e-38 322 240
0.0041554002 0.79000002 -0 1.4939995e-38 323 240
0.0055405335 0.79000002 -0 1.6869267e-38 324 240
0.0069431998 0.792 -0 1.6500124e-38 325 240
0.0083318399 0.792 -0 1.6039136e-38 326 240
0.0097450269 0.79400003 -0 1.5116821e-38 327 240
0.011137174 0.79400003 -0 1.3737131e-38 328 240
0.01256088 0.796 -0 1.2169804e-38 329 240
0.013956533 0.796 -0 1.2814469e-38 330 240
0.015352187 0.796 -0 1.3275448e-38 331 240
0.01674784 0.796 -0 1.2539701e-38 332 240
-0.073969625 0.796 -0.0013956534 1.797635e-38 267 241
-0.072573967 0.796 -0.0013956534 1.7701579e-38 268 241
-0.071178317 0.796 -0.0013956534 1.9361102e-38 269 241
-0.069782659 0.796 -0.0013956534 2.0471418e-38 270 241
-0.068215191 0.79400003 -0.0013921467 2.0286667e-38 271 241
-0.066823035 0.79400003 -0.0013921467 1.9089925e-38 272 241
-0.065430894 0.79400003 -0.0013921467 1.7430404e-38 273 241
-0.063877434 0.792 -0.0013886399 1.7246366e-38 274 241
-0.061620899 0.78100002 -0.0013693533 1.7615148e-38 275 241
-0.060251549 0.78100002 -0.0013693533 1.8997364e-38 276 241
-0.058806792 0.77999997 -0.0013675999 1.9458341e-38 277 241
-0.057439197 0.77999997 -0.0013675999 1.8258716e-38 278 241
-0.056071598 0.77999997 -0.0013675999 1.7613346e-38 279 241
-0.054703996 0.77999997 -0.0013675999 1.7426422e-38 280 241
-0.053336397 0.77999997 -0.0013675999 1.770301e-38 281 241
-0.051968798 0.77999997 -0.0013675999 1.7611177e-38 282 241
-0.050601196 0.77999997 -0.0013675999 1.9086666e-38 283 241
-0.049233593 0.77999997 -0.0013675999 2.0100105e-38 284 241
-0.047865998 0.77999997 -0.0013675999 1.9270704e-38 285 241
-0.046498396 0.77999997 -0.0013675999 1.8443092e-38 286 241
-0.045130797 0.77999997 -0.0013675999 1.7060157e-38 287 241
-0.043763198 0.77999997 -0.0013675999 1.74257e-38 288 241
-0.042395595 0.77999997 -0.0013675999 1.6872526e-38 289 241
-0.041027997 0.77999997 -0.0013675999 1.7428231e-38 290 241
-0.039660398 0.77999997 -0.0013675999 1.8995915e-38 291 241
-0.038292799 0.77999997 -0.0013675999 1.872077e-38 292 241
-0.036925197 0.77999997 -0.0013675999 1.8444183e-38 293 241
-0.035557598 0.77999997 -0.0013675999 1.8256182e-38 294 241
-0.034189999 0.77999997 -0.0013675999 1.7426422e-38 295 241
-0.032822397 0.77999997 -0.0013675999 1.6411541e-38 296 241
-0.031454798 0.77999997 -0.0013675999 1.475238e-38 297 241
-0.022274347 0.79400003 -0.0013921467 1.5395231e-38 304 241
-0.0208822 0.79400003 -0.0013921467 1.5487427e-38 305 241
-0.019490054 0.79400003 -0.0013921467 1.5580708e-38 306 241
-0.018097907 0.79400003 -0.0013921467 1.5580708e-38 307 241
-0.016705759 0.79400003 -0.0013921467 1.4755992e-38 308 241
-0.01527504 0.792 -0.0013886399 1.6507709e-38 309 241
-0.0138864 0.792 -0.0013886399 1.7798092e-38 310 241
-0.0124662 0.79000002 -0.0013851334 1.76137e-38 311 241
-0.011081067 0.79000002 -0.0013851334 1.752077e-38 312 241
-0.0096836593 0.78899997 -0.0013833799 1.6230031e-38 313 241
-0.0083002793 0.78899997 -0.0013833799 1.7513927e-38 314 241
-0.0069168997 0.78899997 -0.0013833799 1.7421731e-38 315 241
-0.0055335197 0.78899997 -0.0013833799 1.714694e-38 316 241
-0.0041501396 0.78899997 -0.0013833799 1.714694e-38 317 241
-0.0027667598 0.78899997 -0.0013833799 1.6963627e-38 318 241
-0.0013833799 0.78899997 -0.0013833799 1.6779235e-38 319 241
0 0.78899997 -0.0013833799 1.6503368e-38 320 241
0.0013851334 0.79000002 -0.0013851334 1.6503368e-38 321 241
0.0027702667 0.79000002 -0.0013851334 1.6411528e-38 322 241
0.0041554002 0.79000002 -0.0013851334 1.659592e-38 323 241
0.0055405335 0.79000002 -0.0013851334 1.7146577e-38 324 241
0.0069256667 0.79000002 -0.0013851334 1.6685238e-38 325 241
0.0083318399 0.792 -0.0013886399 1.5855835e-38 326 241
0.0097204801 0.792 -0.0013886399 1.4841682e-38 327 241
0.011109119 0.792 -0.0013886399 1.3920083e-38 328 241
0.01252932 0.79400003 -0.0013921467 1.2629344e-38 329 241
0.013956533 0.796 -0.0013956534 1.318216e-38 330 241
0.015352187 0.796 -0.0013956534 1.318216e-38 331 241
0.01674784 0.796 -0.0013956534 1.1708474e-38 332 241
0.018143492 0.796 -0.0013956534 1.1063104e-38 333 241
-0.073969625 0.796 -0.0027913067 1.7976353e-38 267 242
-0.072573967 0.796 -0.0027913067 1.7424996e-38 268 242
-0.071178317 0.796 -0.0027913067 1.9637331e-38 269 242
-0.069782659 0.796 -0.0027913067 2.0567562e-38 270 242
-0.068215191 0.79400003 -0.0027842934 2.029098e-38 271 242
-0.066823035 0.79400003 -0.0027842934 1.8907335e-38 272 242
-0.065430894 0.79400003 -0.0027842934 1.6971227e-38 273 242
-0.063877434 0.792 -0.0027772798 1.7061975e-38 274 242
-0.062094301 0.787 -0.0027597465 1.715417e-38 275 242
-0.060251549 0.78100002 -0.0027387065 1.9090279e-38 276 242
-0.058882192 0.78100002 -0.0027387065 2.0288822e-38 277 242
-0.057439197 0.77999997 -0.0027351999 1.8535304e-38 278 242
-0.056071598 0.77999997 -0.0027351999 1.7429315e-38 279 242
-0.054703996 0.77999997 -0.0027351999 1.7426066e-38 280 242
-0.053336397 0.77999997 -0.0027351999 1.7518261e-38 281 242
-0.051968798 0.77999997 -0.0027351999 1.7058725e-38 282 242
-0.050601196 0.77999997 -0.0027351999 1.8718607e-38 283 242
-0.049233593 0.77999997 -0.0027351999 2.083731e-38 284 242
-0.047865998 0.77999997 -0.0027351999 2.0376333e-38 285 242
-0.046498396 0.77999997 -0.0027351999 1.8719679e-38 286 242
-0.045130797 0.77999997 -0.0027351999 1.6875766e-38 287 242
-0.043763198 0.77999997 -0.0027351999 1.7333867e-38 288 242
-0.042395595 0.77999997 -0.0027351999 1.6873248e-38 289 242
-0.041027997 0.77999997 -0.0027351999 1.7244921e-38 290 242
-0.039660398 0.77999997 -0.0027351999 1.8996278e-38 291 242
-0.038292799 0.77999997 -0.0027351999 1.9826046e-38 292 242
-0.036925197 0.77999997 -0.0027351999 1.9088481e-38 293 242
-0.035557598 0.77999997 -0.0027351999 1.798104e-38 294 242
-0.034189999 0.77999997 -0.0027351999 1.7243475e-38 295 242
-0.032822397 0.77999997 -0.0027351999 1.6503021e-38 296 242
-0.031454798 0.77999997 -0.0027351999 1.5212282e-38 297 242
-0.0209348 0.796 -0.0027913067 1.5577822e-38 305 242
-0.019539146 0.796 -0.0027913067 1.5486348e-38 306 242
-0.018143492 0.796 -0.0027913067 1.5486348e-38 307 242
-0.016705759 0.79400003 -0.0027842934 1.4477603e-38 308 242
-0.015313613 0.79400003 -0.0027842934 1.6229322e-38 309 242
-0.0138864 0.792 -0.0027772798 1.7431106e-38 310 242
-0.0124662 0.79000002 -0.0027702667 1.7246716e-38 311 242
-0.011081067 0.79000002 -0.0027702667 1.7428218e-38 312 242
-0.0096836593 0.78899997 -0.0027667598 1.6229675e-38 313 242
-0.0083002793 0.78899997 -0.0027667598 1.7514646e-38 314 242
-0.0069168997 0.78899997 -0.0027667598 1.742245e-38 315 242
-0.0055335197 0.78899997 -0.0027667598 1.6964346e-38 316 242
-0.0041501396 0.78899997 -0.0027667598 1.6872151e-38 317 242
-0.0027667598 0.78899997 -0.0027667598 1.6320422e-38 318 242
-0.0013833799 0.78899997 -0.0027667598 1.6320422e-38 319 242
0 0.78899997 -0.0027667598 1.6412977e-38 320 242
0.0013833799 0.78899997 -0.0027667598 1.6689204e-38 321 242
0.0027667598 0.78899997 -0.0027667598 1.6964343e-38 322 242
0.0041501396 0.78899997 -0.0027667598 1.6964343e-38 323 242
0.0055335197 0.78899997 -0.0027667598 1.724021e-38 324 242
0.0069256667 0.79000002 -0.0027702667 1.6502645e-38 325 242
0.0083108004 0.79000002 -0.0027702667 1.5672889e-38 326 242
0.0096959332 0.79000002 -0.0027702667 1.438215e-38 327 242
0.011081067 0.79000002 -0.0027702667 1.437854e-38 328 242
0.0124662 0.79000002 -0.0027702667 1.2995245e-38 329 242
0.013851333 0.79000002 -0.0027702667 1.3548775e-38 330 242
0.015352187 0.796 -0.0027913067 1.3640971e-38 331 242
0.01674784 0.796 -0.0027913067 1.2350949e-38 332 242
-0.073969625 0.796 -0.0041869599 1.7791959e-38 267 243
-0.072573967 0.796 -0.0041869599 1.7239884e-38 268 243
-0.071178317 0.796 -0.0041869599 1.9452219e-38 269 243
-0.069782659 0.796 -0.0041869599 2.0934546e-38 270 243
-0.068387017 0.796 -0.0041869599 2.0565769e-38 271 243
-0.066991359 0.796 -0.0041869599 1.8815499e-38 272 243
-0.065430894 0.79400003 -0.0041764397 1.6879391e-38 273 243
-0.064038746 0.79400003 -0.0041764397 1.6969423e-38 274 243
-0.062094301 0.787 -0.0041396199 1.6785032e-38 275 243
-0.060251549 0.78100002 -0.0041080597 1.9273947e-38 276 243
-0.058882192 0.78100002 -0.0041080597 2.0841274e-38 277 243
-0.057439197 0.77999997 -0.0041027996 1.8627858e-38 278 243
-0.056071598 0.77999997 -0.0041027996 1.733712e-38 279 243
-0.054703996 0.77999997 -0.0041027996 1.7242756e-38 280 243
-0.053336397 0.77999997 -0.0041027996 1.6965811e-38 281 243
-0.051968798 0.77999997 -0.0041027996 1.6137495e-38 282 243
-0.050601196 0.77999997 -0.0041027996 1.8350548e-38 283 243
-0.049233593 0.77999997 -0.0041027996 2.1114982e-38 284 243
-0.047865998 0.77999997 -0.0041027996 2.1114982e-38 285 243
-0.046498396 0.77999997 -0.0041027996 1.8814042e-38 286 243
-0.045130797 0.77999997 -0.0041027996 1.6509151e-38 287 243
-0.043763198 0.77999997 -0.0041027996 1.7150924e-38 288 243
-0.042395595 0.77999997 -0.0041027996 1.6505554e-38 289 243
-0.041027997 0.77999997 -0.0041027996 1.7060177e-38 290 243
-0.039660398 0.77999997 -0.0041027996 1.9272872e-38 291 243
-0.038292799 0.77999997 -0.0041027996 2.14852e-38 292 243
-0.036925197 0.77999997 -0.0041027996 2.0286669e-38 293 243
-0.035557598 0.77999997 -0.0041027996 1.7429668e-38 294 243
-0.034189999 0.77999997 -0.0041027996 1.6784299e-38 295 243
-0.032738242 0.778 -0.0040922803 1.6503739e-38 296 243
-0.031374145 0.778 -0.0040922803 1.5305198e-38 297 243
-0.019588239 0.79799998 -0.0041974802 1.5576745e-38 306 243
-0.018143492 0.796 -0.0041869599 1.5300159e-38 307 243
-0.016705759 0.79400003 -0.0041764397 1.392443e-38 308 243
-0.015313613 0.79400003 -0.0041764397 1.5768342e-38 309 243
-0.0138864 0.792 -0.00416592 1.7430031e-38 310 243
-0.0124662 0.79000002 -0.0041554002 1.7337836e-38 311 243
-0.011067039 0.78899997 -0.0041501396 1.7335668e-38 312 243
-0.0096836593 0.78899997 -0.0041501396 1.6229322e-38 313 243
-0.0082792398 0.787 -0.0041396199 1.6872882e-38 314 243
-0.0068993662 0.787 -0.0041396199 1.6780328e-38 315 243
-0.005519493 0.787 -0.0041396199 1.6780681e-38 316 243
-0.0041396199 0.787 -0.0041396199 1.6688485e-38 317 243
-0.0027597465 0.787 -0.0041396199 1.5585377e-38 318 243
-0.0013833799 0.78899997 -0.0041501396 1.5400986e-38 319 243
0 0.78899997 -0.0041501396 1.5492826e-38 320 243
0.0013833799 0.78899997 -0.0041501396 1.5769772e-38 321 243
0.0027667598 0.78899997 -0.0041501396 1.6781037e-38 322 243
0.0041501396 0.78899997 -0.0041501396 1.6873232e-38 323 243
0.0055335197 0.78899997 -0.0041501396 1.6873232e-38 324 243
0.0069256667 0.79000002 -0.0041554002 1.5950917e-38 325 243
0.0083108004 0.79000002 -0.0041554002 1.5489216e-38 326 243
0.0096959332 0.79000002 -0.0041554002 1.4290673e-38 327 243
0.011081067 0.79000002 -0.0041554002 1.4746594e-38 328 243
0.0124662 0.79000002 -0.0041554002 1.3271464e-38 329 243
0.013851333 0.79000002 -0.0041554002 1.3915384e-38 330 243
0.015352187 0.796 -0.0041869599 1.4191971e-38 331 243
0.016789921 0.79799998 -0.0041974802 1.4007583e-38 332 243
-0.074155472 0.79799998 -0.0055966396 1.7792315e-38 267 244
-0.072573967 0.796 -0.0055826134 1.7147684e-38 268 244
-0.071178317 0.796 -0.0055826134 1.8807205e-38 269 244
-0.069782659 0.796 -0.0055826134 2.0193755e-38 270 244
-0.068387017 0.796 -0.0055826134 2.028595e-38 271 244
-0.066991359 0.796 -0.0055826134 1.8722941e-38 272 244
-0.065595701 0.796 -0.0055826134 1.7340006e-38 273 244
-0.064038746 0.79400003 -0.0055685868 1.7245287e-38 274 244
-0.062488798 0.792 -0.0055545596 1.6692113e-38 275 244
-0.060251549 0.78100002 -0.0054774131 1.9181392e-38 276 244
-0.058882192 0.78100002 -0.0054774131 2.0933469e-38 277 244
-0.057439197 0.77999997 -0.0054703997 1.8444906e-38 278 244
-0.056071598 0.77999997 -0.0054703997 1.7154168e-38 279 244
-0.054703996 0.77999997 -0.0054703997 1.7150924e-38 280 244
-0.053336397 0.77999997 -0.0054703997 1.6689947e-38 281 244
-0.051968798 0.77999997 -0.0054703997 1.5032949e-38 282 244
-0.050601196 0.77999997 -0.0054703997 1.7522231e-38 283 244
-0.049233593 0.77999997 -0.0054703997 2.0748722e-38 284 244
-0.047865998 0.77999997 -0.0054703997 2.0840917e-38 285 244
-0.046498396 0.77999997 -0.0054703997 1.8905884e-38 286 244
-0.045130797 0.77999997 -0.0054703997 1.6601352e-38 287 244
-0.043763198 0.77999997 -0.0054703997 1.687506e-38 288 244
-0.042395595 0.77999997 -0.0054703997 1.6137495e-38 289 244
-0.041027997 0.77999997 -0.0054703997 1.6507369e-38 290 244
-0.039660398 0.77999997 -0.0054703997 1.8627868e-38 291 244
-0.038292799 0.77999997 -0.0054703997 2.130117e-38 292 244
-0.036925197 0.77999997 -0.0054703997 2.0471422e-38 293 244
-0.035557598 0.77999997 -0.0054703997 1.7430031e-38 294 244
-0.034102332 0.778 -0.0054563731 1.6784662e-38 295 244
-0.032738242 0.778 -0.0054563731 1.6321147e-38 296 244
-0.031374145 0.778 -0.0054563731 1.4938212e-38 297 244
-0.019588239 0.79799998 -0.0055966396 1.5301233e-38 306 244
-0.018189078 0.79799998 -0.0055966396 1.5116483e-38 307 244
-0.016705759 0.79400003 -0.0055685868 1.4014106e-38 308 244
-0.015313613 0.79400003 -0.0055685868 1.5950214e-38 309 244
-0.013851333 0.79000002 -0.0055405335 1.7705895e-38 310 244
-0.0124662 0.79000002 -0.0055405335 1.7429668e-38 311 244
-0.011067039 0.78899997 -0.0055335197 1.7152356e-38 312 244
-0.0096836593 0.78899997 -0.0055335197 1.6322595e-38 313 244
-0.0082792398 0.787 -0.005519493 1.6413706e-38 314 244
-0.0068993662 0.787 -0.005519493 1.650626e-38 315 244
-0.005519493 0.787 -0.005519493 1.6688851e-38 316 244
-0.0041396199 0.787 -0.005519493 1.6688851e-38 317 244
-0.0027597465 0.787 -0.005519493 1.5309516e-38 318 244
-0.0013798733 0.787 -0.005519493 1.5032569e-38 319 244
0 0.78899997 -0.0055335197 1.4298604e-38 320 244
0.0013833799 0.78899997 -0.0055335197 1.4759582e-38 321 244
0.0027667598 0.78899997 -0.0055335197 1.6505539e-38 322 244
0.0041501396 0.78899997 -0.0055335197 1.668993e-38 323 244
0.0055335197 0.78899997 -0.0055335197 1.67814e-38 324 244
0.0069168997 0.78899997 -0.0055335197 1.5675052e-38 325 244
0.0083108004 0.79000002 -0.0055405335 1.53963e-38 326 244
0.0096959332 0.79000002 -0.0055405335 1.4566181e-38 327 244
0.011081067 0.79000002 -0.0055405335 1.4748748e-38 328 244
0.0124662 0.79000002 -0.0055405335 1.4379606e-38 329 244
0.013851333 0.79000002 -0.0055405335 1.4928091e-38 330 244
-0.072573967 0.796 -0.0069782664 1.7239879e-38 268 245
-0.071178317 0.796 -0.0069782664 1.8254031e-38 269 245
-0.069782659 0.796 -0.0069782664 1.8904815e-38 270 245
-0.068387017 0.796 -0.0069782664 1.9273238e-38 271 245
-0.066991359 0.796 -0.0069782664 1.8538194e-38 272 245
-0.065595701 0.796 -0.0069782664 1.7431846e-38 273 245
-0.064038746 0.79400003 -0.0069607338 1.7336764e-38 274 245
-0.062488798 0.792 -0.0069431998 1.678359e-38 275 245
-0.060251549 0.78100002 -0.0068467669 1.8444556e-38 276 245
-0.058882192 0.78100002 -0.0068467669 2.0472857e-38 277 245
-0.057439197 0.77999997 -0.0068379994 1.8261963e-38 278 245
-0.056071598 0.77999997 -0.0068379994 1.7063421e-38 279 245
-0.054703996 0.77999997 -0.0068379994 1.6967255e-38 280 245
-0.053336397 0.77999997 -0.0068379994 1.6506637e-38 281 245
-0.051968798 0.77999997 -0.0068379994 1.5031872e-38 282 245
-0.050601196 0.77999997 -0.0068379994 1.7244568e-38 283 245
-0.049233593 0.77999997 -0.0068379994 1.9830009e-38 284 245
-0.047865998 0.77999997 -0.0068379994 1.9830009e-38 285 245
-0.046498396 0.77999997 -0.0068379994 1.8722222e-38 286 245
-0.045130797 0.77999997 -0.0068379994 1.6601364e-38 287 245
-0.043763198 0.77999997 -0.0068379994 1.6874341e-38 288 245
-0.042395595 0.77999997 -0.0068379994 1.6136776e-38 289 245
-0.041027997 0.77999997 -0.0068379994 1.6321901e-38 290 245
-0.039660398 0.77999997 -0.0068379994 1.8350565e-38 291 245
-0.038292799 0.77999997 -0.0068379994 2.0840917e-38 292 245
-0.036925197 0.77999997 -0.0068379994 2.0379945e-38 293 245
-0.035557598 0.77999997 -0.0068379994 1.7522597e-38 294 245
-0.034102332 0.778 -0.0068204664 1.6785032e-38 295 245
-0.032738242 0.778 -0.0068204664 1.6412987e-38 296 245
-0.031374145 0.778 -0.0068204664 1.5122248e-38 297 245
-0.018189078 0.79799998 -0.0069957995 1.5025717e-38 307 245
-0.016705759 0.79400003 -0.0069607338 1.3830066e-38 308 245
-0.01527504 0.792 -0.0069431998 1.5950567e-38 309 245
-0.013851333 0.79000002 -0.0069256667 1.7890644e-38 310 245
-0.012450419 0.78899997 -0.0069168997 1.7429666e-38 311 245
-0.011067039 0.78899997 -0.0069168997 1.7152358e-38 312 245
-0.0096836593 0.78899997 -0.0069168997 1.6322239e-38 313 245
-0.0083002793 0.78899997 -0.0069168997 1.6138201e-38 314 245
-0.0068993662 0.787 -0.0068993662 1.6322592e-38 315 245
-0.005519493 0.787 -0.0068993662 1.6505541e-38 316 245
-0.0041396199 0.787 -0.0068993662 1.6505541e-38 317 245
-0.0027597465 0.787 -0.0068993662 1.5034369e-38 318 245
-0.0013798733 0.787 -0.0068993662 1.4849976e-38 319 245
0 0.787 -0.0068993662 1.4207128e-38 320 245
0.0013798733 0.787 -0.0068993662 1.457627e-38 321 245
0.0027667598 0.78899997 -0.0069168997 1.6230397e-38 322 245
0.0041501396 0.78899997 -0.0069168997 1.6506983e-38 323 245
0.0055335197 0.78899997 -0.0069168997 1.668993e-38 324 245
0.0069168997 0.78899997 -0.0069168997 1.5583222e-38 325 245
0.0083108004 0.79000002 -0.0069256667 1.502896e-38 326 245
0.0096959332 0.79000002 -0.0069256667 1.4014809e-38 327 245
0.011081067 0.79000002 -0.0069256667 1.4656546e-38 328 245
0.0124662 0.79000002 -0.0069256667 1.5117525e-38 329 245
0.0138864 0.792 -0.0069431998 1.5758914e-38 330 245
-0.072573967 0.796 -0.0083739199 1.7331352e-38 268 246
-0.071178317 0.796 -0.0083739199 1.8068917e-38 269 246
-0.069782659 0.796 -0.0083739199 1.770879e-38 270 246
-0.068387017 0.796 -0.0083739199 1.835416e-38 271 246
-0.066991359 0.796 -0.0083739199 1.8262686e-38 272 246
-0.065595701 0.796 -0.0083739199 1.7248534e-38 273 246
-0.064038746 0.79400003 -0.0083528794 1.770447e-38 274 246
-0.062488798 0.792 -0.0083318399 1.6874709e-38 275 246
-0.060251549 0.78100002 -0.0082161194 1.7340006e-38 276 246
-0.058882192 0.78100002 -0.0082161194 1.8630745e-38 277 246
-0.057439197 0.77999997 -0.0082055992 1.7985376e-38 278 246
-0.056071598 0.77999997 -0.0082055992 1.7340006e-38 279 246
-0.054703996 0.77999997 -0.0082055992 1.6967255e-38 280 246
-0.053336397 0.77999997 -0.0082055992 1.6506637e-38 281 246
-0.051968798 0.77999997 -0.0082055992 1.5491409e-38 282 246
-0.050601196 0.77999997 -0.0082055992 1.7058375e-38 283 246
-0.049296722 0.78100002 -0.0082161194 1.8356323e-38 284 246
-0.047927368 0.78100002 -0.0082161194 1.863291e-38 285 246
-0.046558015 0.78100002 -0.0082161194 1.7986455e-38 286 246
-0.045188658 0.78100002 -0.0082161194 1.6510966e-38 287 246
-0.043763198 0.77999997 -0.0082055992 1.6874341e-38 288 246
-0.042395595 0.77999997 -0.0082055992 1.6136776e-38 289 246
-0.041027997 0.77999997 -0.0082055992 1.6137144e-38 290 246
-0.039660398 0.77999997 -0.0082055992 1.770447e-38 291 246
-0.038292799 0.77999997 -0.0082055992 2.0103363e-38 292 246
-0.036925197 0.77999997 -0.0082055992 1.9642392e-38 293 246
-0.035557598 0.77999997 -0.0082055992 1.75226e-38 294 246
-0.034189999 0.77999997 -0.0082055992 1.687723e-38 295 246
-0.032822397 0.77999997 -0.0082055992 1.6505186e-38 296 246
-0.031454798 0.77999997 -0.0082055992 1.5767621e-38 297 246
-0.027017111 0.81099999 -0.0085317204 1.6041314e-38 301 246
-0.025595158 0.81099999 -0.0085317204 1.604167e-38 302 246
-0.024173206 0.81099999 -0.0085317204 1.585692e-38 303 246
-0.021276699 0.80900002 -0.0085106799 1.5671086e-38 305 246
-0.019490054 0.79400003 -0.0083528794 1.5028594e-38 306 246
-0.018097907 0.79400003 -0.0083528794 1.447542e-38 307 246
-0.016705759 0.79400003 -0.0083528794 1.419885e-38 308 246
-0.015236467 0.79000002 -0.0083108004 1.6503739e-38 309 246
-0.013851333 0.79000002 -0.0083108004 1.8075757e-38 310 246
-0.012450419 0.78899997 -0.0083002793 1.7522583e-38 311 246
-0.011067039 0.78899997 -0.0083002793 1.6877211e-38 312 246
-0.0096591124 0.787 -0.0082792398 1.58627e-38 313 246
-0.0082792398 0.787 -0.0082792398 1.6505186e-38 314 246
-0.0068993662 0.787 -0.0082792398 1.6597381e-38 315 246
-0.005519493 0.787 -0.0082792398 1.6230041e-38 316 246
-0.0041396199 0.787 -0.0082792398 1.6045649e-38 317 246
-0.0027597465 0.787 -0.0082792398 1.503509e-38 318 246
-0.0013798733 0.787 -0.0082792398 1.4758864e-38 319 246
0 0.787 -0.0082792398 1.4667031e-38 320 246
0.0013798733 0.787 -0.0082792398 1.4759227e-38 321 246
0.0027667598 0.78899997 -0.0083002793 1.5863056e-38 322 246
0.0041501396 0.78899997 -0.0083002793 1.6139643e-38 323 246
0.0055335197 0.78899997 -0.0083002793 1.6689936e-38 324 246
0.0069168997 0.78899997 -0.0083002793 1.5306642e-38 325 246
0.0083108004 0.79000002 -0.0083108004 1.4385036e-38 326 246
0.0096959332 0.79000002 -0.0083108004 1.3186493e-38 327 246
0.011081067 0.79000002 -0.0083108004 1.3458373e-38 328 246
0.0124662 0.79000002 -0.0083108004 1.2720807e-38 329 246
0.0138864 0.792 -0.0083318399 1.3547308e-38 330 246
-0.072756313 0.79799998 -0.0097941197 1.6872529e-38 268 247
-0.071357153 0.79799998 -0.0097941197 1.7701929e-38 269 247
-0.069957994 0.79799998 -0.0097941197 1.7707707e-38 270 247
-0.068558834 0.79799998 -0.0097941197 1.8445631e-38 271 247
-0.067159683 0.79799998 -0.0097941197 1.8079734e-38 272 247
-0.065595701 0.796 -0.0097695729 1.706594e-38 273 247
-0.064200051 0.796 -0.0097695729 1.7613349e-38 274 247
-0.062488798 0.792 -0.0097204801 1.696798e-38 275 247
-0.060251549 0.78100002 -0.0095854728 1.7247086e-38 276 247
-0.058882192 0.78100002 -0.0095854728 1.7984651e-38 277 247
-0.057439197 0.77999997 -0.0095731998 1.7891738e-38 278 247
-0.056071598 0.77999997 -0.0095731998 1.7614793e-38 279 247
-0.054703996 0.77999997 -0.0095731998 1.6600271e-38 280 247
-0.053336397 0.77999997 -0.0095731998 1.6324044e-38 281 247
-0.051968798 0.77999997 -0.0095731998 1.5767633e-38 282 247
-0.050601196 0.77999997 -0.0095731998 1.7058372e-38 283 247
-0.049296722 0.78100002 -0.0095854728 1.7893177e-38 284 247
-0.047865998 0.77999997 -0.0095731998 1.8538547e-38 285 247
-0.046498396 0.77999997 -0.0095731998 1.8262316e-38 286 247
-0.045188658 0.78100002 -0.0095854728 1.6694631e-38 287 247
-0.043819305 0.78100002 -0.0095854728 1.6874697e-38 288 247
-0.042395595 0.77999997 -0.0095731998 1.6229327e-38 289 247
-0.041027997 0.77999997 -0.0095731998 1.6137142e-38 290 247
-0.039711244 0.78100002 -0.0095854728 1.6967261e-38 291 247
-0.038341891 0.78100002 -0.0095854728 1.862967e-38 292 247
-0.036972538 0.78100002 -0.0095854728 1.8814062e-38 293 247
-0.035603184 0.78100002 -0.0095854728 1.7614793e-38 294 247
-0.034189999 0.77999997 -0.0095731998 1.6877227e-38 295 247
-0.032822397 0.77999997 -0.0095731998 1.6597384e-38 296 247
-0.031454798 0.77999997 -0.0095731998 1.5952015e-38 297 247
-0.030087199 0.77999997 -0.0095731998 1.5949844e-38 298 247
-0.02993466 0.81300002 -0.0099782199 1.5949844e-38 299 247
-0.028439065 0.81099999 -0.009953673 1.6501573e-38 300 247
-0.026950486 0.80900002 -0.0099291261 1.6501573e-38 301 247
-0.025532039 0.80900002 -0.0099291261 1.622606e-38 302 247
-0.024113594 0.80900002 -0.0099291261 1.6133862e-38 303 247
-0.022695147 0.80900002 -0.0099291261 1.6223897e-38 304 247
-0.021276699 0.80900002 -0.0099291261 1.594695e-38 305 247
-0.019809159 0.80699998 -0.0099045793 1.5118636e-38 306 247
-0.018394221 0.80699998 -0.0099045793 1.4934243e-38 307 247
-0.016621601 0.79000002 -0.0096959332 1.5120452e-38 308 247
-0.015236467 0.79000002 -0.0096959332 1.7148756e-38 309 247
-0.013833799 0.78899997 -0.0096836593 1.8260515e-38 310 247
-0.012450419 0.78899997 -0.0096836593 1.7246722e-38 311 247
-0.011038986 0.787 -0.0096591124 1.6692466e-38 312 247
-0.0096591124 0.787 -0.0096591124 1.5862706e-38 313 247
-0.0082792398 0.787 -0.0096591124 1.668958e-38 314 247
-0.0068993662 0.787 -0.0096591124 1.6597384e-38 315 247
-0.005519493 0.787 -0.0096591124 1.6046731e-38 316 247
-0.0041396199 0.787 -0.0096591124 1.5769786e-38 317 247
-0.0027597465 0.787 -0.0096591124 1.4392968e-38 318 247
-0.0013798733 0.787 -0.0096591124 1.4300772e-38 319 247
0 0.787 -0.0096591124 1.4024181e-38 320 247
0.0013833799 0.78899997 -0.0096836593 1.4116378e-38 321 247
0.0027667598 0.78899997 -0.0096836593 1.4761027e-38 322 247
0.0041501396 0.78899997 -0.0096836593 1.5314201e-38 323 247
0.0055335197 0.78899997 -0.0096836593 1.6323311e-38 324 247
0.0069256667 0.79000002 -0.0096959332 1.4940377e-38 325 247
0.0083108004 0.79000002 -0.0096959332 1.4383964e-38 326 247
0.0096959332 0.79000002 -0.0096959332 1.3001029e-38 327 247
0.011081067 0.79000002 -0.0096959332 1.2627908e-38 328 247
0.0124662 0.79000002 -0.0096959332 1.0323377e-38 329 247
0.0138864 0.792 -0.0097204801 1.1429718e-38 330 247
-0.071535997 0.80000001 -0.011221333 1.7793409e-38 269 248
-0.069957994 0.79799998 -0.011193279 1.7614795e-38 270 248
-0.068558834 0.79799998 -0.011193279 1.8536752e-38 271 248
-0.067159683 0.79799998 -0.011193279 1.798682e-38 272 248
-0.065595701 0.796 -0.011165227 1.715706e-38 273 248
-0.064200051 0.796 -0.011165227 1.7430401e-38 274 248
-0.062488798 0.792 -0.011109119 1.6600999e-38 275 248
-0.060251549 0.78100002 -0.010954826 1.7063774e-38 276 248
-0.058882192 0.78100002 -0.010954826 1.7893174e-38 277 248
-0.057439197 0.77999997 -0.010940799 1.7524395e-38 278 248
-0.056071598 0.77999997 -0.010940799 1.7340004e-38 279 248
-0.054703996 0.77999997 -0.010940799 1.6324763e-38 280 248
-0.053336397 0.77999997 -0.010940799 1.6324763e-38 281 248
-0.051968798 0.77999997 -0.010940799 1.6045299e-38 282 248
-0.050601196 0.77999997 -0.010940799 1.6782864e-38 283 248
-0.049233593 0.77999997 -0.010940799 1.7799905e-38 284 248
-0.047865998 0.77999997 -0.010940799 1.8445275e-38 285 248
-0.046498396 0.77999997 -0.010940799 1.8445628e-38 286 248
-0.045188658 0.78100002 -0.010954826 1.6970498e-38 287 248
-0.043819305 0.78100002 -0.010954826 1.6875413e-38 288 248
-0.042395595 0.77999997 -0.010940799 1.6322239e-38 289 248
-0.041027997 0.77999997 -0.010940799 1.6504838e-38 290 248
-0.039711244 0.78100002 -0.010954826 1.7057653e-38 291 248
-0.038341891 0.78100002 -0.010954826 1.8167966e-38 292 248
-0.036972538 0.78100002 -0.010954826 1.872114e-38 293 248
-0.035603184 0.78100002 -0.010954826 1.7707344e-38 294 248
-0.034233831 0.78100002 -0.010954826 1.6969779e-38 295 248
-0.032822397 0.77999997 -0.010940799 1.6597381e-38 296 248
-0.031454798 0.77999997 -0.010940799 1.6044566e-38 297 248
-0.030087199 0.77999997 -0.010940799 1.6317908e-38 298 248
-0.02986102 0.81099999 -0.011375627 1.6225712e-38 299 248
-0.028439065 0.81099999 -0.011375627 1.6225709e-38 300 248
-0.026950486 0.80900002 -0.011347573 1.6225709e-38 301 248
-0.025532039 0.80900002 -0.011347573 1.6502289e-38 302 248
-0.024113594 0.80900002 -0.011347573 1.6318258e-38 303 248
-0.022695147 0.80900002 -0.011347573 1.6316456e-38 304 248
-0.021224098 0.80699998 -0.011319519 1.6132065e-38 305 248
-0.019809159 0.80699998 -0.011319519 1.5763285e-38 306 248
-0.018394221 0.80699998 -0.011319519 1.5855482e-38 307 248
-0.016621601 0.79000002 -0.011081067 1.5859816e-38 308 248
-0.015236467 0.79000002 -0.011081067 1.7519336e-38 309 248
-0.013833799 0.78899997 -0.011067039 1.7984651e-38 310 248
-0.012450419 0.78899997 -0.011067039 1.6786467e-38 311 248
-0.011038986 0.787 -0.011038986 1.6509154e-38 312 248
-0.0096591124 0.787 -0.011038986 1.5771589e-38 313 248
-0.0082792398 0.787 -0.011038986 1.6505907e-38 314 248
-0.0068993662 0.787 -0.011038986 1.6505907e-38 315 248
-0.005519493 0.787 -0.011038986 1.5679388e-38 316 248
-0.0041396199 0.787 -0.011038986 1.5218768e-38 317 248
-0.0027597465 0.787 -0.011038986 1.3933429e-38 318 248
-0.0013798733 0.787 -0.011038986 1.3749398e-38 319 248
0 0.78899997 -0.011067039 1.3840516e-38 320 248
0.0013833799 0.78899997 -0.011067039 1.3840516e-38 321 248
0.0027667598 0.78899997 -0.011067039 1.4117104e-38 322 248
0.0041501396 0.78899997 -0.011067039 1.4670278e-38 323 248
0.0055335197 0.78899997 -0.011067039 1.6322958e-38 324 248
0.0069256667 0.79000002 -0.011081067 1.4663797e-38 325 248
0.0083108004 0.79000002 -0.011081067 1.4382884e-38 326 248
0.0096959332 0.79000002 -0.011081067 1.3092145e-38 327 248
0.011081067 0.79000002 -0.011081067 1.1801038e-38 328 248
0.0124662 0.79000002 -0.011081067 9.0351689e-39 329 248
-0.071714841 0.80199999 -0.01265556 1.7425703e-38 269 249
-0.070133328 0.80000001 -0.012624 1.706234e-38 270 249
-0.068558834 0.79799998 -0.012592439 1.8169048e-38 271 249
-0.067159683 0.79799998 -0.012592439 1.7986465e-38 272 249
-0.065760516 0.79799998 -0.012592439 1.7156704e-38 273 249
-0.064200051 0.796 -0.01256088 1.7430401e-38 274 249
-0.062488798 0.792 -0.012497759 1.6600999e-38 275 249
-0.060251549 0.78100002 -0.01232418 1.7339282e-38 276 249
-0.058882192 0.78100002 -0.01232418 1.7892456e-38 277 249
-0.057439197 0.77999997 -0.012308398 1.761659e-38 278 249
-0.056071598 0.77999997 -0.012308398 1.7340004e-38 279 249
-0.054703996 0.77999997 -0.012308398 1.6141092e-38 280 249
-0.053336397 0.77999997 -0.012308398 1.6325123e-38 281 249
-0.052035429 0.78100002 -0.01232418 1.6137495e-38 282 249
-0.050666075 0.78100002 -0.01232418 1.6782864e-38 283 249
-0.049233593 0.77999997 -0.012308398 1.7523679e-38 284 249
-0.047865998 0.77999997 -0.012308398 1.8169048e-38 285 249
-0.046558015 0.78100002 -0.01232418 1.7894256e-38 286 249
-0.045188658 0.78100002 -0.01232418 1.6603517e-38 287 249
-0.043819305 0.78100002 -0.01232418 1.6967608e-38 288 249
-0.042449951 0.78100002 -0.01232418 1.6414435e-38 289 249
-0.041080598 0.78100002 -0.01232418 1.6597387e-38 290 249
-0.039711244 0.78100002 -0.01232418 1.6965811e-38 291 249
-0.038341891 0.78100002 -0.01232418 1.7891735e-38 292 249
-0.036972538 0.78100002 -0.01232418 1.8537105e-38 293 249
-0.035603184 0.78100002 -0.01232418 1.7707341e-38 294 249
-0.034233831 0.78100002 -0.01232418 1.7061972e-38 295 249
-0.032822397 0.77999997 -0.012308398 1.6322595e-38 296 249
-0.031454798 0.77999997 -0.012308398 1.5677226e-38 297 249
-0.03136012 0.81300002 -0.01282914 1.6318629e-38 298 249
-0.02986102 0.81099999 -0.012797579 1.6133879e-38 299 249
-0.028439065 0.81099999 -0.012797579 1.6317905e-38 300 249
-0.026950486 0.80900002 -0.012766019 1.6317905e-38 301 249
-0.025532039 0.80900002 -0.012766019 1.650157e-38 302 249
-0.024113594 0.80900002 -0.012766019 1.6593766e-38 303 249
-0.022695147 0.80900002 -0.012766019 1.6317175e-38 304 249
-0.021224098 0.80699998 -0.01273446 1.6133144e-38 305 249
-0.019809159 0.80699998 -0.01273446 1.5856922e-38 306 249
-0.018394221 0.80699998 -0.01273446 1.6041314e-38 307 249
-0.016621601 0.79000002 -0.0124662 1.6230041e-38 308 249
-0.015236467 0.79000002 -0.0124662 1.7520779e-38 309 249
-0.013833799 0.78899997 -0.012450419 1.7709146e-38 310 249
-0.012450419 0.78899997 -0.012450419 1.6694634e-38 311 249
-0.011067039 0.78899997 -0.012450419 1.6141092e-38 312 249
-0.0096836593 0.78899997 -0.012450419 1.5680112e-38 313 249
-0.0083002793 0.78899997 -0.012450419 1.6323314e-38 314 249
-0.0069168997 0.78899997 -0.012450419 1.6230759e-38 315 249
-0.0055335197 0.78899997 -0.012450419 1.540388e-38 316 249
-0.0041501396 0.78899997 -0.012450419 1.4850706e-38 317 249
-0.0027667598 0.78899997 -0.012450419 1.3933429e-38 318 249
-0.0013833799 0.78899997 -0.012450419 1.3749398e-38 319 249
0 0.78899997 -0.012450419 1.3289141e-38 320 249
0.0013833799 0.78899997 -0.012450419 1.3473172e-38 321 249
0.0027667598 0.78899997 -0.012450419 1.4576286e-38 322 249
0.0041501396 0.78899997 -0.012450419 1.494507e-38 323 249
0.0055335197 0.78899997 -0.012450419 1.5954898e-38 324 249
0.0069256667 0.79000002 -0.0124662 1.420354e-38 325 249
0.0083108004 0.79000002 -0.0124662 1.401518e-38 326 249
0.0096959332 0.79000002 -0.0124662 1.2540411e-38 327 249
0.011081067 0.79000002 -0.0124662 1.1525177e-38 328 249
0.0124662 0.79000002 -0.0124662 8.9436992e-39 329 249
-0.071804255 0.80299997 -0.014079265 1.7516814e-38 269 250
-0.070308663 0.80199999 -0.014061732 1.6876862e-38 270 250
-0.068902493 0.80199999 -0.014061732 1.8075404e-38 271 250
-0.067327999 0.80000001 -0.014026666 1.8354162e-38 272 250
-0.065760516 0.79799998 -0.013991599 1.7616596e-38 273 250
-0.064361356 0.79799998 -0.013991599 1.7247089e-38 274 250
-0.062962197 0.79799998 -0.013991599 1.6416968e-38 275 250
-0.060251549 0.78100002 -0.013693534 1.7339287e-38 276 250
-0.058882192 0.78100002 -0.013693534 1.7892102e-38 277 250
-0.057439197 0.77999997 -0.013675999 1.7524042e-38 278 250
-0.056071598 0.77999997 -0.013675999 1.7063424e-38 279 250
-0.054703996 0.77999997 -0.013675999 1.6232211e-38 280 250
-0.053336397 0.77999997 -0.013675999 1.6324407e-38 281 250
-0.052035429 0.78100002 -0.013693534 1.6046381e-38 282 250
-0.050666075 0.78100002 -0.013693534 1.6599196e-38 283 250
-0.049296722 0.78100002 -0.013693534 1.743113e-38 284 250
-0.047927368 0.78100002 -0.013693534 1.8168695e-38 285 250
-0.046558015 0.78100002 -0.013693534 1.7526197e-38 286 250
-0.045188658 0.78100002 -0.013693534 1.6511685e-38 287 250
-0.043819305 0.78100002 -0.013693534 1.6968327e-38 288 250
-0.042558655 0.78299999 -0.013728599 1.6322958e-38 289 250
-0.0411858 0.78299999 -0.013728599 1.6505551e-38 290 250
-0.039812941 0.78299999 -0.013728599 1.6874694e-38 291 250
-0.038440078 0.78299999 -0.013728599 1.8076122e-38 292 250
-0.037067216 0.78299999 -0.013728599 1.8444906e-38 293 250
-0.035603184 0.78100002 -0.013693534 1.7615146e-38 294 250
-0.034233831 0.78100002 -0.013693534 1.6969776e-38 295 250
-0.032864477 0.78100002 -0.013693534 1.6322958e-38 296 250
-0.031495128 0.78100002 -0.013693534 1.5585393e-38 297 250
-0.03136012 0.81300002 -0.0142546 1.6042765e-38 298 250
-0.02986102 0.81099999 -0.014219533 1.6042765e-38 299 250
-0.028439065 0.81099999 -0.014219533 1.6133879e-38 300 250
-0.026950486 0.80900002 -0.014184467 1.6226075e-38 301 250
-0.025532039 0.80900002 -0.014184467 1.6317905e-38 302 250
-0.024113594 0.80900002 -0.014184467 1.6317905e-38 303 250
-0.022695147 0.80900002 -0.014184467 1.5950917e-38 304 250
-0.021224098 0.80699998 -0.014149399 1.5674329e-38 305 250
-0.019809159 0.80699998 -0.014149399 1.5397749e-38 306 250
-0.018394221 0.80699998 -0.014149399 1.5858367e-38 307 250
-0.016621601 0.79000002 -0.013851333 1.6140365e-38 308 250
-0.015236467 0.79000002 -0.013851333 1.7247072e-38 309 250
-0.013833799 0.78899997 -0.013833799 1.752547e-38 310 250
-0.012450419 0.78899997 -0.013833799 1.6326928e-38 311 250
-0.011067039 0.78899997 -0.013833799 1.5680835e-38 312 250
-0.0096836593 0.78899997 -0.013833799 1.5496444e-38 313 250
-0.0083002793 0.78899997 -0.013833799 1.5955254e-38 314 250
-0.0069168997 0.78899997 -0.013833799 1.5955254e-38 315 250
-0.0055335197 0.78899997 -0.013833799 1.531205e-38 316 250
-0.0041501396 0.78899997 -0.013833799 1.4758876e-38 317 250
-0.0027667598 0.78899997 -0.013833799 1.3474258e-38 318 250
-0.0013833799 0.78899997 -0.013833799 1.3382061e-38 319 250
0 0.78899997 -0.013833799 1.3197667e-38 320 250
0.0013833799 0.78899997 -0.013833799 1.3289863e-38 321 250
0.0027667598 0.78899997 -0.013833799 1.4851791e-38 322 250
0.0041554002 0.79000002 -0.013851333 1.5313129e-38 323 250
0.0055405335 0.79000002 -0.013851333 1.5771939e-38 324 250
0.0069256667 0.79000002 -0.013851333 1.3835831e-38 325 250
0.0083108004 0.79000002 -0.013851333 1.4015178e-38 326 250
0.0096959332 0.79000002 -0.013851333 1.2263461e-38 327 250
0.011081067 0.79000002 -0.013851333 1.1155668e-38 328 250
0.0124662 0.79000002 -0.013851333 9.2199189e-39 329 250
-0.070396326 0.80299997 -0.015487193 1.6875416e-38 270 251
-0.068988405 0.80299997 -0.015487193 1.7705176e-38 271 251
-0.067580476 0.80299997 -0.015487193 1.7891738e-38 272 251
-0.066090144 0.80199999 -0.015467905 1.7799543e-38 273 251
-0.064683966 0.80199999 -0.015467905 1.7614074e-38 274 251
-0.063277796 0.80199999 -0.015467905 1.6784312e-38 275 251
-0.060251549 0.78100002 -0.015062887 1.7246013e-38 276 251
-0.058882192 0.78100002 -0.015062887 1.7891382e-38 277 251
-0.057439197 0.77999997 -0.0150436 1.770771e-38 278 251
-0.056071598 0.77999997 -0.0150436 1.7246733e-38 279 251
-0.054703996 0.77999997 -0.0150436 1.6232211e-38 280 251
-0.053404782 0.78100002 -0.015062887 1.6324407e-38 281 251
-0.052035429 0.78100002 -0.015062887 1.6230412e-38 282 251
-0.050666075 0.78100002 -0.015062887 1.6599196e-38 283 251
-0.049296722 0.78100002 -0.015062887 1.7430048e-38 284 251
-0.047927368 0.78100002 -0.015062887 1.8352363e-38 285 251
-0.046677239 0.78299999 -0.01510146 1.7433645e-38 286 251
-0.04530438 0.78299999 -0.01510146 1.6419492e-38 287 251
-0.043931518 0.78299999 -0.01510146 1.7060526e-38 288 251
-0.042558655 0.78299999 -0.01510146 1.6415158e-38 289 251
-0.0411858 0.78299999 -0.01510146 1.6045652e-38 290 251
-0.039812941 0.78299999 -0.01510146 1.6414435e-38 291 251
-0.038440078 0.78299999 -0.01510146 1.8075768e-38 292 251
-0.037067216 0.78299999 -0.01510146 1.8444909e-38 293 251
-0.035694357 0.78299999 -0.01510146 1.7524032e-38 294 251
-0.034321502 0.78299999 -0.01510146 1.6786467e-38 295 251
-0.032864477 0.78100002 -0.015062887 1.6322961e-38 296 251
-0.031495128 0.78100002 -0.015062887 1.5677591e-38 297 251
-0.030280067 0.78500003 -0.015140033 1.595057e-38 298 251
-0.02986102 0.81099999 -0.015641484 1.6042765e-38 299 251
-0.028439065 0.81099999 -0.015641484 1.5858014e-38 300 251
-0.026950486 0.80900002 -0.015602913 1.5673623e-38 301 251
-0.025532039 0.80900002 -0.015602913 1.5489589e-38 302 251
-0.024113594 0.80900002 -0.015602913 1.5489589e-38 303 251
-0.022695147 0.80900002 -0.015602913 1.5765453e-38 304 251
-0.021329299 0.81099999 -0.015641484 1.5673257e-38 305 251
-0.01995644 0.81300002 -0.01568006 1.5488513e-38 306 251
-0.01853098 0.81300002 -0.01568006 1.6226078e-38 307 251
-0.016621601 0.79000002 -0.015236467 1.6417321e-38 308 251
-0.015236467 0.79000002 -0.015236467 1.7247442e-38 309 251
-0.013851333 0.79000002 -0.015236467 1.6881549e-38 310 251
-0.012450419 0.78899997 -0.015217179 1.5683006e-38 311 251
-0.011067039 0.78899997 -0.015217179 1.5312779e-38 312 251
-0.0096836593 0.78899997 -0.015217179 1.5312779e-38 313 251
-0.0083002793 0.78899997 -0.015217179 1.5771589e-38 314 251
-0.0069168997 0.78899997 -0.015217179 1.5863785e-38 315 251
-0.0055335197 0.78899997 -0.015217179 1.4852877e-38 316 251
-0.0041501396 0.78899997 -0.015217179 1.4022756e-38 317 251
-0.0027667598 0.78899997 -0.015217179 1.3106916e-38 318 251
-0.0013833799 0.78899997 -0.015217179 1.3014721e-38 319 251
0 0.78899997 -0.015217179 1.2921803e-38 320 251
0.0013851334 0.79000002 -0.015236467 1.3013999e-38 321 251
0.0027702667 0.79000002 -0.015236467 1.494507e-38 322 251
0.0041554002 0.79000002 -0.015236467 1.5313851e-38 323 251
0.0055405335 0.79000002 -0.015236467 1.5587192e-38 324 251
0.0069256667 0.79000002 -0.015236467 1.3651084e-38 325 251
0.0083108004 0.79000002 -0.015236467 1.3738951e-38 326 251
0.0096959332 0.79000002 -0.015236467 1.1986874e-38 327 251
0.011081067 0.79000002 -0.015236467 1.1431169e-38 328 251
-0.061620899 0.78100002 -0.016432239 1.6599201e-38 275 252
-0.060251549 0.78100002 -0.016432239 1.6694281e-38 276 252
-0.058882192 0.78100002 -0.016432239 1.7616596e-38 277 252
-0.057439197 0.77999997 -0.016411198 1.770771e-38 278 252
-0.056071598 0.77999997 -0.016411198 1.7339287e-38 279 252
-0.054774135 0.78100002 -0.016432239 1.6599915e-38 280 252
-0.053404782 0.78100002 -0.016432239 1.6599915e-38 281 252
-0.052035429 0.78100002 -0.016432239 1.6230056e-38 282 252
-0.050666075 0.78100002 -0.016432239 1.632261e-38 283 252
-0.049296722 0.78100002 -0.016432239 1.6786477e-38 284 252
-0.048050098 0.78299999 -0.01647432 1.798502e-38 285 252
-0.046677239 0.78299999 -0.01647432 1.7709512e-38 286 252
-0.045420099 0.78500003 -0.016516401 1.669536e-38 287 252
-0.044043735 0.78500003 -0.016516401 1.6876862e-38 288 252
-0.042667367 0.78500003 -0.016516401 1.6323688e-38 289 252
-0.041291002 0.78500003 -0.016516401 1.5493923e-38 290 252
-0.039914634 0.78500003 -0.016516401 1.5678674e-38 291 252
-0.03853827 0.78500003 -0.016516401 1.7891738e-38 292 252
-0.037161902 0.78500003 -0.016516401 1.8444912e-38 293 252
-0.035785533 0.78500003 -0.016516401 1.7706988e-38 294 252
-0.034409165 0.78500003 -0.016516401 1.6969423e-38 295 252
-0.033032801 0.78500003 -0.016516401 1.6507353e-38 296 252
-0.031656433 0.78500003 -0.016516401 1.5677591e-38 297 252
-0.030280067 0.78500003 -0.016516401 1.5675778e-38 298 252
-0.02993466 0.81300002 -0.01710552 1.5767974e-38 299 252
-0.028439065 0.81099999 -0.017063441 1.585837e-38 300 252
-0.027017111 0.81099999 -0.017063441 1.5213001e-38 301 252
-0.025532039 0.80900002 -0.01702136 1.4844591e-38 302 252
-0.024113594 0.80900002 -0.01702136 1.4752395e-38 303 252
-0.022751253 0.81099999 -0.017063441 1.4752395e-38 304 252
-0.0213819 0.81300002 -0.01710552 1.4659841e-38 305 252
-0.01995644 0.81300002 -0.01710552 1.4478326e-38 306 252
-0.018622151 0.81699997 -0.01718968 1.5769065e-38 307 252
-0.01718968 0.81699997 -0.01718968 1.6693915e-38 308 252
-0.015236467 0.79000002 -0.016621601 1.7247089e-38 309 252
-0.013851333 0.79000002 -0.016621601 1.6603886e-38 310 252
-0.012450419 0.78899997 -0.016600559 1.5589735e-38 311 252
-0.011067039 0.78899997 -0.016600559 1.5403898e-38 312 252
-0.0096836593 0.78899997 -0.016600559 1.5403898e-38 313 252
-0.0083108004 0.79000002 -0.016621601 1.5496447e-38 314 252
-0.0069256667 0.79000002 -0.016621601 1.5496447e-38 315 252
-0.0055405335 0.79000002 -0.016621601 1.4668128e-38 316 252
-0.0041554002 0.79000002 -0.016621601 1.3838367e-38 317 252
-0.0027702667 0.79000002 -0.016621601 1.2738857e-38 318 252
-0.0013851334 0.79000002 -0.016621601 1.2831052e-38 319 252
0 0.79000002 -0.016621601 1.2645942e-38 320 252
0.0013851334 0.79000002 -0.016621601 1.310656e-38 321 252
0.0027702667 0.79000002 -0.016621601 1.5221302e-38 322 252
0.0041554002 0.79000002 -0.016621601 1.5129106e-38 323 252
0.0055545596 0.792 -0.01666368 1.5034021e-38 324 252
0.0069431998 0.792 -0.01666368 1.3282304e-38 325 252
0.0083318399 0.792 -0.01666368 1.3462357e-38 326 252
0.0097204801 0.792 -0.01666368 1.2079423e-38 327 252
0.011459786 0.81699997 -0.01718968 1.2535346e-38 328 252
0.012892259 0.81699997 -0.01718968 1.2443151e-38 329 252
-0.060251549 0.78100002 -0.017801592 1.5957795e-38 276 253
