# .PCD v.7 - Point Cloud Data file format
FIELDS x y z rgb imX imY
SIZE 4 4 4 4 4 4
TYPE F F F F F F
COUNT 1 1 1 1 1 1
WIDTH 855
HEIGHT 1
VIEWPOINT 0 0 0 1 0 0 0
POINTS 855
DATA ascii
0.0054914397 0.78299999 0.024711479 1.6223907e-38 324 222
0.0068642995 0.78299999 0.024711479 1.5855485e-38 325 222
0.0082161194 0.78100002 0.024648361 1.5578522e-38 326 222
0.0095854728 0.78100002 0.024648361 1.5394131e-38 327 222
0.010954826 0.78100002 0.024648361 1.5206476e-38 328 222
0.012355739 0.78299999 0.024711479 1.2901585e-38 329 222
0.013728599 0.78299999 0.024711479 9.4921071e-39 330 222
0.01510146 0.78299999 0.024711479 7.0028251e-39 331 222
0.01647432 0.78299999 0.024711479 4.7119782e-39 332 222
0.017847179 0.78299999 0.024711479 4.9882049e-39 333 222
0.019220039 0.78299999 0.024711479 4.5308674e-39 334 222
0.0206981 0.787 0.024837719 4.8074543e-39 335 222
0.022134079 0.78899997 0.024900839 5.6397527e-39 336 222
-0.018006733 0.79000002 0.023547266 1.6590525e-38 307 223
-0.016621601 0.79000002 0.023547266 1.4009748e-38 308 223
-0.015236467 0.79000002 0.023547266 1.1336074e-38 309 223
-0.013851333 0.79000002 0.023547266 7.5675596e-39 310 223
-0.012450419 0.78899997 0.023517458 6.7377989e-39 311 223
-0.011038986 0.787 0.023457846 5.7254617e-39 312 223
-0.0096345674 0.78500003 0.023398234 6.4633855e-39 313 223
-0.0082371598 0.78299999 0.02333862 6.7381773e-39 314 223
-0.0068642995 0.78299999 0.02333862 6.4612317e-39 315 223
-0.0054774131 0.78100002 0.023279008 6.5509092e-39 316 223
-0.0041080597 0.78100002 0.023279008 5.9977354e-39 317 223
-0.0027387065 0.78100002 0.023279008 4.9857345e-39 318 223
-0.0013693533 0.78100002 0.023279008 6.1839189e-39 319 223
0 0.78100002 0.023279008 1.3920446e-38 320 223
0.0013693533 0.78100002 0.023279008 1.4658011e-38 321 223
0.0027387065 0.78100002 0.023279008 1.447507e-38 322 223
0.0041080597 0.78100002 0.023279008 1.4935689e-38 323 223
0.0054774131 0.78100002 0.023279008 1.5854402e-38 324 223
0.0068467669 0.78100002 0.023279008 1.6039153e-38 325 223
0.0082161194 0.78100002 0.023279008 1.6039503e-38 326 223
0.0095854728 0.78100002 0.023279008 1.6223895e-38 327 223
0.010954826 0.78100002 0.023279008 1.659086e-38 328 223
0.01232418 0.78100002 0.023279008 1.5484512e-38 329 223
0.013693534 0.78100002 0.023279008 1.3820634e-38 330 223
0.015062887 0.78100002 0.023279008 1.0317199e-38 331 223
0.01647432 0.78299999 0.02333862 5.8136398e-39 332 223
0.017847179 0.78299999 0.02333862 5.4444972e-39 333 223
0.019220039 0.78299999 0.02333862 5.0807831e-39 334 223
0.0206981 0.787 0.023457846 4.8041948e-39 335 223
0.022077972 0.787 0.023457846 3.9773405e-39 336 223
0.023457846 0.787 0.023457846 5.1758837e-39 337 223
-0.019367319 0.78899997 0.022134079 1.7142256e-38 306 224
-0.017983939 0.78899997 0.022134079 1.4007606e-38 307 224
-0.016621601 0.79000002 0.022162134 8.945462e-39 308 224
-0.015236467 0.79000002 0.022162134 7.1933849e-39 309 224
-0.013851333 0.79000002 0.022162134 5.8187293e-39 310 224
-0.012450419 0.78899997 0.022134079 6.3719031e-39 311 224
-0.011038986 0.787 0.022077972 6.4626764e-39 312 224
-0.0096345674 0.78500003 0.022021867 6.2782852e-39 313 224
-0.0082371598 0.78299999 0.021965759 6.1835714e-39 314 224
-0.0068467669 0.78100002 0.021909652 5.7225932e-39 315 224
-0.0054774131 0.78100002 0.021909652 5.6296787e-39 316 224
-0.0041027996 0.77999997 0.021881599 4.9843093e-39 317 224
-0.0027351999 0.77999997 0.021881599 6.2739664e-39 318 224
-0.0013640933 0.778 0.021825492 9.6855634e-39 319 224
0 0.778 0.021825492 1.6131696e-38 320 224
0.0013640933 0.778 0.021825492 1.4840957e-38 321 224
0.0027351999 0.77999997 0.021881599 1.2998119e-38 322 224
0.0041027996 0.77999997 0.021881599 1.3090315e-38 323 224
0.0054703997 0.77999997 0.021881599 1.4104111e-38 324 224
0.0068379994 0.77999997 0.021881599 1.4473252e-38 325 224
0.0082055992 0.77999997 0.021881599 1.5116834e-38 326 224
0.0095731998 0.77999997 0.021881599 1.5946953e-38 327 224
0.010940799 0.77999997 0.021881599 1.6223895e-38 328 224
0.012308398 0.77999997 0.021881599 1.6592676e-38 329 224
0.013693534 0.78100002 0.021909652 1.5943691e-38 330 224
0.015062887 0.78100002 0.021909652 1.3270018e-38 331 224
0.016432239 0.78100002 0.021909652 7.099369e-39 332 224
0.017801592 0.78100002 0.021909652 5.5324034e-39 333 224
0.019220039 0.78299999 0.021965759 5.5399592e-39 334 224
0.020645501 0.78500003 0.022021867 5.4477636e-39 335 224
0.022077972 0.787 0.022077972 4.4357823e-39 336 224
0.023517458 0.78899997 0.022134079 3.3294347e-39 337 224
0.024900839 0.78899997 0.022134079 7.6416729e-40 338 224
-0.020777 0.79000002 0.020777 1.8164684e-38 305 225
-0.019367319 0.78899997 0.0207507 1.3634851e-38 306 225
-0.017983939 0.78899997 0.0207507 9.8548304e-39 307 225
-0.016600559 0.78899997 0.0207507 6.186423e-39 308 225
-0.015217179 0.78899997 0.0207507 6.2786187e-39 309 225
-0.013798732 0.787 0.0206981 6.3715402e-39 310 225
-0.01241886 0.787 0.0206981 6.3715402e-39 311 225
-0.011010934 0.78500003 0.020645501 6.0938771e-39 312 225
-0.0096100196 0.78299999 0.0205929 5.6329003e-39 313 225
-0.0082161194 0.78100002 0.020540299 5.8147693e-39 314 225
-0.0068467669 0.78100002 0.020540299 5.4459881e-39 315 225
-0.0054703997 0.77999997 0.020513998 4.9850128e-39 316 225
-0.0041027996 0.77999997 0.020513998 4.3396434e-39 317 225
-0.0027351999 0.77999997 0.020513998 7.1969974e-39 318 225
-0.0013640933 0.778 0.020461399 1.0700792e-38 319 225
0 0.778 0.020461399 1.6316812e-38 320 225
0.0013640933 0.778 0.020461399 1.5026073e-38 321 225
0.0027281865 0.778 0.020461399 1.4654401e-38 322 225
0.0040922803 0.778 0.020461399 1.4377454e-38 323 225
0.0054563731 0.778 0.020461399 1.2539662e-38 324 225
0.0068204664 0.778 0.020461399 1.1617347e-38 325 225
0.0082055992 0.77999997 0.020513998 1.2259851e-38 326 225
0.0095731998 0.77999997 0.020513998 1.2628635e-38 327 225
0.010940799 0.77999997 0.020513998 1.3453708e-38 328 225
0.012308398 0.77999997 0.020513998 1.4099078e-38 329 225
0.013675999 0.77999997 0.020513998 1.5212254e-38 330 225
0.0150436 0.77999997 0.020513998 1.4566884e-38 331 225
0.016411198 0.77999997 0.020513998 8.1106595e-39 332 225
0.017778799 0.77999997 0.020513998 5.3447906e-39 333 225
0.019170946 0.78100002 0.020540299 5.2651674e-39 334 225
0.0205929 0.78299999 0.0205929 5.0811363e-39 335 225
0.022021867 0.78500003 0.020645501 5.1711767e-39 336 225
0.023398234 0.78500003 0.020645501 5.0789811e-39 337 225
0.024837719 0.787 0.0206981 3.5167154e-39 338 225
0.026217593 0.787 0.0206981 3.3323242e-39 339 225
-0.022162134 0.79000002 0.019391866 1.5028573e-38 304 226
-0.0207507 0.78899997 0.019367319 1.3737834e-38 305 226
-0.019367319 0.78899997 0.019367319 9.1251561e-39 306 226
-0.017983939 0.78899997 0.019367319 7.4659935e-39 307 226
-0.016600559 0.78899997 0.019367319 6.5551999e-39 308 226
-0.015178605 0.787 0.019318225 6.5551999e-39 309 226
-0.013763667 0.78500003 0.019269135 5.6354171e-39 310 226
-0.0123873 0.78500003 0.019269135 5.3588302e-39 311 226
-0.010982879 0.78299999 0.019220039 5.6329031e-39 312 226
-0.0095854728 0.78100002 0.019170946 5.0797294e-39 313 226
-0.0082161194 0.78100002 0.019170946 5.0789965e-39 314 226
-0.0068379994 0.77999997 0.0191464 4.8027697e-39 315 226
-0.0054563731 0.778 0.019097306 4.5258241e-39 316 226
-0.0040922803 0.778 0.019097306 3.9730091e-39 317 226
-0.0027281865 0.778 0.019097306 5.3577708e-39 318 226
-0.0013640933 0.778 0.019097306 9.2299872e-39 319 226
0 0.77600002 0.019048214 1.5490308e-38 320 226
0.0013605866 0.77600002 0.019048214 1.5767255e-38 321 226
0.0027211732 0.77600002 0.019048214 1.6039866e-38 322 226
0.0040817601 0.77600002 0.019048214 1.5118269e-38 323 226
0.0054423464 0.77600002 0.019048214 1.2356716e-38 324 226
0.0068029333 0.77600002 0.019048214 1.1803542e-38 325 226
0.0081635201 0.77600002 0.019048214 1.1986857e-38 326 226
0.009524107 0.77600002 0.019048214 1.217125e-38 327 226
0.010912746 0.778 0.019097306 1.2627542e-38 328 226
0.012276839 0.778 0.019097306 1.2719738e-38 329 226
0.013640933 0.778 0.019097306 1.4565462e-38 330 226
0.015005025 0.778 0.019097306 1.5210831e-38 331 226
0.016369121 0.778 0.019097306 7.1919626e-39 332 226
0.017778799 0.77999997 0.0191464 4.7026806e-39 333 226
0.019170946 0.78100002 0.019170946 5.1711823e-39 334 226
0.020540299 0.78100002 0.019170946 5.0789867e-39 335 226
0.021965759 0.78299999 0.019220039 5.0786307e-39 336 226
0.02333862 0.78299999 0.019220039 5.263022e-39 337 226
0.0247746 0.78500003 0.019269135 4.9886001e-39 338 226
0.026217593 0.787 0.019318225 3.6978613e-39 339 226
-0.023517458 0.78899997 0.017983939 1.8524465e-38 303 227
-0.022162134 0.79000002 0.018006733 1.2351639e-38 304 227
-0.0207507 0.78899997 0.017983939 8.2024767e-39 305 227
-0.019367319 0.78899997 0.017983939 4.622665e-39 306 227
-0.017983939 0.78899997 0.017983939 5.1761989e-39 307 227
-0.01655848 0.787 0.017938353 5.6335996e-39 308 227
-0.015140033 0.78500003 0.017892767 5.3570127e-39 309 227
-0.013728599 0.78299999 0.017847179 5.539253e-39 310 227
-0.012355739 0.78299999 0.017847179 5.539253e-39 311 227
-0.010954826 0.78100002 0.017801592 5.1711963e-39 312 227
-0.0095854728 0.78100002 0.017801592 4.9868036e-39 313 227
-0.0082055992 0.77999997 0.017778799 4.8020438e-39 314 227
-0.0068379994 0.77999997 0.017778799 4.8020438e-39 315 227
-0.0054563731 0.778 0.017733213 4.618726e-39 316 227
-0.0040922803 0.778 0.017733213 4.1581066e-39 317 227
-0.0027281865 0.778 0.017733213 6.6441306e-40 318 227
-0.0013605866 0.77600002 0.017687626 3.9834557e-39 319 227
0 0.77600002 0.017687626 1.346632e-38 320 227
0.0013605866 0.77600002 0.017687626 1.4388636e-38 321 227
0.0027211732 0.77600002 0.017687626 1.5030392e-38 322 227
0.0040817601 0.77600002 0.017687626 1.4477219e-38 323 227
0.0054423464 0.77600002 0.017687626 1.4568688e-38 324 227
0.0068029333 0.77600002 0.017687626 1.5121503e-38 325 227
0.0081635201 0.77600002 0.017687626 1.5489566e-38 326 227
0.009524107 0.77600002 0.017687626 1.5489566e-38 327 227
0.010884693 0.77600002 0.017687626 1.5395932e-38 328 227
0.01224528 0.77600002 0.017687626 1.5488127e-38 329 227
0.013605867 0.77600002 0.017687626 1.5945878e-38 330 227
0.014966453 0.77600002 0.017687626 1.400977e-38 331 227
0.01632704 0.77600002 0.017687626 5.1679593e-39 332 227
0.017733213 0.778 0.017733213 3.7850249e-39 333 227
0.019097306 0.778 0.017733213 5.2622835e-39 334 227
0.020461399 0.778 0.017733213 5.1700879e-39 335 227
0.021825492 0.778 0.017733213 5.2619276e-39 336 227
0.023249198 0.77999997 0.017778799 5.3541232e-39 337 227
0.024616797 0.77999997 0.017778799 5.1715298e-39 338 227
0.026017714 0.78100002 0.017801592 5.2637254e-39 339 227
0.027387068 0.78100002 0.017801592 4.1609904e-39 340 227
-0.024900839 0.78899997 0.016600559 1.6040205e-38 302 228
-0.023457846 0.787 0.01655848 1.3827151e-38 303 228
-0.022077972 0.787 0.01655848 8.946513e-39 304 228
-0.0207507 0.78899997 0.016600559 6.3650353e-39 305 228
-0.019367319 0.78899997 0.016600559 5.8176209e-39 306 228
-0.017938353 0.787 0.01655848 5.8176209e-39 307 228
-0.01655848 0.787 0.01655848 5.6325262e-39 308 228
-0.01510146 0.78299999 0.01647432 5.3559407e-39 309 228
-0.013693534 0.78100002 0.016432239 5.2633779e-39 310 228
-0.01232418 0.78100002 0.016432239 5.0789867e-39 311 228
-0.010940799 0.77999997 0.016411198 4.80312e-39 312 228
-0.0095731998 0.77999997 0.016411198 4.6187288e-39 313 228
-0.0082055992 0.77999997 0.016411198 4.3432139e-39 314 228
-0.0068204664 0.778 0.016369121 4.1588226e-39 315 228
-0.0054563731 0.778 0.016369121 4.159173e-39 316 228
-0.0040922803 0.778 0.016369121 3.9747817e-39 317 228
-0.0027211732 0.77600002 0.01632704 1.5820309e-39 318 228
-0.0013605866 0.77600002 0.01632704 1.9511722e-39 319 228
0 0.77600002 0.01632704 6.9301244e-39 320 228
0.0013605866 0.77600002 0.01632704 1.04332e-38 321 228
0.0027211732 0.77600002 0.01632704 1.3741815e-38 322 228
0.0040817601 0.77600002 0.01632704 1.4479739e-38 323 228
0.0054283198 0.77399999 0.016284959 1.5490645e-38 324 228
0.0067853997 0.77399999 0.016284959 1.5490645e-38 325 228
0.0081635201 0.77600002 0.01632704 1.6132768e-38 326 228
0.009524107 0.77600002 0.01632704 1.585654e-38 327 228
0.010884693 0.77600002 0.01632704 1.5947303e-38 328 228
0.01224528 0.77600002 0.01632704 1.5947303e-38 329 228
0.013605867 0.77600002 0.01632704 1.4193426e-38 330 228
0.014966453 0.77600002 0.01632704 1.0597436e-38 331 228
0.01632704 0.77600002 0.01632704 3.9737097e-39 332 228
0.017687626 0.77600002 0.01632704 3.8815127e-39 333 228
0.019048214 0.77600002 0.01632704 5.0778866e-39 334 228
0.020461399 0.778 0.016369121 5.0778866e-39 335 228
0.021825492 0.778 0.016369121 4.8949401e-39 336 228
0.023249198 0.77999997 0.016411198 4.9871358e-39 337 228
0.024616797 0.77999997 0.016411198 4.9875015e-39 338 228
0.026017714 0.78100002 0.016432239 5.0800559e-39 339 228
0.027387068 0.78100002 0.016432239 4.5283282e-39 340 228
0.028830061 0.78299999 0.01647432 4.1595443e-39 341 228
-0.024900839 0.78899997 0.015217179 1.1715274e-38 302 229
-0.023457846 0.787 0.015178605 7.2898839e-39 303 229
-0.022077972 0.787 0.015178605 4.4361144e-39 304 229
-0.0207507 0.78899997 0.015217179 3.790745e-39 305 229
-0.019318225 0.787 0.015178605 4.8038389e-39 306 229
-0.017938353 0.787 0.015178605 5.0807859e-39 307 229
-0.01647432 0.78299999 0.01510146 5.3544946e-39 308 229
-0.015062887 0.78100002 0.015062887 5.2622989e-39 309 229
-0.013693534 0.78100002 0.015062887 4.9867728e-39 310 229
-0.012308398 0.77999997 0.0150436 4.8945772e-39 311 229
-0.010940799 0.77999997 0.0150436 4.8030976e-39 312 229
-0.0095486529 0.778 0.015005025 4.5265107e-39 313 229
-0.0081845606 0.778 0.015005025 4.4343151e-39 314 229
-0.0068204664 0.778 0.015005025 4.3421195e-39 315 229
-0.0054423464 0.77600002 0.014966453 4.0669647e-39 316 229
-0.0040817601 0.77600002 0.014966453 4.0669647e-39 317 229
-0.0027211732 0.77600002 0.014966453 3.3308388e-39 318 229
-0.0013605866 0.77600002 0.014966453 2.5932766e-39 319 229
0 0.77399999 0.014927879 6.6763324e-40 320 229
0.0013570799 0.77399999 0.014927879 3.8944803e-39 321 229
0.0027141599 0.77399999 0.014927879 1.0425296e-38 322 229
0.0040712398 0.77399999 0.014927879 1.2637991e-38 323 229
0.0054283198 0.77399999 0.014927879 1.4753446e-38 324 229
0.0067853997 0.77399999 0.014927879 1.5030392e-38 325 229
0.0081424797 0.77399999 0.014927879 1.6039849e-38 326 229
0.0094995592 0.77399999 0.014927879 1.5302284e-38 327 229
0.010884693 0.77600002 0.014966453 1.4564351e-38 328 229
0.01224528 0.77600002 0.014966453 1.2904828e-38 329 229
0.013605867 0.77600002 0.014966453 9.4903345e-39 330 229
0.014966453 0.77600002 0.014966453 5.9865418e-39 331 229
0.01632704 0.77600002 0.014966453 3.4223142e-39 332 229
0.017687626 0.77600002 0.014966453 4.4364675e-39 333 229
0.019048214 0.77600002 0.014966453 4.8945716e-39 334 229
0.0204088 0.77600002 0.014966453 4.8945716e-39 335 229
0.021825492 0.778 0.015005025 4.8030948e-39 336 229
0.023189586 0.778 0.015005025 4.8952905e-39 337 229
0.024616797 0.77999997 0.0150436 4.987842e-39 338 229
0.026017714 0.78100002 0.015062887 4.987842e-39 339 229
0.027387068 0.78100002 0.015062887 5.1718801e-39 340 229
0.028830061 0.78299999 0.01510146 4.7109006e-39 341 229
0.03020292 0.78299999 0.01510146 5.8201614e-39 342 229
0.031575777 0.78299999 0.01510146 1.006116e-38 343 229
-0.026217593 0.787 0.013798732 1.3920802e-38 301 230
-0.024837719 0.787 0.013798732 8.2179513e-39 302 230
-0.023457846 0.787 0.013798732 4.3457348e-39 303 230
-0.022077972 0.787 0.013798732 4.6201511e-39 304 230
-0.0207507 0.78899997 0.013833799 4.6201511e-39 305 230
-0.019318225 0.787 0.013798732 5.1715452e-39 306 230
-0.017847179 0.78299999 0.013728599 4.987154e-39 307 230
-0.016432239 0.78100002 0.013693534 4.9860666e-39 308 230
-0.015005025 0.778 0.013640933 4.8938709e-39 309 230
-0.013640933 0.778 0.013640933 4.9856868e-39 310 230
-0.012276839 0.778 0.013640933 4.9856868e-39 311 230
-0.010912746 0.778 0.013640933 4.8027277e-39 312 230
-0.009524107 0.77600002 0.013605867 4.7105321e-39 313 230
-0.0081635201 0.77600002 0.013605867 4.6183336e-39 314 230
-0.0068029333 0.77600002 0.013605867 4.3421069e-39 315 230
-0.0054423464 0.77600002 0.013605867 4.2506245e-39 316 230
-0.0040817601 0.77600002 0.013605867 4.3428201e-39 317 230
-0.0027141599 0.77399999 0.013570799 4.6190399e-39 318 230
-0.0013570799 0.77399999 0.013570799 4.3424558e-39 319 230
0 0.77399999 0.013570799 4.249921e-39 320 230
0.0013570799 0.77399999 0.013570799 4.7108978e-39 321 230
0.0027141599 0.77399999 0.013570799 6.7370759e-39 322 230
0.0040712398 0.77399999 0.013570799 7.3824453e-39 323 230
0.0054283198 0.77399999 0.013570799 8.6692212e-39 324 230
0.0067853997 0.77399999 0.013570799 9.1298406e-39 325 230
0.0081424797 0.77399999 0.013570799 9.8652253e-39 326 230
0.0094995592 0.77399999 0.013570799 9.0354646e-39 327 230
0.01085664 0.77399999 0.013570799 7.8397899e-39 328 230
0.01221372 0.77399999 0.013570799 7.1022234e-39 329 230
0.013570799 0.77399999 0.013570799 5.3519358e-39 330 230
0.014966453 0.77600002 0.013605867 4.7065692e-39 331 230
0.01632704 0.77600002 0.013605867 4.8941946e-39 332 230
0.017687626 0.77600002 0.013605867 4.9863903e-39 333 230
0.019048214 0.77600002 0.013605867 4.8027305e-39 334 230
0.0204088 0.77600002 0.013605867 4.8027305e-39 335 230
0.021769386 0.77600002 0.013605867 4.710895e-39 336 230
0.023189586 0.778 0.013640933 4.8034508e-39 337 230
0.024616797 0.77999997 0.013675999 4.8034508e-39 338 230
0.025984399 0.77999997 0.013675999 4.8034508e-39 339 230
0.027387068 0.78100002 0.013693534 4.8952905e-39 340 230
0.028830061 0.78299999 0.013728599 4.8030948e-39 341 230
0.03020292 0.78299999 0.013728599 4.6212483e-39 342 230
0.031575777 0.78299999 0.013728599 7.6633454e-39 343 230
0.032948639 0.78299999 0.013728599 1.3094281e-38 344 230
-0.027667599 0.78899997 0.012450419 1.5308049e-38 300 231
-0.026217593 0.787 0.01241886 1.0698268e-38 301 231
-0.024837719 0.787 0.01241886 6.7428212e-39 302 231
-0.023457846 0.787 0.01241886 3.9765922e-39 303 231
-0.022077972 0.787 0.01241886 4.9875015e-39 304 231
-0.0206981 0.787 0.01241886 5.2644485e-39 305 231
-0.019220039 0.78299999 0.012355739 5.0796999e-39 306 231
-0.017801592 0.78100002 0.01232418 4.9875043e-39 307 231
-0.016411198 0.77999997 0.012308398 5.1700851e-39 308 231
-0.015005025 0.778 0.012276839 5.0778894e-39 309 231
-0.013605867 0.77600002 0.01224528 5.0775167e-39 310 231
-0.01224528 0.77600002 0.01224528 5.0775167e-39 311 231
-0.010884693 0.77600002 0.01224528 4.9863903e-39 312 231
-0.009524107 0.77600002 0.01224528 4.7101635e-39 313 231
-0.0081635201 0.77600002 0.01224528 4.7105152e-39 314 231
-0.0068029333 0.77600002 0.01224528 4.618321e-39 315 231
-0.0054283198 0.77399999 0.01221372 4.710874e-39 316 231
-0.0040712398 0.77399999 0.01221372 4.9874567e-39 317 231
-0.0027141599 0.77399999 0.01221372 5.1718451e-39 318 231
-0.0013570799 0.77399999 0.01221372 5.5402647e-39 319 231
0 0.77399999 0.01221372 6.183846e-39 320 231
0.0013570799 0.77399999 0.01221372 6.0916504e-39 321 231
0.0027141599 0.77399999 0.01221372 5.7221602e-39 322 231
0.0040712398 0.77399999 0.01221372 4.7080083e-39 323 231
0.0054283198 0.77399999 0.01221372 4.245598e-39 324 231
0.0067853997 0.77399999 0.01221372 4.0612096e-39 325 231
0.0081424797 0.77399999 0.01221372 4.1530451e-39 326 231
0.0094995592 0.77399999 0.01221372 3.9682979e-39 327 231
0.01085664 0.77399999 0.01221372 3.3261669e-39 328 231
0.01221372 0.77399999 0.01221372 3.9715265e-39 329 231
0.013570799 0.77399999 0.01221372 4.7080083e-39 330 231
0.014927879 0.77399999 0.01221372 5.2611821e-39 331 231
0.01632704 0.77600002 0.01224528 4.8938443e-39 332 231
0.017687626 0.77600002 0.01224528 4.8938443e-39 333 231
0.019048214 0.77600002 0.01224528 4.7101761e-39 334 231
0.0204088 0.77600002 0.01224528 4.7101761e-39 335 231
0.021769386 0.77600002 0.01224528 4.4346682e-39 336 231
0.023189586 0.778 0.012276839 4.710895e-39 337 231
0.024616797 0.77999997 0.012308398 4.7112509e-39 338 231
0.025984399 0.77999997 0.012308398 4.5272198e-39 339 231
0.027387068 0.78100002 0.01232418 4.8030948e-39 340 231
0.028830061 0.78299999 0.012355739 4.8952905e-39 341 231
0.03020292 0.78299999 0.012355739 4.5265261e-39 342 231
0.031575777 0.78299999 0.012355739 6.094212e-39 343 231
0.032948639 0.78299999 0.012355739 1.060787e-38 344 231
-0.027667599 0.78899997 0.011067039 1.3007102e-38 300 232
-0.026284218 0.78899997 0.011067039 7.475364e-39 301 232
-0.024900839 0.78899997 0.011067039 4.9017799e-39 302 232
-0.023457846 0.787 0.011038986 3.7954323e-39 303 232
-0.022077972 0.787 0.011038986 5.5388872e-39 304 232
-0.0205929 0.78299999 0.010982879 5.4466902e-39 305 232
-0.019170946 0.78100002 0.010954826 4.9885861e-39 306 232
-0.017778799 0.77999997 0.010940799 4.8041948e-39 307 232
-0.016369121 0.778 0.010912746 5.1708039e-39 308 232
-0.015005025 0.778 0.010912746 4.8945772e-39 309 232
-0.013605867 0.77600002 0.010884693 5.1707885e-39 310 232
-0.01224528 0.77600002 0.010884693 5.0785915e-39 311 232
-0.010884693 0.77600002 0.010884693 5.0785859e-39 312 232
-0.009524107 0.77600002 0.010884693 4.9863903e-39 313 232
-0.0081635201 0.77600002 0.010884693 5.079295e-39 314 232
-0.0067853997 0.77399999 0.01085664 4.9867406e-39 315 232
-0.0054283198 0.77399999 0.01085664 4.9885328e-39 316 232
-0.0040712398 0.77399999 0.01085664 5.1725626e-39 317 232
-0.0027141599 0.77399999 0.01085664 5.5402675e-39 318 232
-0.0013570799 0.77399999 0.01085664 5.8172145e-39 319 232
0 0.77399999 0.01085664 6.0927252e-39 320 232
0.0013570799 0.77399999 0.01085664 6.2771165e-39 321 232
0.0027141599 0.77399999 0.01085664 6.3678772e-39 322 232
0.0040712398 0.77399999 0.01085664 6.0916504e-39 323 232
0.0054283198 0.77399999 0.01085664 6.089498e-39 324 232
0.0067853997 0.77399999 0.01085664 5.7210756e-39 325 232
0.0081424797 0.77399999 0.01085664 5.7207225e-39 326 232
0.0094995592 0.77399999 0.01085664 5.6285255e-39 327 232
0.01085664 0.77399999 0.01085664 5.1700655e-39 328 232
0.01221372 0.77399999 0.01085664 5.354098e-39 329 232
0.013570799 0.77399999 0.01085664 4.9863931e-39 330 232
0.014927879 0.77399999 0.01085664 4.9863931e-39 331 232
0.016284959 0.77399999 0.01085664 4.7108852e-39 332 232
0.01764204 0.77399999 0.01085664 4.7108852e-39 333 232
0.019048214 0.77600002 0.010884693 4.7108852e-39 334 232
0.0204088 0.77600002 0.010884693 4.6183308e-39 335 232
0.021769386 0.77600002 0.010884693 4.6183336e-39 336 232
0.023189586 0.778 0.010912746 4.7105292e-39 337 232
0.024553679 0.778 0.010912746 4.527217e-39 338 232
0.025984399 0.77999997 0.010940799 4.7112481e-39 339 232
0.027351998 0.77999997 0.010940799 4.8030808e-39 340 232
0.028830061 0.78299999 0.010982879 4.9874735e-39 341 232
0.03020292 0.78299999 0.010982879 5.7232561e-39 342 232
0.031575777 0.78299999 0.010982879 6.3686255e-39 343 232
0.032948639 0.78299999 0.010982879 7.4768087e-39 344 232
0.034321502 0.78299999 0.010982879 1.1164634e-38 345 232
-0.027667599 0.78899997 0.0096836593 1.0428514e-38 300 233
-0.026284218 0.78899997 0.0096836593 5.0811671e-39 301 233
-0.024837719 0.787 0.0096591124 4.8038417e-39 302 233
-0.023457846 0.787 0.0096591124 4.8960373e-39 303 233
-0.022077972 0.787 0.0096591124 5.2637423e-39 304 233
-0.0205929 0.78299999 0.0096100196 5.2637423e-39 305 233
-0.019170946 0.78100002 0.0095854728 5.2637283e-39 306 233
-0.017778799 0.77999997 0.0095731998 5.2637283e-39 307 233
-0.016369121 0.778 0.0095486529 5.4459433e-39 308 233
-0.014966453 0.77600002 0.009524107 5.3537477e-39 309 233
-0.013605867 0.77600002 0.009524107 5.3544539e-39 310 233
-0.01224528 0.77600002 0.009524107 5.3544539e-39 311 233
-0.010884693 0.77600002 0.009524107 5.1707717e-39 312 233
-0.009524107 0.77600002 0.009524107 5.3548042e-39 313 233
-0.0081424797 0.77399999 0.0094995592 4.9885328e-39 314 233
-0.0067853997 0.77399999 0.0094995592 5.2651155e-39 315 233
-0.0054283198 0.77399999 0.0094995592 5.5409808e-39 316 233
-0.0040712398 0.77399999 0.0094995592 5.7253692e-39 317 233
-0.0027141599 0.77399999 0.0094995592 5.9998065e-39 318 233
-0.0013570799 0.77399999 0.0094995592 6.0920035e-39 319 233
0 0.77399999 0.0094995592 6.2767605e-39 320 233
0.0013570799 0.77399999 0.0094995592 6.1845649e-39 321 233
0.0027106532 0.773 0.0094872871 6.0012555e-39 322 233
0.0040659797 0.773 0.0094872871 6.0012555e-39 323 233
0.0054283198 0.77399999 0.0094995592 6.0913001e-39 324 233
0.0067853997 0.77399999 0.0094995592 5.9991031e-39 325 233
0.0081424797 0.77399999 0.0094995592 5.9991031e-39 326 233
0.0094995592 0.77399999 0.0094995592 5.8147118e-39 327 233
0.01085664 0.77399999 0.0094995592 5.9065389e-39 328 233
0.01221372 0.77399999 0.0094995592 5.8143433e-39 329 233
0.013570799 0.77399999 0.0094995592 5.354084e-39 330 233
0.014927879 0.77399999 0.0094995592 5.2618883e-39 331 233
0.016284959 0.77399999 0.0094995592 4.7101635e-39 332 233
0.01764204 0.77399999 0.0094995592 4.7101635e-39 333 233
0.018999118 0.77399999 0.0094995592 4.7098104e-39 334 233
0.0204088 0.77600002 0.009524107 4.7098104e-39 335 233
0.021769386 0.77600002 0.009524107 4.6183336e-39 336 233
0.023189586 0.778 0.0095486529 4.7105292e-39 337 233
0.024553679 0.778 0.0095486529 4.4350214e-39 338 233
0.025984399 0.77999997 0.0095731998 4.527217e-39 339 233
0.027351998 0.77999997 0.0095731998 4.4353871e-39 340 233
0.028756421 0.78100002 0.0095854728 4.7123341e-39 341 233
0.030125774 0.78100002 0.0095854728 5.3566441e-39 342 233
0.031495128 0.78100002 0.0095854728 5.9098179e-39 343 233
0.032864477 0.78100002 0.0095854728 6.2778956e-39 344 233
0.034233831 0.78100002 0.0095854728 8.4905921e-39 345 233
0.035603184 0.78100002 0.0095854728 1.4843827e-38 346 233
-0.02905098 0.78899997 0.0083002793 1.0697192e-38 299 234
-0.027667599 0.78899997 0.0083002793 6.0110169e-39 300 234
-0.026217593 0.787 0.0082792398 2.5997786e-39 301 234
-0.024837719 0.787 0.0082792398 4.6183729e-39 302 234
-0.023398234 0.78500003 0.0082582003 4.987154e-39 303 234
-0.021965759 0.78299999 0.0082371598 5.170832e-39 304 234
-0.020540299 0.78100002 0.0082161194 5.4470601e-39 305 234
-0.019097306 0.778 0.0081845606 5.2640954e-39 306 234
-0.017733213 0.778 0.0081845606 5.0797027e-39 307 234
-0.01632704 0.77600002 0.0081635201 5.3548295e-39 308 234
-0.014966453 0.77600002 0.0081635201 5.1704382e-39 309 234
-0.013605867 0.77600002 0.0081635201 5.2633345e-39 310 234
-0.01221372 0.77399999 0.0081424797 5.2633345e-39 311 234
-0.01085664 0.77399999 0.0081424797 5.172564e-39 312 234
-0.0094995592 0.77399999 0.0081424797 5.172564e-39 313 234
-0.0081424797 0.77399999 0.0081424797 5.3565923e-39 314 234
-0.0067853997 0.77399999 0.0081424797 5.540622e-39 315 234
-0.0054283198 0.77399999 0.0081424797 5.6328163e-39 316 234
-0.0040659797 0.773 0.0081319595 5.7250119e-39 317 234
-0.0027106532 0.773 0.0081319595 6.0920063e-39 318 234
-0.0013553266 0.773 0.0081319595 6.184202e-39 319 234
0 0.773 0.0081319595 6.367517e-39 320 234
0.0013553266 0.773 0.0081319595 6.4597127e-39 321 234
0.0027106532 0.773 0.0081319595 6.0923721e-39 322 234
0.0040659797 0.773 0.0081319595 6.0001765e-39 323 234
0.0054213065 0.773 0.0081319595 5.9994562e-39 324 234
0.0067766332 0.773 0.0081319595 5.9994562e-39 325 234
0.0081424797 0.77399999 0.0081424797 5.9994534e-39 326 234
0.0094995592 0.77399999 0.0081424797 5.9072578e-39 327 234
0.01085664 0.77399999 0.0081424797 5.6313911e-39 328 234
0.01221372 0.77399999 0.0081424797 5.5391955e-39 329 234
0.013570799 0.77399999 0.0081424797 5.3544511e-39 330 234
0.014927879 0.77399999 0.0081424797 5.078223e-39 331 234
0.016284959 0.77399999 0.0081424797 4.8941974e-39 332 234
0.01764204 0.77399999 0.0081424797 4.7101663e-39 333 234
0.018999118 0.77399999 0.0081424797 4.7098104e-39 334 234
0.020356199 0.77399999 0.0081424797 4.7098104e-39 335 234
0.021769386 0.77600002 0.0081635201 4.6183364e-39 336 234
0.023189586 0.778 0.0081845606 4.6183364e-39 337 234
0.024553679 0.778 0.0081845606 4.6183336e-39 338 234
0.025984399 0.77999997 0.0082055992 4.7105292e-39 339 234
0.027387068 0.78100002 0.0082161194 4.7101663e-39 340 234
0.028756421 0.78100002 0.0082161194 4.8941974e-39 341 234
0.030125774 0.78100002 0.0082161194 5.9058382e-39 342 234
0.031495128 0.78100002 0.0082161194 6.8274344e-39 343 234
0.032864477 0.78100002 0.0082161194 6.2771613e-39 344 234
0.034233831 0.78100002 0.0082161194 7.2909531e-39 345 234
0.035603184 0.78100002 0.0082161194 1.3922947e-38 346 234
-0.02905098 0.78899997 0.0069168997 7.382818e-39 299 235
-0.027597465 0.787 0.0068993662 5.2658961e-39 300 235
-0.026217593 0.787 0.0068993662 4.4361354e-39 301 235
-0.0247746 0.78500003 0.0068818335 5.1697502e-39 302 235
-0.02333862 0.78299999 0.0068642995 5.1697502e-39 303 235
-0.021909652 0.78100002 0.0068467669 4.9868036e-39 304 235
-0.020540299 0.78100002 0.0068467669 4.9868036e-39 305 235
-0.019097306 0.778 0.0068204664 5.0789867e-39 306 235
-0.017733213 0.778 0.0068204664 5.0789867e-39 307 235
-0.01632704 0.77600002 0.0068029333 5.3548267e-39 308 235
-0.014966453 0.77600002 0.0068029333 5.3548267e-39 309 235
-0.013605867 0.77600002 0.0068029333 5.2644065e-39 310 235
-0.01221372 0.77399999 0.0067853997 5.2644065e-39 311 235
-0.01085664 0.77399999 0.0067853997 5.3562336e-39 312 235
-0.0094995592 0.77399999 0.0067853997 5.3562336e-39 313 235
-0.0081319595 0.773 0.0067766332 5.3565923e-39 314 235
-0.0067766332 0.773 0.0067766332 5.540622e-39 315 235
-0.0054213065 0.773 0.0067766332 5.5402647e-39 316 235
-0.0040659797 0.773 0.0067766332 5.7250147e-39 317 235
-0.0027106532 0.773 0.0067766332 5.8161411e-39 318 235
-0.0013553266 0.773 0.0067766332 6.0001737e-39 319 235
0 0.77100003 0.0067590997 6.1845649e-39 320 235
0.00135182 0.77100003 0.0067590997 6.1845649e-39 321 235
0.0027106532 0.773 0.0067766332 6.0920063e-39 322 235
0.0040659797 0.773 0.0067766332 6.0920063e-39 323 235
0.0054213065 0.773 0.0067766332 6.1831188e-39 324 235
0.0067766332 0.773 0.0067766332 6.2753158e-39 325 235
0.0081319595 0.773 0.0067766332 6.2745955e-39 326 235
0.0094872871 0.773 0.0067766332 6.1823999e-39 327 235
0.010842613 0.773 0.0067766332 5.9987317e-39 328 235
0.012197939 0.773 0.0067766332 5.8143405e-39 329 235
0.013570799 0.77399999 0.0067853997 5.3540868e-39 330 235
0.014927879 0.77399999 0.0067853997 5.2615324e-39 331 235
0.016284959 0.77399999 0.0067853997 4.9856742e-39 332 235
0.01764204 0.77399999 0.0067853997 4.8934786e-39 333 235
0.018999118 0.77399999 0.0067853997 4.6183336e-39 334 235
0.020356199 0.77399999 0.0067853997 4.6183336e-39 335 235
0.021769386 0.77600002 0.0068029333 4.526138e-39 336 235
0.023129974 0.77600002 0.0068029333 4.6183336e-39 337 235
0.024553679 0.778 0.0068204664 4.6183336e-39 338 235
0.025984399 0.77999997 0.0068379994 4.6183336e-39 339 235
0.027387068 0.78100002 0.0068467669 4.4346654e-39 340 235
0.028756421 0.78100002 0.0068467669 4.7112509e-39 341 235
0.030125774 0.78100002 0.0068467669 5.2629968e-39 342 235
0.031495128 0.78100002 0.0068467669 6.0009205e-39 343 235
0.032864477 0.78100002 0.0068467669 6.5512203e-39 344 235
0.034233831 0.78100002 0.0068467669 7.104394e-39 345 235
0.035603184 0.78100002 0.0068467669 1.4105168e-38 346 235
-0.02905098 0.78899997 0.0055335197 5.6292836e-39 299 236
-0.027597465 0.787 0.005519493 3.7918352e-39 300 236
-0.026150968 0.78500003 0.0055054668 4.4372046e-39 301 236
-0.0247746 0.78500003 0.0055054668 5.2612241e-39 302 236
-0.02333862 0.78299999 0.0054914397 5.1690285e-39 303 236
-0.021909652 0.78100002 0.0054774131 4.8016879e-39 304 236
-0.020513998 0.77999997 0.0054703997 4.8016879e-39 305 236
-0.019097306 0.778 0.0054563731 4.9860694e-39 306 236
-0.017733213 0.778 0.0054563731 5.1701005e-39 307 236
-0.01632704 0.77600002 0.0054423464 5.262631e-39 308 236
-0.014966453 0.77600002 0.0054423464 5.262631e-39 309 236
-0.013605867 0.77600002 0.0054423464 5.3566049e-39 310 236
-0.01221372 0.77399999 0.0054283198 5.4488005e-39 311 236
-0.01085664 0.77399999 0.0054283198 5.4491509e-39 312 236
-0.0094995592 0.77399999 0.0054283198 5.4491509e-39 313 236
-0.0081319595 0.773 0.0054213065 5.449504e-39 314 236
-0.0067766332 0.773 0.0054213065 5.449504e-39 315 236
-0.0054213065 0.773 0.0054213065 5.449504e-39 316 236
-0.0040659797 0.773 0.0054213065 5.5416982e-39 317 236
-0.0027106532 0.773 0.0054213065 5.7246588e-39 318 236
-0.0013553266 0.773 0.0054213065 5.9094101e-39 319 236
0 0.77100003 0.0054072798 6.1841992e-39 320 236
0.00135182 0.77100003 0.0054072798 6.1841992e-39 321 236
0.0027036399 0.77100003 0.0054072798 6.2753186e-39 322 236
0.0040554604 0.77100003 0.0054072798 6.2753186e-39 323 236
0.0054072798 0.77100003 0.0054072798 6.2749515e-39 324 236
0.0067766332 0.773 0.0054213065 6.3671471e-39 325 236
0.0081319595 0.773 0.0054213065 6.2749515e-39 326 236
0.0094872871 0.773 0.0054213065 6.2749515e-39 327 236
0.010842613 0.773 0.0054213065 5.9987345e-39 328 236
0.012197939 0.773 0.0054213065 5.8143433e-39 329 236
0.013570799 0.77399999 0.0054283198 5.3544539e-39 330 236
0.014927879 0.77399999 0.0054283198 5.077867e-39 331 236
0.016284959 0.77399999 0.0054283198 4.7105292e-39 332 236
0.01764204 0.77399999 0.0054283198 4.6183336e-39 333 236
0.018999118 0.77399999 0.0054283198 4.6183364e-39 334 236
0.020356199 0.77399999 0.0054283198 4.5257821e-39 335 236
0.021769386 0.77600002 0.0054423464 4.6176148e-39 336 236
0.023129974 0.77600002 0.0054423464 4.6176148e-39 337 236
0.024553679 0.778 0.0054563731 4.4350186e-39 338 236
0.025984399 0.77999997 0.0054703997 4.3428229e-39 339 236
0.027387068 0.78100002 0.0054774131 4.6183336e-39 340 236
0.028756421 0.78100002 0.0054774131 4.7105292e-39 341 236
0.030125774 0.78100002 0.0054774131 4.9867672e-39 342 236
0.031495128 0.78100002 0.0054774131 5.6321366e-39 343 236
0.032864477 0.78100002 0.0054774131 6.5501258e-39 344 236
0.034233831 0.78100002 0.0054774131 7.0114641e-39 345 236
0.035603184 0.78100002 0.0054774131 1.438066e-38 346 236
-0.02897734 0.787 0.0041396199 5.5352901e-39 299 237
-0.027597465 0.787 0.0041396199 3.4237757e-39 300 237
-0.026150968 0.78500003 0.0041291001 4.345732e-39 301 237
-0.024648361 0.78100002 0.0041080597 4.9857162e-39 302 237
-0.023279008 0.78100002 0.0041080597 4.8013236e-39 303 237
-0.021881599 0.77999997 0.0041027996 4.5265318e-39 304 237
-0.020513998 0.77999997 0.0041027996 4.6187288e-39 305 237
-0.019097306 0.778 0.0040922803 4.4357668e-39 306 237
-0.017687626 0.77600002 0.0040817601 4.7119936e-39 307 237
-0.01632704 0.77600002 0.0040817601 5.0807537e-39 308 237
-0.014966453 0.77600002 0.0040817601 5.1733081e-39 309 237
-0.013605867 0.77600002 0.0040817601 5.1740087e-39 310 237
-0.01221372 0.77399999 0.0040712398 5.2662043e-39 311 237
-0.01085664 0.77399999 0.0040712398 5.2665547e-39 312 237
-0.0094995592 0.77399999 0.0040712398 5.3587503e-39 313 237
-0.0081319595 0.773 0.0040659797 5.2669092e-39 314 237
-0.0067766332 0.773 0.0040659797 5.2669092e-39 315 237
-0.0054213065 0.773 0.0040659797 5.2669092e-39 316 237
-0.0040659797 0.773 0.0040659797 5.2669092e-39 317 237
-0.0027106532 0.773 0.0040659797 5.5417024e-39 318 237
-0.0013553266 0.773 0.0040659797 5.8179306e-39 319 237
0 0.77100003 0.0040554604 6.1845551e-39 320 237
0.00135182 0.77100003 0.0040554604 6.3685862e-39 321 237
0.0027036399 0.77100003 0.0040554604 6.3675114e-39 322 237
0.0040554604 0.77100003 0.0040554604 6.2753158e-39 323 237
0.0054072798 0.77100003 0.0040554604 6.2756703e-39 324 237
0.0067766332 0.773 0.0040659797 6.3678674e-39 325 237
0.0081319595 0.773 0.0040659797 6.3678646e-39 326 237
0.0094872871 0.773 0.0040659797 6.2756675e-39 327 237
0.010842613 0.773 0.0040659797 5.9994534e-39 328 237
0.012197939 0.773 0.0040659797 5.8150621e-39 329 237
0.013570799 0.77399999 0.0040712398 5.1711389e-39 330 237
0.014927879 0.77399999 0.0040712398 4.9867462e-39 331 237
0.016284959 0.77399999 0.0040712398 4.7101635e-39 332 237
0.01764204 0.77399999 0.0040712398 4.7101635e-39 333 237
0.018999118 0.77399999 0.0040712398 4.6176148e-39 334 237
0.020356199 0.77399999 0.0040712398 4.6176148e-39 335 237
0.021769386 0.77600002 0.0040817601 4.5257821e-39 336 237
0.023129974 0.77600002 0.0040817601 4.3417509e-39 337 237
0.024553679 0.778 0.0040922803 4.6176119e-39 338 237
0.025984399 0.77999997 0.0041027996 4.5254163e-39 339 237
0.027351998 0.77999997 0.0041027996 4.6183336e-39 340 237
0.028756421 0.78100002 0.0041080597 4.6183336e-39 341 237
0.030125774 0.78100002 0.0041080597 4.8027277e-39 342 237
0.031495128 0.78100002 0.0041080597 4.9871203e-39 343 237
0.032864477 0.78100002 0.0041080597 7.3777215e-39 344 237
0.034233831 0.78100002 0.0041080597 9.1290797e-39 345 237
0.035603184 0.78100002 0.0041080597 1.5577764e-38 346 237
-0.02897734 0.787 0.0027597465 5.9029992e-39 299 238
-0.027527334 0.78500003 0.0027527334 4.0659053e-39 300 238
-0.026084339 0.78299999 0.0027457199 4.8034704e-39 301 238
-0.024648361 0.78100002 0.0027387065 5.1693816e-39 302 238
-0.023279008 0.78100002 0.0027387065 5.077186e-39 303 238
-0.021881599 0.77999997 0.0027351999 4.6190791e-39 304 238
-0.020461399 0.778 0.0027281865 4.6190791e-39 305 238
-0.019097306 0.778 0.0027281865 4.8048955e-39 306 238
-0.017687626 0.77600002 0.0027211732 4.8970911e-39 307 238
-0.01632704 0.77600002 0.0027211732 5.3584196e-39 308 238
-0.014927879 0.77399999 0.0027141599 5.4506152e-39 309 238
-0.013570799 0.77399999 0.0027141599 5.3587573e-39 310 238
-0.01221372 0.77399999 0.0027141599 5.3587573e-39 311 238
-0.010842613 0.773 0.0027106532 6.0026694e-39 312 238
-0.0094872871 0.773 0.0027106532 6.0026694e-39 313 238
-0.0081319595 0.773 0.0027106532 5.8186396e-39 314 238
-0.0067766332 0.773 0.0027106532 5.8186396e-39 315 238
-0.0054213065 0.773 0.0027106532 5.5431332e-39 316 238
-0.0040659797 0.773 0.0027106532 5.5431332e-39 317 238
-0.0027106532 0.773 0.0027106532 5.6349686e-39 318 238
-0.0013553266 0.773 0.0027106532 5.7271629e-39 319 238
0 0.77100003 0.0027036399 6.1852684e-39 320 238
0.00135182 0.77100003 0.0027036399 6.1852684e-39 321 238
0.0027036399 0.77100003 0.0027036399 6.1845551e-39 322 238
0.0040554604 0.77100003 0.0027036399 6.3685862e-39 323 238
0.0054213065 0.773 0.0027106532 6.4604161e-39 324 238
0.0067590997 0.77100003 0.0027036399 6.5526117e-39 325 238
0.0081109209 0.77100003 0.0027036399 6.7352051e-39 326 238
0.0094627403 0.77100003 0.0027036399 6.6430095e-39 327 238
0.010842613 0.773 0.0027106532 6.2745983e-39 328 238
0.012197939 0.773 0.0027106532 5.9976527e-39 329 238
0.013553266 0.773 0.0027106532 5.1704158e-39 330 238
0.014908593 0.773 0.0027106532 4.9860245e-39 331 238
0.016263919 0.773 0.0027106532 4.6186867e-39 332 238
0.01764204 0.77399999 0.0027141599 4.6186867e-39 333 238
0.018999118 0.77399999 0.0027141599 4.6176119e-39 334 238
0.020356199 0.77399999 0.0027141599 4.6176119e-39 335 238
0.021769386 0.77600002 0.0027211732 4.6176119e-39 336 238
0.023129974 0.77600002 0.0027211732 4.6176119e-39 337 238
0.024553679 0.778 0.0027281865 4.5254163e-39 338 238
0.025984399 0.77999997 0.0027351999 4.5254163e-39 339 238
0.027351998 0.77999997 0.0027351999 4.6176176e-39 340 238
0.028756421 0.78100002 0.0027387065 4.6176176e-39 341 238
0.030125774 0.78100002 0.0027387065 4.6176119e-39 342 238
0.031495128 0.78100002 0.0027387065 4.4332193e-39 343 238
0.032864477 0.78100002 0.0027387065 7.745795e-39 344 238
0.034233831 0.78100002 0.0027387065 1.1064838e-38 345 238
-0.02897734 0.787 0.0013798733 7.0054007e-39 299 239
-0.027527334 0.78500003 0.0013763667 4.7084063e-39 300 239
-0.026017714 0.78100002 0.0013693533 5.6300024e-39 301 239
-0.024616797 0.77999997 0.0013675999 4.9857134e-39 302 239
-0.023249198 0.77999997 0.0013675999 4.8935178e-39 303 239
-0.021825492 0.778 0.0013640933 4.619798e-39 304 239
-0.020461399 0.778 0.0013640933 4.7119936e-39 305 239
-0.019048214 0.77600002 0.0013605866 4.7137915e-39 306 239
-0.017687626 0.77600002 0.0013605866 5.5439123e-39 307 239
-0.01632704 0.77600002 0.0013605866 6.0967301e-39 308 239
-0.014927879 0.77399999 0.0013570799 6.5577069e-39 309 239
-0.013570799 0.77399999 0.0013570799 7.0168675e-39 310 239
-0.01221372 0.77399999 0.0013570799 6.6480864e-39 311 239
-0.010842613 0.773 0.0013553266 6.2810821e-39 312 239
-0.0094872871 0.773 0.0013553266 6.2810821e-39 313 239
-0.0081319595 0.773 0.0013553266 5.6367819e-39 314 239
-0.0067766332 0.773 0.0013553266 5.5445863e-39 315 239
-0.0054213065 0.773 0.0013553266 5.4527382e-39 316 239
-0.0040659797 0.773 0.0013553266 5.1765114e-39 317 239
-0.0027106532 0.773 0.0013553266 5.3601796e-39 318 239
-0.0013553266 0.773 0.0013553266 5.4523739e-39 319 239
0 0.77100003 0.00135182 6.0026722e-39 320 239
0.00135182 0.77100003 0.00135182 6.0026722e-39 321 239
0.0027036399 0.77100003 0.00135182 6.2774668e-39 322 239
0.0040554604 0.77100003 0.00135182 6.2774668e-39 323 239
0.0054072798 0.77100003 0.00135182 6.3700184e-39 324 239
0.0067590997 0.77100003 0.00135182 6.3700184e-39 325 239
0.0081109209 0.77100003 0.00135182 6.7359212e-39 326 239
0.0094627403 0.77100003 0.00135182 6.6437256e-39 327 239
0.01081456 0.77100003 0.00135182 6.1831188e-39 328 239
0.012197939 0.773 0.0013553266 5.906892e-39 329 239
0.013553266 0.773 0.0013553266 5.1711389e-39 330 239
0.014908593 0.773 0.0013553266 4.9867462e-39 331 239
0.016263919 0.773 0.0013553266 4.4360905e-39 332 239
0.01764204 0.77399999 0.0013570799 4.3438949e-39 333 239
0.018999118 0.77399999 0.0013570799 4.6186867e-39 334 239
0.020356199 0.77399999 0.0013570799 4.5264911e-39 335 239
0.021713279 0.77399999 0.0013570799 4.7087286e-39 336 239
0.023129974 0.77600002 0.0013605866 4.7087286e-39 337 239
0.024490559 0.77600002 0.0013605866 4.5257722e-39 338 239
0.025917772 0.778 0.0013640933 4.5257722e-39 339 239
0.027351998 0.77999997 0.0013675999 4.7087286e-39 340 239
0.028756421 0.78100002 0.0013693533 4.7087286e-39 341 239
0.030125774 0.78100002 0.0013693533 4.8012829e-39 342 239
0.031495128 0.78100002 0.0013693533 4.2481092e-39 343 239
0.032864477 0.78100002 0.0013693533 7.6554e-39 344 239
0.034233831 0.78100002 0.0013693533 1.1158835e-38 345 239
-0.027387068 0.78100002 -0 6.0877408e-39 300 240
-0.026017714 0.78100002 -0 6.2724922e-39 301 240
-0.024616797 0.77999997 -0 5.8132993e-39 302 240
-0.023249198 0.77999997 -0 5.7211037e-39 303 240
-0.021825492 0.778 -0 4.8970939e-39 304 240
-0.020461399 0.778 -0 5.0814866e-39 305 240
-0.019048214 0.77600002 -0 5.7275875e-39 306 240
-0.017687626 0.77600002 -0 6.1889258e-39 307 240
-0.01632704 0.77600002 -0 6.4669728e-39 308 240
-0.014927879 0.77399999 -0 7.1123422e-39 309 240
-0.013570799 0.77399999 -0 7.7569759e-39 310 240
-0.01221372 0.77399999 -0 7.5722259e-39 311 240
-0.01085664 0.77399999 -0 7.1137169e-39 312 240
-0.0094995592 0.77399999 -0 6.6523786e-39 313 240
-0.0081319595 0.773 -0 6.9260606e-39 314 240
-0.0067766332 0.773 -0 6.5572781e-39 315 240
-0.0054213065 0.773 -0 6.0977335e-39 316 240
-0.0040659797 0.773 -0 5.9129863e-39 317 240
-0.0027106532 0.773 -0 5.7285978e-39 318 240
-0.0013553266 0.773 -0 5.6364036e-39 319 240
0 0.77100003 -0 6.0030281e-39 320 240
0.00135182 0.77100003 -0 6.0030281e-39 321 240
0.0027036399 0.77100003 -0 6.4611322e-39 322 240
0.0040554604 0.77100003 -0 6.5533278e-39 323 240
0.0054072798 0.77100003 -0 6.6458766e-39 324 240
0.0067590997 0.77100003 -0 6.4614881e-39 325 240
0.0081109209 0.77100003 -0 6.4604133e-39 326 240
0.0094627403 0.77100003 -0 6.2760235e-39 327 240
0.01081456 0.77100003 -0 5.907255e-39 328 240
0.01216638 0.77100003 -0 5.7228637e-39 329 240
0.013553266 0.773 -0 5.171492e-39 330 240
0.014908593 0.773 -0 4.9867406e-39 331 240
0.016263919 0.773 -0 4.4360877e-39 332 240
0.01764204 0.77399999 -0 4.3438921e-39 333 240
0.018999118 0.77399999 -0 4.6179679e-39 334 240
0.020356199 0.77399999 -0 4.6179679e-39 335 240
0.021713279 0.77399999 -0 4.7090817e-39 336 240
0.02307036 0.77399999 -0 4.7090817e-39 337 240
0.024490559 0.77600002 -0 4.709439e-39 338 240
0.025917772 0.778 -0 4.709439e-39 339 240
0.027351998 0.77999997 -0 4.3421041e-39 340 240
0.028756421 0.78100002 -0 4.3421041e-39 341 240
0.030125774 0.78100002 -0 4.6176119e-39 342 240
0.031575777 0.78299999 -0 4.0647969e-39 343 240
0.032948639 0.78299999 -0 8.0234609e-39 344 240
0.034321502 0.78299999 -0 1.1526895e-38 345 240
-0.030125774 0.78100002 -0.0013693533 9.5033203e-39 298 241
-0.028756421 0.78100002 -0.0013693533 6.2764733e-39 299 241
-0.027387068 0.78100002 -0.0013693533 7.4699592e-39 300 241
-0.026017714 0.78100002 -0.0013693533 7.0086209e-39 301 241
-0.024616797 0.77999997 -0.0013675999 5.632508e-39 302 241
-0.023249198 0.77999997 -0.0013675999 5.4481167e-39 303 241
-0.021825492 0.778 -0.0013640933 4.8985401e-39 304 241
-0.020461399 0.778 -0.0013640933 5.2669624e-39 305 241
-0.019048214 0.77600002 -0.0013605866 6.5573509e-39 306 241
-0.017687626 0.77600002 -0.0013605866 6.834298e-39 307 241
-0.01632704 0.77600002 -0.0013605866 6.3780044e-39 308 241
-0.014927879 0.77399999 -0.0013570799 7.2074063e-39 309 241
-0.013570799 0.77399999 -0.0013570799 7.4850708e-39 310 241
-0.01221372 0.77399999 -0.0013570799 7.7616591e-39 311 241
-0.01085664 0.77399999 -0.0013570799 8.2201023e-39 312 241
-0.0094995592 0.77399999 -0.0013570799 7.3899829e-39 313 241
-0.0081319595 0.773 -0.0013553266 6.9293354e-39 314 241
-0.0067766332 0.773 -0.0013553266 6.468716e-39 315 241
-0.0054072798 0.77100003 -0.00135182 6.1913878e-39 316 241
-0.0040554604 0.77100003 -0.00135182 5.8222466e-39 317 241
-0.0027106532 0.773 -0.0013553266 5.7293153e-39 318 241
-0.0013553266 0.773 -0.0013553266 5.637121e-39 319 241
0 0.77100003 -0.00135182 5.8204333e-39 320 241
0.00135182 0.77100003 -0.00135182 5.8204333e-39 321 241
0.0027036399 0.77100003 -0.00135182 6.2788933e-39 322 241
0.0040554604 0.77100003 -0.00135182 6.3710875e-39 323 241
0.0054072798 0.77100003 -0.00135182 6.5536837e-39 324 241
0.0067590997 0.77100003 -0.00135182 6.4611294e-39 325 241
0.0081109209 0.77100003 -0.00135182 6.2756647e-39 326 241
0.0094627403 0.77100003 -0.00135182 6.1834705e-39 327 241
0.01081456 0.77100003 -0.00135182 5.7228609e-39 328 241
0.01216638 0.77100003 -0.00135182 5.4466341e-39 329 241
0.013518199 0.77100003 -0.00135182 4.8041472e-39 330 241
0.014908593 0.773 -0.0013553266 4.7119516e-39 331 241
0.016263919 0.773 -0.0013553266 4.5279232e-39 332 241
0.017619247 0.773 -0.0013553266 4.4353689e-39 333 241
0.018999118 0.77399999 -0.0013570799 4.6186867e-39 334 241
0.020356199 0.77399999 -0.0013570799 4.5264911e-39 335 241
0.021713279 0.77399999 -0.0013570799 4.6176119e-39 336 241
0.02307036 0.77399999 -0.0013570799 4.5254163e-39 337 241
0.024490559 0.77600002 -0.0013605866 4.525052e-39 338 241
0.025917772 0.778 -0.0013640933 4.525052e-39 339 241
0.027351998 0.77999997 -0.0013675999 4.525052e-39 340 241
0.028756421 0.78100002 -0.0013693533 4.7090845e-39 341 241
0.030125774 0.78100002 -0.0013693533 4.8005641e-39 342 241
0.031575777 0.78299999 -0.0013728599 4.2473917e-39 343 241
0.032948639 0.78299999 -0.0013728599 8.3918959e-39 344 241
0.034409165 0.78500003 -0.0013763667 1.2171558e-38 345 241
-0.031495128 0.78100002 -0.0027387065 1.3460542e-38 297 242
-0.030125774 0.78100002 -0.0027387065 8.671389e-39 298 242
-0.028756421 0.78100002 -0.0027387065 7.0118677e-39 299 242
-0.027387068 0.78100002 -0.0027387065 7.8398109e-39 300 242
-0.026017714 0.78100002 -0.0027387065 7.0100516e-39 301 242
-0.024616797 0.77999997 -0.0027351999 6.0005646e-39 302 242
-0.023249198 0.77999997 -0.0027351999 5.8161734e-39 303 242
-0.021881599 0.77999997 -0.0027351999 5.1747668e-39 304 242
-0.020461399 0.778 -0.0027281865 5.4517138e-39 305 242
-0.019097306 0.778 -0.0027281865 5.6389946e-39 306 242
-0.017733213 0.778 -0.0027281865 6.1918096e-39 307 242
-0.01632704 0.77600002 -0.0027211732 6.6542353e-39 308 242
-0.014966453 0.77600002 -0.0027211732 7.2074091e-39 309 242
-0.013605867 0.77600002 -0.0027211732 7.3925192e-39 310 242
-0.01221372 0.77399999 -0.0027141599 7.5772692e-39 311 242
-0.01085664 0.77399999 -0.0027141599 7.8545582e-39 312 242
-0.0094995592 0.77399999 -0.0027141599 7.2091887e-39 313 242
-0.0081319595 0.773 -0.0027106532 7.6654529e-39 314 242
-0.0067766332 0.773 -0.0027106532 7.2048335e-39 315 242
-0.0054072798 0.77100003 -0.0027036399 6.9285773e-39 316 242
-0.0040554604 0.77100003 -0.0027036399 6.2832079e-39 317 242
-0.0027106532 0.773 -0.0027106532 6.1902878e-39 318 242
-0.0013553266 0.773 -0.0027106532 6.005898e-39 319 242
0 0.77100003 -0.0027036399 6.005898e-39 320 242
0.00135182 0.77100003 -0.0027036399 5.9137037e-39 321 242
