# .PCD v.7 - Point Cloud Data file format
FIELDS x y z rgb imX imY
SIZE 4 4 4 4 4 4
TYPE F F F F F F
COUNT 1 1 1 1 1 1
WIDTH 841
HEIGHT 1
VIEWPOINT 0 0 0 1 0 0 0
POINTS 841
DATA ascii
0.026605079 0.84299999 0.036951501 1.1969276e-38 338 215
0.00886836 0.84299999 0.03547344 1.5210146e-38 326 216
0.01034642 0.84299999 0.03547344 5.8987477e-39 327 216
0.011712266 0.83499998 0.035136797 1.2030509e-38 328 216
0.01314474 0.833 0.035052639 1.2030509e-38 329 216
0.014570199 0.83099997 0.03496848 1.3787959e-38 330 216
0.01602722 0.83099997 0.03496848 1.5631871e-38 331 216
0.017526319 0.833 0.035052639 1.4066356e-38 332 216
0.018941259 0.83099997 0.03496848 1.2775617e-38 333 216
0.02039828 0.83099997 0.03496848 1.2219206e-38 334 216
0.021855298 0.83099997 0.03496848 1.2864576e-38 335 216
0.023368426 0.833 0.035052639 1.1854389e-38 336 216
0.024888566 0.83499998 0.035136797 1.0379259e-38 337 216
0.026541959 0.84100002 0.035389278 9.290564e-39 338 216
0.028149767 0.84500003 0.035557602 1.7219388e-38 339 216
0.00886836 0.84299999 0.033995379 1.3912207e-38 326 217
0.01034642 0.84299999 0.033995379 4.7848401e-39 327 217
0.011712266 0.83499998 0.033672765 1.2397828e-38 328 217
0.013113179 0.83099997 0.033511456 1.3591708e-38 329 217
0.014570199 0.83099997 0.033511456 1.4344002e-38 330 217
0.01602722 0.83099997 0.033511456 1.6187915e-38 331 217
0.01748424 0.83099997 0.033511456 1.3141163e-38 332 217
0.018941259 0.83099997 0.033511456 1.1574197e-38 333 217
0.02039828 0.83099997 0.033511456 1.2036261e-38 334 217
0.021855298 0.83099997 0.033511456 1.2036261e-38 335 217
0.023368426 0.833 0.033592112 1.1484178e-38 336 217
0.024888566 0.83499998 0.033672765 9.4591023e-39 337 217
0.026541959 0.84100002 0.033914726 8.9080978e-39 338 217
0.02808314 0.84299999 0.033995379 1.8218782e-38 339 217
0.011712266 0.83499998 0.03220873 1.3316197e-38 328 218
0.01308162 0.829 0.031977292 1.5342708e-38 329 218
0.014535133 0.829 0.031977292 1.434652e-38 330 218
0.015988646 0.829 0.031977292 1.4162129e-38 331 218
0.01748424 0.83099997 0.032054439 1.2496144e-38 332 218
0.018941259 0.83099997 0.032054439 1.194297e-38 333 218
0.02039828 0.83099997 0.032054439 1.1944066e-38 334 218
0.0219079 0.833 0.032131586 1.1575282e-38 335 218
0.023368426 0.833 0.032131586 1.1299067e-38 336 218
0.024888566 0.83499998 0.03220873 1.0101959e-38 337 218
0.026541959 0.84100002 0.032440174 1.0472903e-38 338 218
0.02808314 0.84299999 0.032517318 1.9047098e-38 339 218
0.029561199 0.84299999 0.032517318 1.5582159e-38 340 218
0.011628106 0.829 0.030523779 1.3050043e-38 328 219
0.01308162 0.829 0.030523779 1.5723716e-38 329 219
0.014535133 0.829 0.030523779 1.4621328e-38 330 219
0.015988646 0.829 0.030523779 1.2132406e-38 331 219
0.017442159 0.829 0.030523779 1.2403242e-38 332 219
0.018850086 0.82700002 0.030450139 1.2219211e-38 333 219
0.020300092 0.82700002 0.030450139 1.1392335e-38 334 219
0.0219079 0.833 0.030671058 1.1023554e-38 335 219
0.023424532 0.83499998 0.030744698 1.0289952e-38 336 219
0.024888566 0.83499998 0.030744698 1.1120071e-38 337 219
0.026478838 0.83899999 0.030891977 1.2325446e-38 338 219
0.028016513 0.84100002 0.030965621 1.8963531e-38 339 219
0.010174593 0.829 0.029070266 1.2673349e-38 327 220
0.011628106 0.829 0.029070266 1.3329144e-38 328 220
0.01305006 0.82700002 0.029000133 1.4712078e-38 329 220
0.014500067 0.82700002 0.029000133 1.3512469e-38 330 220
0.015950073 0.82700002 0.029000133 1.1668556e-38 331 220
0.017400078 0.82700002 0.029000133 1.2309257e-38 332 220
0.018850086 0.82700002 0.029000133 1.2217061e-38 333 220
0.020300092 0.82700002 0.029000133 1.1391613e-38 334 220
0.021802699 0.829 0.029070266 1.102319e-38 335 220
0.023424532 0.83499998 0.029280664 1.038215e-38 336 220
0.02494818 0.83700001 0.029350799 1.4069974e-38 337 220
0.026478838 0.83899999 0.029420931 1.4456391e-38 338 220
0.028016513 0.84100002 0.029491065 1.8605194e-38 339 220
0.010150046 0.82700002 0.027550125 1.5161535e-38 327 221
0.011600053 0.82700002 0.027550125 1.3240543e-38 328 221
0.01305006 0.82700002 0.027550125 1.2595173e-38 329 221
0.014500067 0.82700002 0.027550125 1.2402877e-38 330 221
0.015950073 0.82700002 0.027550125 1.2125932e-38 331 221
0.017400078 0.82700002 0.027550125 1.1209739e-38 332 221
0.018850086 0.82700002 0.027550125 1.0933512e-38 333 221
0.020300092 0.82700002 0.027550125 1.0566169e-38 334 221
0.021802699 0.829 0.027616752 1.075056e-38 335 221
0.023480639 0.83700001 0.02788326 9.9269356e-39 336 221
0.025007792 0.83899999 0.027949886 1.2785e-38 337 221
0.026478838 0.83899999 0.027949886 1.1156432e-38 338 221
0.0086579602 0.82300001 0.025973879 1.1387624e-38 326 222
0.010100953 0.82300001 0.025973879 1.5901264e-38 327 222
0.011543946 0.82300001 0.025973879 1.3150867e-38 328 222
0.012986939 0.82300001 0.025973879 1.1306954e-38 329 222
0.014465 0.82499999 0.026036998 1.1943691e-38 330 222
0.015950073 0.82700002 0.02610012 1.1943691e-38 331 222
0.017400078 0.82700002 0.02610012 1.0934225e-38 332 222
0.018850086 0.82700002 0.02610012 1.084203e-38 333 222
0.020300092 0.82700002 0.02610012 1.0383219e-38 334 222
0.021960499 0.83499998 0.026352599 1.0936393e-38 335 222
0.023536745 0.83899999 0.026478838 9.6564598e-39 336 222
0.025007792 0.83899999 0.026478838 1.1315981e-38 337 222
0.0057439199 0.81900001 0.02441166 1.3444336e-38 324 223
0.0071799001 0.81900001 0.02441166 1.2337629e-38 325 223
0.0086158793 0.81900001 0.02441166 1.361437e-38 326 223
0.01005186 0.81900001 0.02441166 1.4259739e-38 327 223
0.01148784 0.81900001 0.02441166 1.2874987e-38 328 223
0.01292382 0.81900001 0.02441166 9.4637491e-39 329 223
0.0143598 0.81900001 0.02441166 1.1209355e-38 330 223
0.015911499 0.82499999 0.024590498 1.1485582e-38 331 223
0.017400078 0.82700002 0.024650112 1.0382854e-38 332 223
0.018850086 0.82700002 0.024650112 1.0475049e-38 333 223
0.020300092 0.82700002 0.024650112 9.8350833e-39 334 223
0.0028859866 0.82300001 0.023087893 1.6961841e-38 322 224
0.0043184594 0.82099998 0.023031786 1.7054396e-38 323 224
0.0057439199 0.81900001 0.022975679 1.8340093e-38 324 224
0.0071799001 0.81900001 0.022975679 1.8247898e-38 325 224
0.0086158793 0.81900001 0.022975679 1.7966607e-38 326 224
0.01005186 0.81900001 0.022975679 1.4555368e-38 327 224
0.01148784 0.81900001 0.022975679 1.3159443e-38 328 224
0.012892259 0.81699997 0.022919571 9.1028348e-39 329 224
0.014324733 0.81699997 0.022919571 1.0566477e-38 330 224
0.015911499 0.82499999 0.023143999 1.0566477e-38 331 224
0.017400078 0.82700002 0.023200106 9.9236692e-39 332 224
0.018850086 0.82700002 0.023200106 1.0292812e-38 333 224
0.0014394866 0.82099998 0.021592299 1.7333151e-38 321 225
0.0028789733 0.82099998 0.021592299 1.7701574e-38 322 225
0.0043079397 0.81900001 0.021539699 1.7886325e-38 323 225
0.0057439199 0.81900001 0.021539699 1.8621369e-38 324 225
0.0071799001 0.81900001 0.021539699 1.8621369e-38 325 225
0.0086158793 0.81900001 0.021539699 1.8434797e-38 326 225
0.01005186 0.81900001 0.021539699 1.7235894e-38 327 225
0.01148784 0.81900001 0.021539699 1.6116926e-38 328 225
0.012892259 0.81699997 0.021487098 1.2060319e-38 329 225
0.014324733 0.81699997 0.021487098 1.0111623e-38 330 225
0.015950073 0.82700002 0.0217501 8.8208838e-39 331 225
0.017442159 0.829 0.021802699 9.5581251e-39 332 225
0.018941259 0.83099997 0.021855298 1.0296049e-38 333 225
0 0.81900001 0.020103719 1.7057287e-38 320 226
0.00143598 0.81900001 0.020103719 1.7333873e-38 321 226
0.0028719599 0.81900001 0.020103719 1.7702657e-38 322 226
0.0043079397 0.81900001 0.020103719 1.7702657e-38 323 226
0.0057298928 0.81699997 0.020054625 1.7978523e-38 324 226
0.0071623665 0.81699997 0.020054625 1.7701576e-38 325 226
0.0085948398 0.81699997 0.020054625 1.751611e-38 326 226
0.010027313 0.81699997 0.020054625 1.7239884e-38 327 226
0.01148784 0.81900001 0.020103719 1.7417065e-38 328 226
0.01292382 0.81900001 0.020103719 1.372924e-38 329 226
0.0143598 0.81900001 0.020103719 1.0765644e-38 330 226
0.015988646 0.829 0.020349186 7.1696539e-39 331 226
0.017442159 0.829 0.020349186 8.7351846e-39 332 226
0.019032432 0.83499998 0.020496465 9.9337277e-39 333 226
-0.0014324732 0.81699997 0.018622151 1.7701213e-38 319 227
0 0.81699997 0.018622151 1.7701574e-38 320 227
0.00143598 0.81900001 0.018667741 1.7794128e-38 321 227
0.0028719599 0.81900001 0.018667741 1.7702657e-38 322 227
0.0043079397 0.81900001 0.018667741 1.761046e-38 323 227
0.0057298928 0.81699997 0.018622151 1.7058728e-38 324 227
0.0071623665 0.81699997 0.018622151 1.6505554e-38 325 227
0.0085948398 0.81699997 0.018622151 1.5861631e-38 326 227
0.010027313 0.81699997 0.018622151 1.5216261e-38 327 227
0.01148784 0.81900001 0.018667741 1.5307014e-38 328 227
0.01292382 0.81900001 0.018667741 1.4292863e-38 329 227
0.0143598 0.81900001 0.018667741 1.1791334e-38 330 227
0.015795778 0.81900001 0.018667741 7.3663023e-39 331 227
-0.0014324732 0.81699997 0.01718968 1.7882005e-38 319 228
0 0.81699997 0.01718968 1.7883804e-38 320 228
0.0014324732 0.81699997 0.01718968 1.8436978e-38 321 228
0.0028649464 0.81699997 0.01718968 1.8254031e-38 322 228
0.0042974199 0.81699997 0.01718968 1.7885249e-38 323 228
0.0057298928 0.81699997 0.01718968 1.7057653e-38 324 228
0.0071623665 0.81699997 0.01718968 1.6320088e-38 325 228
0.0085948398 0.81699997 0.01718968 1.5401374e-38 326 228
0.010027313 0.81699997 0.01718968 1.4663809e-38 327 228
0.01148784 0.81900001 0.017231759 1.4295034e-38 328 228
0.01292382 0.81900001 0.017231759 1.3925891e-38 329 228
0.0143598 0.81900001 0.017231759 1.134153e-38 330 228
0.015834354 0.82099998 0.017273838 6.3626055e-39 331 228
-0.0028719599 0.81900001 0.015795778 1.7322349e-38 318 229
-0.0014324732 0.81699997 0.015757205 1.603161e-38 319 229
0 0.81699997 0.015757205 1.6401121e-38 320 229
0.0014324732 0.81699997 0.015757205 1.769186e-38 321 229
0.0028649464 0.81699997 0.015757205 1.8157164e-38 322 229
0.0042974199 0.81699997 0.015757205 1.8434109e-38 323 229
0.0057298928 0.81699997 0.015757205 1.7240605e-38 324 229
0.0071623665 0.81699997 0.015757205 1.6595236e-38 325 229
0.0085948398 0.81699997 0.015757205 1.5308463e-38 326 229
0.01005186 0.81900001 0.015795778 1.4478343e-38 327 229
0.01148784 0.81900001 0.015795778 1.3374522e-38 328 229
0.01292382 0.81900001 0.015795778 1.2729153e-38 329 229
0.0143598 0.81900001 0.015795778 1.1159306e-38 330 229
0.015834354 0.82099998 0.015834354 7.3792854e-39 331 229
0.017526319 0.833 0.016065793 7.0940665e-39 332 229
-0.0028649464 0.81699997 0.014324733 1.6190083e-38 318 230
-0.0014324732 0.81699997 0.014324733 1.3700801e-38 319 230
0 0.81699997 0.014324733 1.5261662e-38 320 230
0.0014324732 0.81699997 0.014324733 1.5999227e-38 321 230
0.0028649464 0.81699997 0.014324733 1.5734902e-38 322 230
0.0042974199 0.81699997 0.014324733 1.9054303e-38 323 230
0.0057298928 0.81699997 0.014324733 1.5854081e-38 324 230
0.0071623665 0.81699997 0.014324733 1.6775677e-38 325 230
0.0085948398 0.81699997 0.014324733 1.5398504e-38 326 230
0.01005186 0.81900001 0.0143598 1.4292516e-38 327 230
0.01148784 0.81900001 0.0143598 1.2638755e-38 328 230
0.01292382 0.81900001 0.0143598 1.1993386e-38 329 230
0.0143598 0.81900001 0.0143598 9.872533e-39 330 230
0.015834354 0.82099998 0.014394866 6.7378816e-39 331 230
-0.0042868997 0.815 0.0128607 1.1796018e-38 317 231
-0.0028579333 0.815 0.0128607 1.4237062e-38 318 231
-0.0014324732 0.81699997 0.012892259 1.2489648e-38 319 231
0 0.81699997 0.012892259 1.4785525e-38 320 231
0.0014324732 0.81699997 0.012892259 1.4601851e-38 321 231
0.0028649464 0.81699997 0.012892259 1.276519e-38 322 231
0.0042974199 0.81699997 0.012892259 1.5896972e-38 323 231
0.0057298928 0.81699997 0.012892259 1.3170346e-38 324 231
0.0071623665 0.81699997 0.012892259 1.6304997e-38 325 231
0.0085948398 0.81699997 0.012892259 1.5303806e-38 326 231
0.01005186 0.81900001 0.01292382 1.4474406e-38 327 231
0.01148784 0.81900001 0.01292382 1.1995551e-38 328 231
0.01292382 0.81900001 0.01292382 1.1073593e-38 329 231
0.0143598 0.81900001 0.01292382 8.4928454e-39 330 231
0.015988646 0.829 0.01308162 5.6344207e-39 331 231
-0.0056246929 0.80199999 0.011249386 1.5009547e-38 316 232
-0.00425534 0.80900002 0.011347573 8.6480504e-39 317 232
-0.0028368933 0.80900002 0.011347573 1.4877404e-38 318 232
-0.0014289666 0.815 0.011431733 1.5521338e-38 319 232
0 0.815 0.011431733 1.5339089e-38 320 232
0.0014289666 0.815 0.011431733 1.4785916e-38 321 232
0.0028649464 0.81699997 0.011459786 1.4326385e-38 322 232
0.0042974199 0.81699997 0.011459786 1.3775364e-38 323 232
0.0057298928 0.81699997 0.011459786 1.0851781e-38 324 232
0.0071623665 0.81699997 0.011459786 1.3525455e-38 325 232
0.0086158793 0.81900001 0.01148784 1.2536498e-38 326 232
0.01005186 0.81900001 0.01148784 1.4564803e-38 327 232
0.01148784 0.81900001 0.01148784 1.1717888e-38 328 232
0.01292382 0.81900001 0.01148784 1.0427149e-38 329 232
0.014394866 0.82099998 0.011515893 7.6638008e-39 330 232
-0.0070308661 0.80199999 0.0098432126 1.5209412e-38 315 233
-0.0056246929 0.80199999 0.0098432126 1.4993704e-38 316 233
-0.0042448197 0.80699998 0.0099045793 9.4623267e-39 317 233
-0.0028368933 0.80900002 0.0099291261 1.552132e-38 318 233
-0.0014219533 0.81099999 0.009953673 1.6258885e-38 319 233
0 0.815 0.010002766 1.5798631e-38 320 233
0.0014289666 0.815 0.010002766 1.4969229e-38 321 233
0.0028649464 0.81699997 0.010027313 1.4601886e-38 322 233
0.0042974199 0.81699997 0.010027313 1.3959028e-38 323 233
0.0057298928 0.81699997 0.010027313 1.1112123e-38 324 233
0.0071623665 0.81699997 0.010027313 1.3596383e-38 325 233
0.0086158793 0.81900001 0.01005186 9.8599101e-39 326 233
0.01005186 0.81900001 0.01005186 1.5115061e-38 327 233
0.01148784 0.81900001 0.01005186 1.1991954e-38 328 233
0.01292382 0.81900001 0.01005186 9.5948671e-39 329 233
0.014500067 0.82700002 0.010150046 8.6747059e-39 330 233
-0.0070746993 0.80699998 0.0084896395 9.7677019e-39 315 234
-0.0056597595 0.80699998 0.0084896395 1.4148832e-38 316 234
-0.0042448197 0.80699998 0.0084896395 1.4332863e-38 317 234
-0.0028368933 0.80900002 0.0085106799 1.5807986e-38 318 234
-0.0014219533 0.81099999 0.0085317204 1.5438844e-38 319 234
0 0.81099999 0.0085317204 1.543309e-38 320 234
0.00142546 0.81300002 0.0085527599 1.4050873e-38 321 234
0.0028579333 0.815 0.0085737994 1.4510062e-38 322 234
0.0042868997 0.815 0.0085737994 1.4601899e-38 323 234
0.0057298928 0.81699997 0.0085948398 1.2859184e-38 324 234
0.0071623665 0.81699997 0.0085948398 1.4979683e-38 325 234
0.0086158793 0.81900001 0.0086158793 1.2067939e-38 326 234
0.01005186 0.81900001 0.0086158793 1.5755764e-38 327 234
0.011515893 0.82099998 0.0086369189 1.0977807e-38 328 234
0.013018499 0.82499999 0.0086789997 8.3037752e-39 329 234
-0.0070922333 0.80900002 0.0070922333 8.3847604e-39 315 235
-0.0056737866 0.80900002 0.0070922333 1.4521208e-38 316 235
-0.00425534 0.80900002 0.0070922333 1.701049e-38 317 235
-0.0028368933 0.80900002 0.0070922333 1.6183596e-38 318 235
-0.0014184467 0.80900002 0.0070922333 1.4800662e-38 319 235
0 0.80900002 0.0070922333 1.487739e-38 320 235
0.0014219533 0.81099999 0.0071097664 1.4693716e-38 321 235
0.0028439066 0.81099999 0.0071097664 1.4234552e-38 322 235
0.0042763799 0.81300002 0.0071272999 1.4510063e-38 323 235
0.0057158666 0.815 0.007144833 1.2584399e-38 324 235
0.0071623665 0.81699997 0.0071623665 1.6917593e-38 325 235
0.0086158793 0.81900001 0.0071799001 1.2899144e-38 326 235
0.010076405 0.82099998 0.0071974332 1.4374274e-38 327 235
0.011543946 0.82300001 0.0072149667 9.8728988e-39 328 235
0.01305006 0.82700002 0.0072500333 8.0289862e-39 329 235
-0.0085106799 0.80900002 0.0056737866 1.5205093e-38 314 236
-0.0070922333 0.80900002 0.0056737866 1.0871538e-38 315 236
-0.0056737866 0.80900002 0.0056737866 1.5728421e-38 316 236
-0.00425534 0.80900002 0.0056737866 1.6005007e-38 317 236
-0.0028368933 0.80900002 0.0056737866 1.5629722e-38 318 236
-0.0014184467 0.80900002 0.0056737866 1.378581e-38 319 236
0 0.80900002 0.0056737866 1.4418219e-38 320 236
0.0014219533 0.81099999 0.0056878133 1.4418219e-38 321 236
0.0028439066 0.81099999 0.0056878133 1.3867223e-38 322 236
0.0042763799 0.81300002 0.0057018399 1.3683549e-38 323 236
0.0057158666 0.815 0.0057158666 1.1940844e-38 324 236
0.0071623665 0.81699997 0.0057298928 1.8210145e-38 325 236
0.0086158793 0.81900001 0.0057439199 1.391582e-38 326 236
0.010100953 0.82300001 0.0057719732 1.2625081e-38 327 236
0.011572 0.82499999 0.0057859998 8.2162487e-39 328 236
-0.0085317204 0.81099999 0.0042658602 1.0591364e-38 314 237
-0.0070922333 0.80900002 0.00425534 1.1052701e-38 315 237
-0.0056737866 0.80900002 0.00425534 1.6001057e-38 316 237
-0.00425534 0.80900002 0.00425534 1.5632635e-38 317 237
-0.0028368933 0.80900002 0.00425534 1.5161558e-38 318 237
-0.0014184467 0.80900002 0.00425534 1.3594232e-38 319 237
0 0.80900002 0.00425534 1.4326382e-38 320 237
0.0014184467 0.80900002 0.00425534 1.469373e-38 321 237
0.0028368933 0.80900002 0.00425534 1.3593876e-38 322 237
0.0042658602 0.81099999 0.0042658602 1.4147048e-38 323 237
0.0057018399 0.81300002 0.0042763799 1.1862324e-38 324 237
0.007144833 0.815 0.0042868997 1.6932725e-38 325 237
0.0086369189 0.82099998 0.0043184594 1.2631562e-38 326 237
0.0101255 0.82499999 0.0043394999 1.0142639e-38 327 237
-0.0085106799 0.80900002 0.0028368933 1.0023798e-38 314 238
-0.0070922333 0.80900002 0.0028368933 1.3066253e-38 315 238
-0.0056737866 0.80900002 0.0028368933 1.5723369e-38 316 238
-0.00425534 0.80900002 0.0028368933 1.4801054e-38 317 238
-0.0028298798 0.80699998 0.0028298798 1.4511519e-38 318 238
-0.0014149399 0.80699998 0.0028298798 1.3591714e-38 319 238
0 0.80699998 0.0028298798 1.3959051e-38 320 238
0.0014184467 0.80900002 0.0028368933 1.4234562e-38 321 238
0.0028368933 0.80900002 0.0028368933 1.2586569e-38 322 238
0.0042658602 0.81099999 0.0028439066 1.4245731e-38 323 238
0.0056878133 0.81099999 0.0028439066 1.1968926e-38 324 238
0.007144833 0.815 0.0028579333 1.4734795e-38 325 238
0.0086369189 0.82099998 0.0028789733 1.0976004e-38 326 238
0.0101255 0.82499999 0.0028929999 8.9476999e-39 327 238
-0.0099291261 0.80900002 0.0014184467 3.6100391e-39 313 239
-0.0084896395 0.80699998 0.0014149399 1.2972966e-38 314 239
-0.0070746993 0.80699998 0.0014149399 1.3894562e-38 315 239
-0.0056597595 0.80699998 0.0014149399 1.5627568e-38 316 239
-0.0042448197 0.80699998 0.0014149399 1.3323036e-38 317 239
-0.0028298798 0.80699998 0.0014149399 1.4234562e-38 318 239
-0.0014149399 0.80699998 0.0014149399 1.4142724e-38 319 239
0 0.80699998 0.0014149399 1.3775387e-38 320 239
0.0014149399 0.80699998 0.0014149399 1.4236008e-38 321 239
0.0028298798 0.80699998 0.0014149399 1.2129194e-38 322 239
0.00425534 0.80900002 0.0014184467 1.4342249e-38 323 239
0.0056737866 0.80900002 0.0014184467 9.7699047e-39 324 239
0.0071097664 0.81099999 0.0014219533 1.1153198e-38 325 239
0.0085948398 0.81699997 0.0014324732 1.0053704e-38 326 239
0.010100953 0.82300001 0.0014429933 9.223942e-39 327 239
-0.011291467 0.80500001 -0 6.172794e-39 312 240
-0.0098800333 0.80500001 -0 8.662076e-39 313 240
-0.0084686 0.80500001 -0 1.5359952e-38 314 240
-0.0070571667 0.80500001 -0 1.5452149e-38 315 240
-0.0056457333 0.80500001 -0 1.5257328e-38 316 240
-0.0042343 0.80500001 -0 1.332122e-38 317 240
-0.0028228667 0.80500001 -0 1.3504184e-38 318 240
-0.0014149399 0.80699998 -0 1.3135402e-38 319 240
0 0.80699998 -0 1.1488481e-38 320 240
0.0014149399 0.80699998 -0 1.1396285e-38 321 240
0.0028298798 0.80699998 -0 9.655385e-39 322 240
0.00425534 0.80900002 -0 1.1407101e-38 323 240
0.0056737866 0.80900002 -0 8.4842036e-39 324 240
0.0071097664 0.81099999 -0 9.3143244e-39 325 240
0.0085948398 0.81699997 -0 7.571245e-39 326 240
0.010100953 0.82300001 -0 9.7843003e-39 327 240
-0.012702899 0.80500001 -0.0014114333 8.1143042e-39 311 241
-0.011291467 0.80500001 -0.0014114333 1.0856403e-38 312 241
-0.0098800333 0.80500001 -0.0014114333 1.3253849e-38 313 241
-0.0084686 0.80500001 -0.0014114333 1.6370508e-38 314 241
-0.0070571667 0.80500001 -0.0014114333 1.5171965e-38 315 241
-0.0056457333 0.80500001 -0.0014114333 1.4790607e-38 316 241
-0.0042343 0.80500001 -0.0014114333 1.4145238e-38 317 241
-0.0028228667 0.80500001 -0.0014114333 1.3055098e-38 318 241
-0.0014114333 0.80500001 -0.0014114333 1.1580326e-38 319 241
0 0.80500001 -0.0014114333 9.5642614e-39 320 241
0.0014114333 0.80500001 -0.0014114333 9.4720644e-39 321 241
0.0028298798 0.80699998 -0.0014149399 7.1783336e-39 322 241
0.0042448197 0.80699998 -0.0014149399 8.7452991e-39 323 241
0.0056737866 0.80900002 -0.0014184467 6.8300745e-39 324 241
0.0071097664 0.81099999 -0.0014219533 8.3052031e-39 325 241
0.0086369189 0.82099998 -0.0014394866 9.1349652e-39 326 241
-0.012702899 0.80500001 -0.0028228667 1.0401913e-38 311 242
-0.011291467 0.80500001 -0.0028228667 1.4342908e-38 312 242
-0.0098800333 0.80500001 -0.0028228667 1.6463407e-38 313 242
-0.0084686 0.80500001 -0.0028228667 1.6367641e-38 314 242
-0.0070571667 0.80500001 -0.0028228667 1.3601771e-38 315 242
-0.0056457333 0.80500001 -0.0028228667 1.4877783e-38 316 242
-0.0042343 0.80500001 -0.0028228667 1.515437e-38 317 242
-0.0028158531 0.80299997 -0.0028158531 1.3149457e-38 318 242
-0.0014079266 0.80299997 -0.0028158531 1.2135665e-38 319 242
0 0.80299997 -0.0028158531 8.1874436e-39 320 242
0.0014079266 0.80299997 -0.0028158531 8.648063e-39 321 242
0.0028158531 0.80299997 -0.0028158531 6.3561259e-39 322 242
0.0042448197 0.80699998 -0.0028298798 7.831256e-39 323 242
0.0056737866 0.80900002 -0.0028368933 6.8311492e-39 324 242
0.0071097664 0.81099999 -0.0028439066 8.7672575e-39 325 242
-0.014114333 0.80500001 -0.0042343 1.3983145e-38 310 243
-0.012702899 0.80500001 -0.0042343 1.2231789e-38 311 243
-0.011291467 0.80500001 -0.0042343 1.581265e-38 312 243
-0.0098800333 0.80500001 -0.0042343 1.7379974e-38 313 243
-0.0084686 0.80500001 -0.0042343 1.6457321e-38 314 243
-0.0070571667 0.80500001 -0.0042343 1.2769136e-38 315 243
-0.0056457333 0.80500001 -0.0042343 1.4510073e-38 316 243
-0.0042343 0.80500001 -0.0042343 1.5524585e-38 317 243
-0.0028158531 0.80299997 -0.0042237798 1.306193e-38 318 243
-0.0014079266 0.80299997 -0.0042237798 1.2693508e-38 319 243
0 0.80299997 -0.0042237798 6.9067633e-39 320 243
0.0014079266 0.80299997 -0.0042237798 7.5521327e-39 321 243
0.0028158531 0.80299997 -0.0042237798 6.1789275e-39 322 243
0.00425534 0.80900002 -0.00425534 7.7458945e-39 323 243
0.0056737866 0.80900002 -0.00425534 7.9357003e-39 324 243
0.007144833 0.815 -0.0042868997 1.0517178e-38 325 243
-0.014114333 0.80500001 -0.0056457333 1.4532735e-38 310 244
-0.012702899 0.80500001 -0.0056457333 1.3518224e-38 311 244
-0.011291467 0.80500001 -0.0056457333 1.6091035e-38 312 244
-0.0098800333 0.80500001 -0.0056457333 1.6275426e-38 313 244
-0.0084686 0.80500001 -0.0056457333 1.5623592e-38 314 244
-0.0070571667 0.80500001 -0.0056457333 1.3042115e-38 315 244
-0.0056457333 0.80500001 -0.0056457333 1.4422193e-38 316 244
-0.0042237798 0.80299997 -0.0056317062 1.5712932e-38 317 244
-0.0028158531 0.80299997 -0.0056317062 1.3155928e-38 318 244
-0.0014079266 0.80299997 -0.0056317062 1.2695309e-38 319 244
0 0.80299997 -0.0056317062 6.5459079e-39 320 244
0.0014114333 0.80500001 -0.0056457333 6.9146919e-39 321 244
0.0028228667 0.80500001 -0.0056457333 6.7364299e-39 322 244
0.0042658602 0.81099999 -0.0056878133 7.5665507e-39 323 244
0.0056878133 0.81099999 -0.0056878133 9.1324443e-39 324 244
-0.015487193 0.80299997 -0.0070396326 8.2994438e-39 309 245
-0.014079265 0.80299997 -0.0070396326 1.489794e-38 310 245
-0.012671339 0.80299997 -0.0070396326 1.425257e-38 311 245
-0.011291467 0.80500001 -0.0070571667 1.645624e-38 312 245
-0.0098554865 0.80299997 -0.0070396326 1.5165501e-38 313 245
-0.0084475596 0.80299997 -0.0070396326 1.5064679e-38 314 245
-0.0070571667 0.80500001 -0.0070571667 1.4327114e-38 315 245
-0.0056317062 0.80299997 -0.0070396326 1.4332888e-38 316 245
-0.0042237798 0.80299997 -0.0070396326 1.534704e-38 317 245
-0.0028158531 0.80299997 -0.0070396326 1.2142515e-38 318 245
-0.0014079266 0.80299997 -0.0070396326 1.1220918e-38 319 245
0 0.80299997 -0.0070396326 7.190948e-39 320 245
0.0014114333 0.80500001 -0.0070571667 7.7441218e-39 321 245
0.0028228667 0.80500001 -0.0070571667 7.1055879e-39 322 245
-0.016874079 0.80199999 -0.0084370393 2.6751404e-39 308 246
-0.015467905 0.80199999 -0.0084370393 7.2849219e-39 309 246
-0.014079265 0.80299997 -0.0084475596 1.5168047e-38 310 246
-0.012671339 0.80299997 -0.0084475596 1.3784754e-38 311 246
-0.011263412 0.80299997 -0.0084475596 1.6258194e-38 312 246
-0.0098554865 0.80299997 -0.0084475596 1.4877412e-38 313 246
-0.0084475596 0.80299997 -0.0084475596 1.5336598e-38 314 246
-0.0070396326 0.80299997 -0.0084475596 1.5887619e-38 315 246
-0.0056317062 0.80299997 -0.0084475596 1.3876952e-38 316 246
-0.0042237798 0.80299997 -0.0084475596 1.433793e-38 317 246
-0.0028158531 0.80299997 -0.0084475596 1.1592218e-38 318 246
-0.0014079266 0.80299997 -0.0084475596 1.1315631e-38 319 246
0 0.80299997 -0.0084475596 7.4675335e-39 320 246
0.0014114333 0.80500001 -0.0084686 7.9285131e-39 321 246
0.0028298798 0.80699998 -0.0084896395 6.7386005e-39 322 246
0.0042974199 0.81699997 -0.0085948398 8.7669043e-39 323 246
-0.016874079 0.80199999 -0.0098432126 1.1125456e-38 308 247
-0.015467905 0.80199999 -0.0098432126 1.2324e-38 309 247
-0.014061732 0.80199999 -0.0098432126 1.552567e-38 310 247
-0.01265556 0.80199999 -0.0098432126 1.5064693e-38 311 247
-0.011249386 0.80199999 -0.0098432126 1.5796519e-38 312 247
-0.0098554865 0.80299997 -0.0098554865 1.4693758e-38 313 247
-0.0084475596 0.80299997 -0.0098554865 1.5062175e-38 314 247
-0.0070396326 0.80299997 -0.0098554865 1.6168522e-38 315 247
-0.0056317062 0.80299997 -0.0098554865 1.3604667e-38 316 247
-0.0042237798 0.80299997 -0.0098554865 1.3880895e-38 317 247
-0.0028228667 0.80500001 -0.0098800333 1.0763546e-38 318 247
-0.0014114333 0.80500001 -0.0098800333 1.0948296e-38 319 247
0 0.80500001 -0.0098800333 7.099121e-39 320 247
0.0014149399 0.80699998 -0.0099045793 7.6522947e-39 321 247
0.0028298798 0.80699998 -0.0099045793 8.394882e-39 322 247
-0.018234666 0.80000001 -0.011221333 6.7223707e-39 307 248
-0.016832 0.80000001 -0.011221333 1.4244633e-38 308 248
-0.015429333 0.80000001 -0.011221333 1.3415233e-38 309 248
-0.014061732 0.80199999 -0.011249386 1.5980887e-38 310 248
-0.01265556 0.80199999 -0.011249386 1.5888691e-38 311 248
-0.011249386 0.80199999 -0.011249386 1.5520269e-38 312 248
-0.0098432126 0.80199999 -0.011249386 1.5336595e-38 313 248
-0.0084475596 0.80299997 -0.011263412 1.4424358e-38 314 248
-0.0070396326 0.80299997 -0.011263412 1.5161923e-38 315 248
-0.0056317062 0.80299997 -0.011263412 1.3055824e-38 316 248
-0.0042237798 0.80299997 -0.011263412 1.3424605e-38 317 248
-0.0028228667 0.80500001 -0.011291467 9.9399019e-39 318 248
-0.0014114333 0.80500001 -0.011291467 9.3867295e-39 319 248
0 0.80500001 -0.011291467 7.0036855e-39 320 248
0.00142546 0.81300002 -0.01140368 8.2944243e-39 321 248
-0.019539146 0.796 -0.01256088 1.2240439e-38 306 249
-0.018143492 0.796 -0.01256088 9.3820155e-39 307 249
-0.01674784 0.796 -0.01256088 1.5246193e-38 308 249
-0.015390759 0.79799998 -0.012592439 1.552278e-38 309 249
-0.013991599 0.79799998 -0.012592439 1.5798292e-38 310 249
-0.012624 0.80000001 -0.012624 1.5337673e-38 311 249
-0.011249386 0.80199999 -0.01265556 1.533659e-38 312 249
-0.0098432126 0.80199999 -0.01265556 1.6255676e-38 313 249
-0.0084370393 0.80199999 -0.01265556 1.3968422e-38 314 249
-0.0070308661 0.80199999 -0.01265556 1.3968422e-38 315 249
-0.0056317062 0.80299997 -0.012671339 1.2413344e-38 316 249
-0.0042237798 0.80299997 -0.012671339 1.3427854e-38 317 249
-0.0028228667 0.80500001 -0.012702899 9.3892462e-39 318 249
-0.0014149399 0.80699998 -0.01273446 9.0208238e-39 319 249
0 0.80699998 -0.01273446 7.3782134e-39 320 249
0.00142546 0.81300002 -0.01282914 8.5767552e-39 321 249
-0.020987399 0.79799998 -0.013991599 7.4693132e-39 305 250
-0.019539146 0.796 -0.013956533 1.3616553e-38 306 250
-0.018143492 0.796 -0.013956533 1.1404217e-38 307 250
-0.01674784 0.796 -0.013956533 1.5795764e-38 308 250
-0.015352187 0.796 -0.013956533 1.6531177e-38 309 250
-0.013991599 0.79799998 -0.013991599 1.5613181e-38 310 250
-0.012592439 0.79799998 -0.013991599 1.5336594e-38 311 250
-0.011221333 0.80000001 -0.014026666 1.4694819e-38 312 250
-0.0098432126 0.80199999 -0.014061732 1.589336e-38 313 250
-0.0084370393 0.80199999 -0.014061732 1.378581e-38 314 250
-0.0070308661 0.80199999 -0.014061732 1.3232637e-38 315 250
-0.0056317062 0.80299997 -0.014079265 1.1494264e-38 316 250
-0.0042237798 0.80299997 -0.014079265 1.2047079e-38 317 250
-0.0028298798 0.80699998 -0.014149399 7.9205999e-39 318 250
-0.0014149399 0.80699998 -0.014149399 9.0273076e-39 319 250
0 0.81099999 -0.014219533 8.6689494e-39 320 250
0.00142546 0.81300002 -0.0142546 9.8674912e-39 321 250
-0.020987399 0.79799998 -0.015390759 7.1880403e-39 305 251
-0.019539146 0.796 -0.015352187 1.3887379e-38 306 251
-0.018143492 0.796 -0.015352187 1.259664e-38 307 251
-0.01674784 0.796 -0.015352187 1.5890841e-38 308 251
-0.015352187 0.796 -0.015352187 1.5706448e-38 309 251
-0.013956533 0.796 -0.015352187 1.5520263e-38 310 251
-0.012592439 0.79799998 -0.015390759 1.4969242e-38 311 251
-0.011221333 0.80000001 -0.015429333 1.4331794e-38 312 251
-0.0098186666 0.80000001 -0.015429333 1.543814e-38 313 251
-0.0084370393 0.80199999 -0.015467905 1.3509222e-38 314 251
-0.0070308661 0.80199999 -0.015467905 1.2310679e-38 315 251
-0.0056317062 0.80299997 -0.015487193 1.0941809e-38 316 251
-0.0042343 0.80500001 -0.015525767 1.1587179e-38 317 251
-0.0028298798 0.80699998 -0.015564339 6.2668365e-39 318 251
-0.0014219533 0.81099999 -0.015641484 7.3735442e-39 319 251
0 0.81300002 -0.01568006 1.0236274e-38 320 251
-0.022442667 0.80000001 -0.016832 1.0956534e-38 304 252
-0.0209348 0.796 -0.01674784 1.0679946e-38 305 252
-0.019539146 0.796 -0.01674784 1.4983636e-38 306 252
-0.018143492 0.796 -0.01674784 1.3508147e-38 307 252
-0.01674784 0.796 -0.01674784 1.5890841e-38 308 252
-0.015352187 0.796 -0.01674784 1.5429863e-38 309 252
-0.013956533 0.796 -0.01674784 1.5244746e-38 310 252
-0.01256088 0.796 -0.01674784 1.5612812e-38 311 252
-0.011193279 0.79799998 -0.016789921 1.3969476e-38 312 252
-0.0098186666 0.80000001 -0.016832 1.4522648e-38 313 252
-0.0084370393 0.80199999 -0.016874079 1.3142958e-38 314 252
-0.0070308661 0.80199999 -0.016874079 1.2405393e-38 315 252
-0.0056317062 0.80299997 -0.016895119 9.749024e-39 316 252
-0.0042448197 0.80699998 -0.016979279 9.8412196e-39 317 252
-0.0028298798 0.80699998 -0.016979279 5.9866427e-39 318 252
-0.0014219533 0.81099999 -0.017063441 7.0929903e-39 319 252
-0.022386558 0.79799998 -0.018189078 1.3987831e-38 304 253
-0.0209348 0.796 -0.018143492 1.2420864e-38 305 253
-0.019490054 0.79400003 -0.018097907 1.552637e-38 306 253
-0.018097907 0.79400003 -0.018097907 1.5250143e-38 307 253
-0.016705759 0.79400003 -0.018097907 1.5799367e-38 308 253
-0.015313613 0.79400003 -0.018097907 1.4877411e-38 309 253
-0.013921468 0.79400003 -0.018097907 1.4785574e-38 310 253
-0.01256088 0.796 -0.018143492 1.5614977e-38 311 253
-0.011165227 0.796 -0.018143492 1.3607548e-38 312 253
-0.0097941197 0.79799998 -0.018189078 1.3792298e-38 313 253
-0.0084370393 0.80199999 -0.018280253 1.1497483e-38 314 253
-0.0070308661 0.80199999 -0.018280253 1.0759918e-38 315 253
-0.0056317062 0.80299997 -0.018303044 8.6459008e-39 316 253
-0.0042448197 0.80699998 -0.018394221 7.7239459e-39 317 253
-0.0028368933 0.80900002 -0.018439807 6.3543364e-39 318 253
-0.02378572 0.79799998 -0.019588239 9.9470765e-39 303 254
-0.022386558 0.79799998 -0.019588239 1.5442109e-38 304 254
-0.0208822 0.79400003 -0.019490054 1.4704185e-38 305 254
-0.019490054 0.79400003 -0.019490054 1.6169223e-38 306 254
-0.018097907 0.79400003 -0.019490054 1.5892995e-38 307 254
-0.016705759 0.79400003 -0.019490054 1.5703936e-38 308 254
-0.015313613 0.79400003 -0.019490054 1.5336587e-38 309 254
-0.013921468 0.79400003 -0.019490054 1.4512238e-38 310 254
-0.01256088 0.796 -0.019539146 1.5618946e-38 311 254
-0.011165227 0.796 -0.019539146 1.3331334e-38 312 254
-0.0097941197 0.79799998 -0.019588239 1.4622073e-38 313 254
-0.0084159998 0.80000001 -0.019637333 9.8520068e-39 314 254
-0.0070308661 0.80199999 -0.019686425 8.2843224e-39 315 254
-0.0056597595 0.80699998 -0.019809159 5.1633448e-39 316 254
-0.0042448197 0.80699998 -0.019809159 4.1491915e-39 317 254
-0.0028439066 0.81099999 -0.019907346 7.9281389e-39 318 254
-0.023726106 0.796 -0.0209348 8.179885e-39 303 255
-0.022330454 0.796 -0.0209348 1.5979445e-38 304 255
-0.0208822 0.79400003 -0.0208822 1.671414e-38 305 255
-0.019490054 0.79400003 -0.0208822 1.6258913e-38 306 255
-0.018097907 0.79400003 -0.0208822 1.6074882e-38 307 255
-0.016705759 0.79400003 -0.0208822 1.5336591e-38 308 255
-0.015313613 0.79400003 -0.0208822 1.5152917e-38 309 255
-0.013921468 0.79400003 -0.0208822 1.3965535e-38 310 255
-0.01256088 0.796 -0.0209348 1.4610905e-38 311 255
-0.011165227 0.796 -0.0209348 1.2780681e-38 312 255
-0.0097941197 0.79799998 -0.020987399 1.3887029e-38 313 255
-0.0084159998 0.80000001 -0.02104 8.8432625e-39 314 255
-0.0070308661 0.80199999 -0.021092599 7.9213062e-39 315 255
-0.0056597595 0.80699998 -0.021224098 5.9102691e-39 316 255
-0.0042448197 0.80699998 -0.021224098 6.6478342e-39 317 255
-0.02512176 0.796 -0.022330454 1.5177395e-38 302 256
-0.023726106 0.796 -0.022330454 9.7378528e-39 303 256
-0.022330454 0.796 -0.022330454 1.6346784e-38 304 256
-0.0208822 0.79400003 -0.022274347 1.7174392e-38 305 256
-0.01944096 0.792 -0.022218239 1.6076322e-38 306 256
-0.018052319 0.792 -0.022218239 1.4969976e-38 307 256
-0.01666368 0.792 -0.022218239 1.5061083e-38 308 256
-0.015313613 0.79400003 -0.022274347 1.6074159e-38 309 256
-0.013921468 0.79400003 -0.022274347 1.3877658e-38 310 256
-0.01256088 0.796 -0.022330454 1.3692908e-38 311 256
-0.011165227 0.796 -0.022330454 1.2869283e-38 312 256
-0.0098186666 0.80000001 -0.022442667 1.4989782e-38 313 256
-0.0084370393 0.80199999 -0.022498772 8.5706357e-39 314 256
-0.0070746993 0.80699998 -0.022639038 8.5706357e-39 315 256
-0.0056597595 0.80699998 -0.022639038 6.8325954e-39 316 256
-0.026517414 0.796 -0.023726106 1.124681e-38 301 257
-0.02512176 0.796 -0.023726106 1.5163725e-38 302 257
-0.023726106 0.796 -0.023726106 1.3043224e-38 303 257
-0.022330454 0.796 -0.023726106 1.6534764e-38 304 257
-0.0208822 0.79400003 -0.023666494 1.662696e-38 305 257
-0.01944096 0.792 -0.02360688 1.5890844e-38 306 257
-0.018052319 0.792 -0.02360688 1.4969245e-38 307 257
-0.01666368 0.792 -0.02360688 1.4697338e-38 308 257
-0.015313613 0.79400003 -0.023666494 1.5619296e-38 309 257
-0.013921468 0.79400003 -0.023666494 1.3694709e-38 310 257
-0.01256088 0.796 -0.023726106 1.3141535e-38 311 257
-0.011165227 0.796 -0.023726106 1.241047e-38 312 257
-0.0098186666 0.80000001 -0.023845334 1.4623525e-38 313 257
-0.0084686 0.80500001 -0.023994366 8.3902073e-39 314 257
-0.0070746993 0.80699998 -0.02405398 8.3902073e-39 315 257
-0.026450787 0.79400003 -0.02505864 7.279157e-39 301 258
-0.02505864 0.79400003 -0.02505864 1.542844e-38 302 258
-0.023666494 0.79400003 -0.02505864 1.6164929e-38 303 258
-0.022274347 0.79400003 -0.02505864 1.6446885e-38 304 258
-0.020777 0.79000002 -0.024932399 1.6078103e-38 305 258
-0.019391866 0.79000002 -0.024932399 1.5612462e-38 306 258
-0.018006733 0.79000002 -0.024932399 1.5152917e-38 307 258
-0.01666368 0.792 -0.024995519 1.4333242e-38 308 258
-0.01527504 0.792 -0.024995519 1.4978611e-38 309 258
-0.013921468 0.79400003 -0.02505864 1.3692561e-38 310 258
-0.01256088 0.796 -0.02512176 1.3047192e-38 311 258
-0.011193279 0.79799998 -0.025184877 1.2137846e-38 312 258
-0.0098432126 0.80199999 -0.02531112 1.4350899e-38 313 258
-0.0084896395 0.80699998 -0.025468919 7.1063054e-39 314 258
-0.027702667 0.79000002 -0.026317533 1.5663197e-38 300 259
-0.026317533 0.79000002 -0.026317533 5.7060677e-39 301 259
-0.024995519 0.792 -0.02638416 1.5703926e-38 302 259
-0.02360688 0.792 -0.02638416 1.7361655e-38 303 259
-0.022218239 0.792 -0.02638416 1.6261065e-38 304 259
-0.020777 0.79000002 -0.026317533 1.5247272e-38 305 259
-0.019391866 0.79000002 -0.026317533 1.5244762e-38 306 259
-0.018006733 0.79000002 -0.026317533 1.6072731e-38 307 259
-0.016621601 0.79000002 -0.026317533 1.3969867e-38 308 259
-0.01527504 0.792 -0.02638416 1.3509249e-38 309 259
-0.013921468 0.79400003 -0.026450787 1.304756e-38 310 259
-0.01256088 0.796 -0.026517414 1.3324147e-38 311 259
-0.011221333 0.80000001 -0.026650665 1.1317073e-38 312 259
-0.0098554865 0.80299997 -0.026750606 1.2976594e-38 313 259
-0.029087799 0.79000002 -0.027702667 1.502755e-38 299 260
-0.027702667 0.79000002 -0.027702667 1.5283618e-38 300 260
-0.026317533 0.79000002 -0.027702667 7.1704022e-39 301 260
-0.024932399 0.79000002 -0.027702667 1.6071282e-38 302 260
-0.023547266 0.79000002 -0.027702667 1.800739e-38 303 260
-0.022218239 0.792 -0.027772799 1.6445112e-38 304 260
-0.0207507 0.78899997 -0.027667599 1.4785591e-38 305 260
-0.019367319 0.78899997 -0.027667599 1.4877423e-38 306 260
-0.017983939 0.78899997 -0.027667599 1.5980901e-38 307 260
-0.016621601 0.79000002 -0.027702667 1.3599642e-38 308 260
-0.01527504 0.792 -0.027772799 1.3323055e-38 309 260
-0.013921468 0.79400003 -0.027842935 1.2679847e-38 310 260
-0.01256088 0.796 -0.027913066 1.3509968e-38 311 260
-0.011249386 0.80199999 -0.028123464 1.0860411e-38 312 260
-0.0098800333 0.80500001 -0.028228667 1.2243704e-38 313 260
-0.030550079 0.792 -0.029161438 1.7701929e-38 298 261
-0.029087799 0.79000002 -0.029087799 1.2446779e-38 299 261
-0.027702667 0.79000002 -0.029087799 1.4350136e-38 300 261
-0.026317533 0.79000002 -0.029087799 1.0754506e-38 301 261
-0.024932399 0.79000002 -0.029087799 1.6629475e-38 302 261
-0.023547266 0.79000002 -0.029087799 1.7182649e-38 303 261
-0.022162134 0.79000002 -0.029087799 1.5520632e-38 304 261
-0.0207507 0.78899997 -0.02905098 1.4510069e-38 305 261
-0.019367319 0.78899997 -0.02905098 1.4236377e-38 306 261
-0.017983939 0.78899997 -0.02905098 1.4789551e-38 307 261
-0.016621601 0.79000002 -0.029087799 1.3413099e-38 308 261
-0.015236467 0.79000002 -0.029087799 1.2859926e-38 309 261
-0.013921468 0.79400003 -0.029235078 1.2128841e-38 310 261
-0.01256088 0.796 -0.029308718 1.4064949e-38 311 261
-0.011263412 0.80299997 -0.029566457 9.5801017e-39 312 261
-0.0098800333 0.80500001 -0.029640101 1.0686809e-38 313 261
-0.031938717 0.792 -0.030550079 1.72424e-38 297 262
-0.030472934 0.79000002 -0.030472934 1.7425289e-38 298 262
-0.029087799 0.79000002 -0.030472934 1.0510257e-38 299 262
-0.027667599 0.78899997 -0.030434359 1.3048556e-38 300 262
-0.026284218 0.78899997 -0.030434359 1.3970513e-38 301 262
-0.024932399 0.79000002 -0.030472934 1.6541601e-38 302 262
-0.023547266 0.79000002 -0.030472934 1.5527451e-38 303 262
-0.022162134 0.79000002 -0.030472934 1.4510423e-38 304 262
-0.0207507 0.78899997 -0.030434359 1.4602619e-38 305 262
-0.019367319 0.78899997 -0.030434359 1.3963014e-38 306 262
-0.017983939 0.78899997 -0.030434359 1.3870819e-38 307 262
-0.016621601 0.79000002 -0.030472934 1.3045389e-38 308 262
-0.015236467 0.79000002 -0.030472934 1.2769163e-38 309 262
-0.013921468 0.79400003 -0.030627226 1.1489943e-38 310 262
-0.01256088 0.796 -0.030704373 1.3794832e-38 311 262
-0.011263412 0.80299997 -0.030974386 8.8504498e-39 312 262
-0.033201117 0.78899997 -0.031817738 1.7333873e-38 296 263
-0.031817738 0.78899997 -0.031817738 1.7333873e-38 297 263
-0.030472934 0.79000002 -0.031858064 1.7608958e-38 298 263
-0.02905098 0.78899997 -0.031817738 1.4566502e-38 299 263
-0.027667599 0.78899997 -0.031817738 1.4816818e-38 300 263
-0.026284218 0.78899997 -0.031817738 1.5738773e-38 301 263
-0.024932399 0.79000002 -0.031858064 1.5813372e-38 302 263
-0.023547266 0.79000002 -0.031858064 1.1941155e-38 303 263
-0.022162134 0.79000002 -0.031858064 1.3868628e-38 304 263
-0.0207507 0.78899997 -0.031817738 1.4698389e-38 305 263
-0.019367319 0.78899997 -0.031817738 1.3506348e-38 306 263
-0.017983939 0.78899997 -0.031817738 1.2953176e-38 307 263
-0.016621601 0.79000002 -0.031858064 1.2401819e-38 308 263
-0.015236467 0.79000002 -0.031858064 1.3231939e-38 309 263
-0.013921468 0.79400003 -0.032019373 1.1039041e-38 310 263
-0.01256088 0.796 -0.032100026 1.2882954e-38 311 263
-0.034584496 0.78899997 -0.033201117 1.7333517e-38 295 264
-0.033201117 0.78899997 -0.033201117 1.733387e-38 296 264
-0.031817738 0.78899997 -0.033201117 1.733387e-38 297 264
-0.030434359 0.78899997 -0.033201117 1.770228e-38 298 264
-0.02905098 0.78899997 -0.033201117 1.7518249e-38 299 264
-0.027667599 0.78899997 -0.033201117 1.8891102e-38 300 264
-0.026284218 0.78899997 -0.033201117 1.7139387e-38 301 264
-0.024900839 0.78899997 -0.033201117 1.6107557e-38 302 264
-0.023517458 0.78899997 -0.033201117 1.0483622e-38 303 264
-0.022134079 0.78899997 -0.033201117 1.332118e-38 304 264
-0.0207507 0.78899997 -0.033201117 1.4150941e-38 305 264
-0.019367319 0.78899997 -0.033201117 1.2770582e-38 306 264
-0.017983939 0.78899997 -0.033201117 1.258619e-38 307 264
-0.016621601 0.79000002 -0.033243202 1.1852241e-38 308 264
-0.015236467 0.79000002 -0.033243202 1.3419567e-38 309 264
-0.013956533 0.796 -0.033495679 1.0220433e-38 310 264
-0.012592439 0.79799998 -0.033579841 1.1603368e-38 311 264
-0.034496833 0.787 -0.034496833 1.7150205e-38 295 265
-0.033116959 0.787 -0.034496833 1.7150558e-38 296 265
-0.031737085 0.787 -0.034496833 1.7150558e-38 297 265
-0.03035721 0.787 -0.034496833 1.7150921e-38 298 265
-0.02905098 0.78899997 -0.034584496 1.7427868e-38 299 265
-0.027667599 0.78899997 -0.034584496 1.8345864e-38 300 265
-0.026284218 0.78899997 -0.034584496 1.7331352e-38 301 265
-0.024900839 0.78899997 -0.034584496 1.7228335e-38 302 265
-0.023517458 0.78899997 -0.034584496 1.437027e-38 303 265
-0.022134079 0.78899997 -0.034584496 1.3798018e-38 304 265
-0.0206981 0.787 -0.034496833 1.1492769e-38 305 265
-0.019318225 0.787 -0.034496833 1.166424e-38 306 265
-0.017983939 0.78899997 -0.034584496 1.2585838e-38 307 265
-0.016621601 0.79000002 -0.034628332 1.1762932e-38 308 265
-0.01527504 0.792 -0.034715999 1.3791596e-38 309 265
-0.013991599 0.79799998 -0.034978997 9.5837016e-39 310 265
-0.035967879 0.78899997 -0.035967879 1.7426068e-38 294 266
-0.034496833 0.787 -0.035876706 1.7333873e-38 295 266
-0.033116959 0.787 -0.035876706 1.7426066e-38 296 266
-0.031737085 0.787 -0.035876706 1.7426066e-38 297 266
-0.03035721 0.787 -0.035876706 1.7150921e-38 298 266
-0.02897734 0.787 -0.035876706 1.7150921e-38 299 266
-0.027597465 0.787 -0.035876706 1.6784665e-38 300 266
-0.026217593 0.787 -0.035876706 1.60471e-38 301 266
-0.024900839 0.78899997 -0.035967879 1.7329204e-38 302 266
-0.023517458 0.78899997 -0.035967879 1.6315052e-38 303 266
-0.022134079 0.78899997 -0.035967879 1.5197882e-38 304 266
-0.0206981 0.787 -0.035876706 1.0034927e-38 305 266
-0.019318225 0.787 -0.035876706 1.0659071e-38 306 266
-0.017983939 0.78899997 -0.035967879 1.0935658e-38 307 266
-0.016621601 0.79000002 -0.036013465 1.0486223e-38 308 266
-0.01527504 0.792 -0.036104638 1.2330136e-38 309 266
-0.035967879 0.78899997 -0.037351258 1.7334952e-38 294 267
-0.034496833 0.787 -0.03725658 1.7334952e-38 295 267
-0.033116959 0.787 -0.03725658 1.7334952e-38 296 267
-0.031737085 0.787 -0.03725658 1.7242756e-38 297 267
-0.03035721 0.787 -0.03725658 1.687506e-38 298 267
-0.02897734 0.787 -0.03725658 1.687506e-38 299 267
-0.027597465 0.787 -0.03725658 1.6046747e-38 300 267
-0.026217593 0.787 -0.03725658 1.5032596e-38 301 267
-0.024837719 0.787 -0.03725658 1.5032602e-38 302 267
-0.023517458 0.78899997 -0.037351258 1.484785e-38 303 267
-0.022134079 0.78899997 -0.037351258 1.5209062e-38 304 267
-0.0207507 0.78899997 -0.037351258 1.2811615e-38 305 267
-0.019367319 0.78899997 -0.037351258 1.0396176e-38 306 267
-0.017983939 0.78899997 -0.037351258 1.0396176e-38 307 267
-0.01674784 0.796 -0.037682641 9.7619762e-39 308 267
-0.03725658 0.787 -0.03863645 1.7335671e-38 293 268
-0.035876706 0.787 -0.03863645 1.7611533e-38 294 268
-0.034409165 0.78500003 -0.03853827 1.7611533e-38 295 268
-0.033032801 0.78500003 -0.03853827 1.7978521e-38 296 268
-0.031656433 0.78500003 -0.03853827 1.8070716e-38 297 268
-0.030280067 0.78500003 -0.03853827 1.7518634e-38 298 268
-0.02897734 0.787 -0.03863645 1.6689232e-38 299 268
-0.027597465 0.787 -0.03863645 1.5677971e-38 300 268
-0.026217593 0.787 -0.03863645 1.484785e-38 301 268
-0.024837719 0.787 -0.03863645 1.4388317e-38 302 268
-0.023517458 0.78899997 -0.038734637 1.4019536e-38 303 268
-0.022134079 0.78899997 -0.038734637 1.3832977e-38 304 268
-0.0207507 0.78899997 -0.038734637 1.3095412e-38 305 268
-0.019367319 0.78899997 -0.038734637 1.0780087e-38 306 268
-0.018006733 0.79000002 -0.038783733 8.3833605e-39 307 268
-0.038734637 0.78899997 -0.040118016 1.7520063e-38 292 269
-0.03725658 0.787 -0.040016327 1.7704094e-38 293 269
-0.035785533 0.78500003 -0.039914634 1.7613334e-38 294 269
-0.034409165 0.78500003 -0.039914634 1.7613334e-38 295 269
-0.033032801 0.78500003 -0.039914634 1.7888844e-38 296 269
-0.031656433 0.78500003 -0.039914634 1.8257628e-38 297 269
-0.030280067 0.78500003 -0.039914634 1.7705179e-38 298 269
-0.0289037 0.78500003 -0.039914634 1.6137495e-38 299 269
-0.027597465 0.787 -0.040016327 1.5584692e-38 300 269
-0.026217593 0.787 -0.040016327 1.5031518e-38 301 269
-0.024837719 0.787 -0.040016327 1.4019536e-38 302 269
-0.023457846 0.787 -0.040016327 1.3281971e-38 303 269
-0.022134079 0.78899997 -0.040118016 1.2546204e-38 304 269
-0.0207507 0.78899997 -0.040118016 1.2085225e-38 305 269
-0.019367319 0.78899997 -0.040118016 1.023735e-38 306 269
-0.018143492 0.796 -0.040473945 8.8544154e-39 307 269
-0.040270559 0.792 -0.041659199 1.7056937e-38 291 270
-0.038734637 0.78899997 -0.041501399 1.668995e-38 292 270
-0.037161902 0.78500003 -0.041291002 1.7058372e-38 293 270
-0.035785533 0.78500003 -0.041291002 1.7244565e-38 294 270
-0.034321502 0.78299999 -0.0411858 1.7797739e-38 295 270
-0.032948639 0.78299999 -0.0411858 1.8350193e-38 296 270
-0.031656433 0.78500003 -0.041291002 1.8165801e-38 297 270
-0.030280067 0.78500003 -0.041291002 1.6877581e-38 298 270
-0.0289037 0.78500003 -0.041291002 1.5586842e-38 299 270
-0.027527334 0.78500003 -0.041291002 1.5308826e-38 300 270
-0.026150968 0.78500003 -0.041291002 1.4571261e-38 301 270
-0.024837719 0.787 -0.041396201 1.3834427e-38 302 270
-0.023457846 0.787 -0.041396201 1.3096503e-38 303 270
-0.022134079 0.78899997 -0.041501399 1.2544407e-38 304 270
-0.020777 0.79000002 -0.041554 1.2175626e-38 305 270
-0.019391866 0.79000002 -0.041554 8.7661827e-39 306 270
-0.041764401 0.79400003 -0.043156546 1.6043863e-38 290 271
-0.040168867 0.79000002 -0.04293913 1.5766917e-38 291 271
-0.038734637 0.78899997 -0.042884778 1.49404e-38 292 271
-0.037161902 0.78500003 -0.042667367 1.5309182e-38 293 271
-0.035785533 0.78500003 -0.042667367 1.5770883e-38 294 271
-0.034321502 0.78299999 -0.042558655 1.6969426e-38 295 271
-0.032948639 0.78299999 -0.042558655 1.8810449e-38 296 271
-0.031656433 0.78500003 -0.042667367 1.816508e-38 297 271
-0.030280067 0.78500003 -0.042667367 1.6599549e-38 298 271
-0.0289037 0.78500003 -0.042667367 1.5769788e-38 299 271
-0.027527334 0.78500003 -0.042667367 1.5401024e-38 300 271
-0.026150968 0.78500003 -0.042667367 1.4294678e-38 301 271
-0.024837719 0.787 -0.042776071 1.3649677e-38 302 271
-0.023457846 0.787 -0.042776071 1.2819916e-38 303 271
-0.022162134 0.79000002 -0.04293913 1.208343e-38 304 271
-0.020829599 0.792 -0.043047838 1.1530257e-38 305 271
-0.041659199 0.792 -0.044436477 1.4202837e-38 290 272
-0.040168867 0.79000002 -0.044324268 1.2912099e-38 291 272
-0.038734637 0.78899997 -0.044268157 1.2543685e-38 292 272
-0.037161902 0.78500003 -0.044043735 1.245149e-38 293 272
-0.035785533 0.78500003 -0.044043735 1.2269262e-38 294 272
-0.034321502 0.78299999 -0.043931518 1.3560001e-38 295 272
-0.032948639 0.78299999 -0.043931518 1.5586141e-38 296 272
-0.031656433 0.78500003 -0.044043735 1.5862728e-38 297 272
-0.030280067 0.78500003 -0.044043735 1.5677968e-38 298 272
-0.0289037 0.78500003 -0.044043735 1.5493576e-38 299 272
-0.027527334 0.78500003 -0.044043735 1.5033321e-38 300 272
-0.026150968 0.78500003 -0.044043735 1.3926973e-38 301 272
-0.024837719 0.787 -0.044155944 1.3006105e-38 302 272
-0.023457846 0.787 -0.044155944 1.2176345e-38 303 272
