# .PCD v.7 - Point Cloud Data file format
FIELDS x y z rgb imX imY
SIZE 4 4 4 4 4 4
TYPE F F F F F F
COUNT 1 1 1 1 1 1
WIDTH 772
HEIGHT 1
VIEWPOINT 0 0 0 1 0 0 0
POINTS 772
DATA ascii
-0.017847179 0.78299999 0.0082371598 1.8528075e-38 307 234
-0.01647432 0.78299999 0.0082371598 1.8246433e-38 308 234
-0.01510146 0.78299999 0.0082371598 1.7785457e-38 309 234
-0.013693534 0.78100002 0.0082161194 1.7143323e-38 310 234
-0.01232418 0.78100002 0.0082161194 1.7696497e-38 311 234
-0.010954826 0.78100002 0.0082161194 1.815605e-38 312 234
-0.0205929 0.78299999 0.0068642995 1.9727697e-38 305 235
-0.019220039 0.78299999 0.0068642995 1.8896475e-38 306 235
-0.017847179 0.78299999 0.0068642995 1.8251105e-38 307 235
-0.01647432 0.78299999 0.0068642995 1.8892859e-38 308 235
-0.015062887 0.78100002 0.0068467669 1.8431883e-38 309 235
-0.013693534 0.78100002 0.0068467669 1.7509925e-38 310 235
-0.01232418 0.78100002 0.0068467669 1.8155294e-38 311 235
-0.010954826 0.78100002 0.0068467669 1.8433696e-38 312 235
-0.0095854728 0.78100002 0.0068467669 1.7419544e-38 313 235
-0.0082161194 0.78100002 0.0068467669 1.6222083e-38 314 235
-0.0068467669 0.78100002 0.0068467669 1.5484159e-38 315 235
-0.021965759 0.78299999 0.0054914397 1.8435148e-38 304 236
-0.020540299 0.78100002 0.0054774131 1.8342952e-38 305 236
-0.019170946 0.78100002 0.0054774131 1.8526617e-38 306 236
-0.017847179 0.78299999 0.0054914397 1.9171987e-38 307 236
-0.016432239 0.78100002 0.0054774131 2.0643502e-38 308 236
-0.015062887 0.78100002 0.0054774131 1.9905935e-38 309 236
-0.013693534 0.78100002 0.0054774131 1.8337522e-38 310 236
-0.01232418 0.78100002 0.0054774131 1.8705944e-38 311 236
-0.010940799 0.77999997 0.0054703997 1.8616993e-38 312 236
-0.0095731998 0.77999997 0.0054703997 1.7602839e-38 313 236
-0.0082055992 0.77999997 0.0054703997 1.6773436e-38 314 236
-0.0068379994 0.77999997 0.0054703997 1.6035871e-38 315 236
-0.0054774131 0.78100002 0.0054774131 1.5575985e-38 316 236
-0.0041080597 0.78100002 0.0054774131 1.4930615e-38 317 236
-0.0027387065 0.78100002 0.0054774131 1.4015531e-38 318 236
-0.023279008 0.78100002 0.0041080597 1.7050411e-38 303 237
-0.021909652 0.78100002 0.0041080597 1.7701166e-38 304 237
-0.020540299 0.78100002 0.0041080597 1.8623482e-38 305 237
-0.019170946 0.78100002 0.0041080597 1.9634041e-38 306 237
-0.017801592 0.78100002 0.0041080597 2.0002464e-38 307 237
-0.016432239 0.78100002 0.0041080597 2.1381067e-38 308 237
-0.015062887 0.78100002 0.0041080597 2.1011924e-38 309 237
-0.013693534 0.78100002 0.0041080597 1.9813371e-38 310 237
-0.01232418 0.78100002 0.0041080597 1.9260197e-38 311 237
-0.010940799 0.77999997 0.0041027996 1.852515e-38 312 237
-0.0095731998 0.77999997 0.0041027996 1.7603193e-38 313 237
-0.0082055992 0.77999997 0.0041027996 1.6589758e-38 314 237
-0.0068204664 0.778 0.0040922803 1.6036943e-38 315 237
-0.0054563731 0.778 0.0040922803 1.6496846e-38 316 237
-0.0041027996 0.77999997 0.0041027996 1.5851477e-38 317 237
-0.0027351999 0.77999997 0.0041027996 1.5300486e-38 318 237
-0.0013693533 0.78100002 0.0041080597 1.5761825e-38 319 237
0 0.78100002 0.0041080597 1.6135683e-38 320 237
-0.024711479 0.78299999 0.0027457199 1.4470709e-38 302 238
-0.023279008 0.78100002 0.0027387065 1.5484862e-38 303 238
-0.021909652 0.78100002 0.0027387065 1.8434765e-38 304 238
-0.020513998 0.77999997 0.0027351999 2.0278678e-38 305 238
-0.0191464 0.77999997 0.0027351999 2.1015174e-38 306 238
-0.017801592 0.78100002 0.0027387065 2.1107369e-38 307 238
-0.016432239 0.78100002 0.0027387065 2.0740019e-38 308 238
-0.015062887 0.78100002 0.0027387065 2.092405e-38 309 238
-0.013675999 0.77999997 0.0027351999 2.1011924e-38 310 238
-0.012308398 0.77999997 0.0027351999 1.981374e-38 311 238
-0.010940799 0.77999997 0.0027351999 1.8341485e-38 312 238
-0.0095731998 0.77999997 0.0027351999 1.7696115e-38 313 238
-0.0082055992 0.77999997 0.0027351999 1.6958901e-38 314 238
-0.0068204664 0.778 0.0027281865 1.6589758e-38 315 238
-0.0054563731 0.778 0.0027281865 1.7140063e-38 316 238
-0.0041027996 0.77999997 0.0027351999 1.7232259e-38 317 238
-0.0027351999 0.77999997 0.0027351999 1.6037686e-38 318 238
-0.0013675999 0.77999997 0.0027351999 1.5300121e-38 319 238
0 0.77999997 0.0027351999 1.4104467e-38 320 238
0.0013675999 0.77999997 0.0027351999 1.5118619e-38 321 238
0.0027387065 0.78100002 0.0027387065 1.6317162e-38 322 238
0.0041080597 0.78100002 0.0027387065 1.5026423e-38 323 238
-0.026217593 0.787 0.0013798733 1.2539665e-38 301 239
-0.024711479 0.78299999 0.0013728599 1.5024962e-38 302 239
-0.023279008 0.78100002 0.0013693533 1.6868516e-38 303 239
-0.021909652 0.78100002 0.0013693533 1.9262383e-38 304 239
-0.020513998 0.77999997 0.0013675999 2.0276537e-38 305 239
-0.0191464 0.77999997 0.0013675999 2.055564e-38 306 239
-0.017801592 0.78100002 0.0013693533 2.0186858e-38 307 239
-0.016432239 0.78100002 0.0013693533 2.0370523e-38 308 239
-0.0150436 0.77999997 0.0013675999 2.046272e-38 309 239
-0.013675999 0.77999997 0.0013675999 2.0644946e-38 310 239
-0.012308398 0.77999997 0.0013675999 1.9354208e-38 311 239
-0.010940799 0.77999997 0.0013675999 1.8158541e-38 312 239
-0.0095731998 0.77999997 0.0013675999 1.8987942e-38 313 239
-0.0081845606 0.778 0.0013640933 1.9539675e-38 314 239
-0.0068204664 0.778 0.0013640933 1.9263087e-38 315 239
-0.0054563731 0.778 0.0013640933 1.8519759e-38 316 239
-0.0040922803 0.778 0.0013640933 1.6952432e-38 317 239
-0.0027351999 0.77999997 0.0013675999 1.3734938e-38 318 239
-0.0013675999 0.77999997 0.0013675999 1.3734938e-38 319 239
0 0.77999997 0.0013675999 1.4287044e-38 320 239
0.0013693533 0.78100002 0.0013693533 1.4747663e-38 321 239
0.0027387065 0.78100002 0.0013693533 1.5118972e-38 322 239
0.0041080597 0.78100002 0.0013693533 1.45658e-38 323 239
0.0054774131 0.78100002 0.0013693533 1.4376372e-38 324 239
-0.02905098 0.78899997 -0 1.4296106e-38 299 240
-0.027597465 0.787 -0 1.2081571e-38 300 240
-0.026217593 0.787 -0 1.2358518e-38 301 240
-0.024711479 0.78299999 -0 1.6035884e-38 302 240
-0.023279008 0.78100002 -0 1.8064188e-38 303 240
-0.021909652 0.78100002 -0 1.8433711e-38 304 240
-0.020513998 0.77999997 -0 1.8618463e-38 305 240
-0.0191464 0.77999997 -0 1.9173785e-38 306 240
-0.017801592 0.78100002 -0 1.9450011e-38 307 240
-0.016432239 0.78100002 -0 1.9356731e-38 308 240
-0.0150436 0.77999997 -0 1.9725154e-38 309 240
-0.013675999 0.77999997 -0 1.9817337e-38 310 240
-0.012308398 0.77999997 -0 1.9079772e-38 311 240
-0.010912746 0.778 -0 1.8342572e-38 312 240
-0.0095486529 0.778 -0 1.926453e-38 313 240
-0.0081845606 0.778 -0 1.9999945e-38 314 240
-0.0068029333 0.77600002 -0 2.0184338e-38 315 240
-0.0054423464 0.77600002 -0 1.9443141e-38 316 240
-0.0040817601 0.77600002 -0 1.6769468e-38 317 240
-0.0027281865 0.778 -0 1.4468523e-38 318 240
-0.0013640933 0.778 -0 1.4284132e-38 319 240
0 0.778 -0 1.4470706e-38 320 240
0.0013675999 0.77999997 -0 1.4747653e-38 321 240
0.0027351999 0.77999997 -0 1.5484159e-38 322 240
0.0041027996 0.77999997 -0 1.5299768e-38 323 240
0.0054774131 0.78100002 -0 1.4560776e-38 324 240
0.0068467669 0.78100002 -0 1.363882e-38 325 240
-0.030434359 0.78899997 -0.0013833799 1.9182824e-38 298 241
-0.02905098 0.78899997 -0.0013833799 1.0608631e-38 299 241
-0.027597465 0.787 -0.0013798733 9.5026113e-39 300 241
-0.026217593 0.787 -0.0013798733 1.1991893e-38 301 241
-0.024711479 0.78299999 -0.0013728599 1.6128085e-38 302 241
-0.023279008 0.78100002 -0.0013693533 1.7326269e-38 303 241
-0.021909652 0.78100002 -0.0013693533 1.6773468e-38 304 241
-0.020513998 0.77999997 -0.0013675999 1.6865664e-38 305 241
-0.0191464 0.77999997 -0.0013675999 1.7514986e-38 306 241
-0.017801592 0.78100002 -0.0013693533 1.7514986e-38 307 241
-0.016411198 0.77999997 -0.0013675999 1.7695778e-38 308 241
-0.0150436 0.77999997 -0.0013675999 1.7880528e-38 309 241
-0.013640933 0.778 -0.0013640933 1.7330955e-38 310 241
-0.012276839 0.778 -0.0013640933 1.7054727e-38 311 241
-0.010912746 0.778 -0.0013640933 1.815604e-38 312 241
-0.009524107 0.77600002 -0.0013605866 1.9262027e-38 313 241
-0.0081635201 0.77600002 -0.0013605866 1.908087e-38 314 241
-0.0068029333 0.77600002 -0.0013605866 1.908087e-38 315 241
-0.0054423464 0.77600002 -0.0013605866 1.9169448e-38 316 241
-0.0040817601 0.77600002 -0.0013605866 1.7786513e-38 317 241
-0.0027281865 0.778 -0.0013640933 1.6400312e-38 318 241
-0.0013640933 0.778 -0.0013640933 1.4832987e-38 319 241
0 0.778 -0.0013640933 1.4378139e-38 320 241
0.0013675999 0.77999997 -0.0013675999 1.4839117e-38 321 241
0.0027351999 0.77999997 -0.0013675999 1.5390517e-38 322 241
0.0041027996 0.77999997 -0.0013675999 1.5298321e-38 323 241
0.0054703997 0.77999997 -0.0013675999 1.4744432e-38 324 241
0.0068379994 0.77999997 -0.0013675999 1.4099062e-38 325 241
0.0082055992 0.77999997 -0.0013675999 1.3637005e-38 326 241
-0.031817738 0.78899997 -0.0027667598 2.0744761e-38 297 242
-0.030434359 0.78899997 -0.0027667598 1.7799514e-38 298 242
-0.02897734 0.787 -0.0027597465 9.7788548e-39 299 242
-0.027597465 0.787 -0.0027597465 1.0323725e-38 300 242
-0.026217593 0.787 -0.0027597465 1.3550572e-38 301 242
-0.024711479 0.78299999 -0.0027457199 1.6035531e-38 302 242
-0.023279008 0.78100002 -0.0027387065 1.7050043e-38 303 242
-0.021909652 0.78100002 -0.0027387065 1.6497958e-38 304 242
-0.020513998 0.77999997 -0.0027351999 1.6405761e-38 305 242
-0.0191464 0.77999997 -0.0027351999 1.6775619e-38 306 242
-0.017801592 0.78100002 -0.0027387065 1.6683424e-38 307 242
-0.016411198 0.77999997 -0.0027351999 1.6129531e-38 308 242
-0.0150436 0.77999997 -0.0027351999 1.6221727e-38 309 242
-0.013640933 0.778 -0.0027281865 1.6316809e-38 310 242
-0.012276839 0.778 -0.0027281865 1.6869983e-38 311 242
-0.010884693 0.77600002 -0.0027211732 1.806421e-38 312 242
-0.009524107 0.77600002 -0.0027211732 1.8801775e-38 313 242
-0.0081635201 0.77600002 -0.0027211732 1.9446423e-38 314 242
-0.0068029333 0.77600002 -0.0027211732 1.9169834e-38 315 242
-0.0054423464 0.77600002 -0.0027211732 1.8434052e-38 316 242
-0.0040817601 0.77600002 -0.0027211732 1.8249302e-38 317 242
-0.0027211732 0.77600002 -0.0027211732 1.833607e-38 318 242
-0.0013640933 0.778 -0.0027281865 1.6123375e-38 319 242
0 0.778 -0.0027281865 1.4745485e-38 320 242
0.0013640933 0.778 -0.0027281865 1.4560735e-38 321 242
0.0027281865 0.778 -0.0027281865 1.3824633e-38 322 242
0.0040922803 0.778 -0.0027281865 1.391683e-38 323 242
0.0054703997 0.77999997 -0.0027351999 1.4192344e-38 324 242
0.0068379994 0.77999997 -0.0027351999 1.3731366e-38 325 242
0.0082055992 0.77999997 -0.0027351999 1.3271467e-38 326 242
-0.033201117 0.78899997 -0.0041501396 2.1852182e-38 296 243
-0.031737085 0.787 -0.0041396199 1.9731682e-38 297 243
-0.03035721 0.787 -0.0041396199 1.7149812e-38 298 243
-0.02897734 0.787 -0.0041396199 1.0880511e-38 299 243
-0.027597465 0.787 -0.0041396199 1.197856e-38 300 243
-0.026150968 0.78500003 -0.0041291001 1.4283091e-38 301 243
-0.024711479 0.78299999 -0.0041185799 1.5576357e-38 302 243
-0.023279008 0.78100002 -0.0041080597 1.67749e-38 303 243
-0.021909652 0.78100002 -0.0041080597 1.7050411e-38 304 243
-0.020513998 0.77999997 -0.0041027996 1.6958216e-38 305 243
-0.0191464 0.77999997 -0.0041027996 1.6406838e-38 306 243
-0.017801592 0.78100002 -0.0041080597 1.5669273e-38 307 243
-0.016411198 0.77999997 -0.0041027996 1.4470359e-38 308 243
-0.0150436 0.77999997 -0.0041027996 1.4562554e-38 309 243
-0.013640933 0.778 -0.0040922803 1.5027142e-38 310 243
-0.01224528 0.77600002 -0.0040817601 1.6317881e-38 311 243
-0.010884693 0.77600002 -0.0040817601 1.7880542e-38 312 243
-0.009524107 0.77600002 -0.0040817601 1.8433716e-38 313 243
-0.0081635201 0.77600002 -0.0040817601 1.8893605e-38 314 243
-0.0068029333 0.77600002 -0.0040817601 1.8616658e-38 315 243
-0.0054423464 0.77600002 -0.0040817601 1.83415e-38 316 243
-0.0040817601 0.77600002 -0.0040817601 1.8710283e-38 317 243
-0.0027211732 0.77600002 -0.0040817601 1.9075821e-38 318 243
-0.0013640933 0.778 -0.0040922803 1.7877278e-38 319 243
0 0.778 -0.0040922803 1.5480912e-38 320 243
0.0013640933 0.778 -0.0040922803 1.4374923e-38 321 243
0.0027281865 0.778 -0.0040922803 1.2626094e-38 322 243
0.0040922803 0.778 -0.0040922803 1.3087071e-38 323 243
0.0054703997 0.77999997 -0.0041027996 1.3548775e-38 324 243
0.0068379994 0.77999997 -0.0041027996 1.3640971e-38 325 243
-0.033116959 0.787 -0.005519493 2.1760336e-38 296 244
-0.031737085 0.787 -0.005519493 1.9455444e-38 297 244
-0.03035721 0.787 -0.005519493 1.7514984e-38 298 244
-0.02897734 0.787 -0.005519493 1.2997398e-38 299 244
-0.027597465 0.787 -0.005519493 1.1889231e-38 300 244
-0.026150968 0.78500003 -0.0055054668 1.3272166e-38 301 244
-0.024711479 0.78299999 -0.0054914397 1.5024623e-38 302 244
-0.023279008 0.78100002 -0.0054774131 1.5946938e-38 303 244
-0.021909652 0.78100002 -0.0054774131 1.5669279e-38 304 244
-0.020513998 0.77999997 -0.0054703997 1.5576723e-38 305 244
-0.0191464 0.77999997 -0.0054703997 1.5579597e-38 306 244
-0.017801592 0.78100002 -0.0054774131 1.4842032e-38 307 244
-0.016411198 0.77999997 -0.0054703997 1.3366532e-38 308 244
-0.015005025 0.778 -0.0054563731 1.3550925e-38 309 244
-0.013640933 0.778 -0.0054563731 1.4013711e-38 310 244
-0.01224528 0.77600002 -0.0054423464 1.5304449e-38 311 244
-0.010884693 0.77600002 -0.0054423464 1.6867467e-38 312 244
-0.009524107 0.77600002 -0.0054423464 1.6959664e-38 313 244
-0.0081635201 0.77600002 -0.0054423464 1.7050411e-38 314 244
-0.0068029333 0.77600002 -0.0054423464 1.686602e-38 315 244
-0.0054423464 0.77600002 -0.0054423464 1.7050045e-38 316 244
-0.0040817601 0.77600002 -0.0054423464 1.7510665e-38 317 244
-0.0027211732 0.77600002 -0.0054423464 1.7878371e-38 318 244
-0.0013605866 0.77600002 -0.0054423464 1.769398e-38 319 244
0 0.77600002 -0.0054423464 1.6125931e-38 320 244
0.0013640933 0.778 -0.0054563731 1.4742997e-38 321 244
0.0027281865 0.778 -0.0054563731 1.2993798e-38 322 244
0.0040922803 0.778 -0.0054563731 1.3086352e-38 323 244
0.0054563731 0.778 -0.0054563731 1.3364028e-38 324 244
0.0068204664 0.778 -0.0054563731 1.4009397e-38 325 244
-0.033116959 0.787 -0.0068993662 2.1301153e-38 296 245
-0.031737085 0.787 -0.0068993662 1.8719676e-38 297 245
-0.030434359 0.78899997 -0.0069168997 1.7332387e-38 298 245
-0.02905098 0.78899997 -0.0069168997 1.428993e-38 299 245
-0.027597465 0.787 -0.0068993662 1.3453312e-38 300 245
-0.026217593 0.787 -0.0068993662 1.4190877e-38 301 245
-0.024711479 0.78299999 -0.0068642995 1.465547e-38 302 245
-0.02333862 0.78299999 -0.0068642995 1.5393035e-38 303 245
-0.021909652 0.78100002 -0.0068467669 1.4652976e-38 304 245
-0.020513998 0.77999997 -0.0068379994 1.3823214e-38 305 245
-0.0191464 0.77999997 -0.0068379994 1.447182e-38 306 245
-0.017778799 0.77999997 -0.0068379994 1.4656211e-38 307 245
-0.016411198 0.77999997 -0.0068379994 1.3548419e-38 308 245
-0.015005025 0.778 -0.0068204664 1.3456224e-38 309 245
-0.013640933 0.778 -0.0068204664 1.355094e-38 310 245
-0.01224528 0.77600002 -0.0068029333 1.419631e-38 311 245
-0.010884693 0.77600002 -0.0068029333 1.5207222e-38 312 245
-0.009524107 0.77600002 -0.0068029333 1.5299417e-38 313 245
-0.0081635201 0.77600002 -0.0068029333 1.5207205e-38 314 245
-0.0068029333 0.77600002 -0.0068029333 1.4930259e-38 315 245
-0.0054423464 0.77600002 -0.0068029333 1.5022458e-38 316 245
-0.0040817601 0.77600002 -0.0068029333 1.5299045e-38 317 245
-0.0027211732 0.77600002 -0.0068029333 1.5760744e-38 318 245
-0.0013605866 0.77600002 -0.0068029333 1.6037333e-38 319 245
0 0.77600002 -0.0068029333 1.557491e-38 320 245
0.0013605866 0.77600002 -0.0068029333 1.4376367e-38 321 245
0.0027281865 0.778 -0.0068204664 1.2809042e-38 322 245
0.0040922803 0.778 -0.0068204664 1.2716488e-38 323 245
0.0054563731 0.778 -0.0068204664 1.2995248e-38 324 245
0.0068204664 0.778 -0.0068204664 1.4009041e-38 325 245
0.0081845606 0.778 -0.0068204664 1.3550239e-38 326 245
-0.033116959 0.787 -0.0082792398 2.0655784e-38 296 246
-0.031737085 0.787 -0.0082792398 1.7798078e-38 297 246
-0.030434359 0.78899997 -0.0083002793 1.6872137e-38 298 246
-0.02905098 0.78899997 -0.0083002793 1.5488843e-38 299 246
-0.027597465 0.787 -0.0082792398 1.6122316e-38 300 246
-0.026217593 0.787 -0.0082792398 1.5569142e-38 301 246
-0.024711479 0.78299999 -0.0082371598 1.4377804e-38 302 246
-0.02333862 0.78299999 -0.0082371598 1.4377804e-38 303 246
-0.021909652 0.78100002 -0.0082161194 1.3637368e-38 304 246
-0.020513998 0.77999997 -0.0082055992 1.3268946e-38 305 246
-0.0191464 0.77999997 -0.0082055992 1.3362213e-38 306 246
-0.017778799 0.77999997 -0.0082055992 1.2901236e-38 307 246
-0.016369121 0.778 -0.0081845606 1.280617e-38 308 246
-0.015005025 0.778 -0.0081845606 1.3174951e-38 309 246
-0.013605867 0.77600002 -0.0081635201 1.2533544e-38 310 246
-0.01224528 0.77600002 -0.0081635201 1.2441349e-38 311 246
-0.010884693 0.77600002 -0.0081635201 1.2163673e-38 312 246
-0.009524107 0.77600002 -0.0081635201 1.16105e-38 313 246
-0.0081635201 0.77600002 -0.0081635201 1.2073627e-38 314 246
-0.0068029333 0.77600002 -0.0081635201 1.2903387e-38 315 246
-0.0054423464 0.77600002 -0.0081635201 1.3362941e-38 316 246
-0.0040817601 0.77600002 -0.0081635201 1.3639167e-38 317 246
-0.0027211732 0.77600002 -0.0081635201 1.3182511e-38 318 246
-0.0013605866 0.77600002 -0.0081635201 1.3182511e-38 319 246
0 0.77600002 -0.0081635201 1.3181066e-38 320 246
0.0013605866 0.77600002 -0.0081635201 1.2996675e-38 321 246
0.0027281865 0.778 -0.0081845606 1.2901602e-38 322 246
0.0040922803 0.778 -0.0081845606 1.2901602e-38 323 246
0.0054563731 0.778 -0.0081845606 1.2168006e-38 324 246
0.0068204664 0.778 -0.0081845606 1.3089962e-38 325 246
0.0081845606 0.778 -0.0081845606 1.3090333e-38 326 246
-0.033201117 0.78899997 -0.0096836593 2.056107e-38 296 247
-0.031817738 0.78899997 -0.0096836593 1.7242028e-38 297 247
-0.030434359 0.78899997 -0.0096836593 1.5950547e-38 298 247
-0.02905098 0.78899997 -0.0096836593 1.5120787e-38 299 247
-0.027597465 0.787 -0.0096591124 1.6125563e-38 300 247
-0.026217593 0.787 -0.0096591124 1.4558235e-38 301 247
-0.024711479 0.78299999 -0.0096100196 1.3456924e-38 302 247
-0.02333862 0.78299999 -0.0096100196 1.3364729e-38 303 247
-0.021909652 0.78100002 -0.0095854728 1.290159e-38 304 247
-0.020513998 0.77999997 -0.0095731998 1.2348416e-38 305 247
-0.0191464 0.77999997 -0.0095731998 1.2621756e-38 306 247
-0.017778799 0.77999997 -0.0095731998 1.2437365e-38 307 247
-0.016369121 0.778 -0.0095486529 1.1793092e-38 308 247
-0.015005025 0.778 -0.0095486529 1.1793092e-38 309 247
-0.013605867 0.77600002 -0.009524107 1.1702343e-38 310 247
-0.01224528 0.77600002 -0.009524107 1.151795e-38 311 247
-0.010884693 0.77600002 -0.009524107 1.1331386e-38 312 247
-0.009524107 0.77600002 -0.009524107 1.1331386e-38 313 247
-0.0081635201 0.77600002 -0.009524107 1.1335341e-38 314 247
-0.0068029333 0.77600002 -0.009524107 1.244133e-38 315 247
-0.0054423464 0.77600002 -0.009524107 1.271829e-38 316 247
-0.0040817601 0.77600002 -0.009524107 1.2902681e-38 317 247
-0.0027211732 0.77600002 -0.009524107 1.2903403e-38 318 247
-0.0013605866 0.77600002 -0.009524107 1.2995599e-38 319 247
0 0.77600002 -0.009524107 1.318071e-38 320 247
0.0013605866 0.77600002 -0.009524107 1.318071e-38 321 247
0.0027281865 0.778 -0.0095486529 1.2997403e-38 322 247
0.0040922803 0.778 -0.0095486529 1.2812653e-38 323 247
0.0054563731 0.778 -0.0095486529 1.2074368e-38 324 247
0.0068204664 0.778 -0.0095486529 1.2627542e-38 325 247
0.0081845606 0.778 -0.0095486529 1.3364028e-38 326 247
-0.033201117 0.78899997 -0.011067039 2.0469954e-38 296 248
-0.031737085 0.787 -0.011038986 1.6505541e-38 297 248
-0.03035721 0.787 -0.011038986 1.5118986e-38 298 248
-0.02897734 0.787 -0.011038986 1.5026789e-38 299 248
-0.027597465 0.787 -0.011038986 1.6126635e-38 300 248
-0.026150968 0.78500003 -0.011010934 1.4282722e-38 301 248
-0.024711479 0.78299999 -0.010982879 1.3088125e-38 302 248
-0.02333862 0.78299999 -0.010982879 1.2904094e-38 303 248
-0.021909652 0.78100002 -0.010954826 1.2254768e-38 304 248
-0.020513998 0.77999997 -0.010940799 1.1425008e-38 305 248
-0.0191464 0.77999997 -0.010940799 1.2524891e-38 306 248
-0.017778799 0.77999997 -0.010940799 1.2524891e-38 307 248
-0.016369121 0.778 -0.010912746 1.1606901e-38 308 248
-0.015005025 0.778 -0.010912746 1.1422868e-38 309 248
-0.013640933 0.778 -0.010912746 1.1053727e-38 310 248
-0.01224528 0.77600002 -0.010884693 1.0685303e-38 311 248
-0.010884693 0.77600002 -0.010884693 1.1053005e-38 312 248
-0.009524107 0.77600002 -0.010884693 1.1145559e-38 313 248
-0.0081635201 0.77600002 -0.010884693 1.105768e-38 314 248
-0.0068029333 0.77600002 -0.010884693 1.1979276e-38 315 248
-0.0054423464 0.77600002 -0.010884693 1.1796332e-38 316 248
-0.0040817601 0.77600002 -0.010884693 1.2257312e-38 317 248
-0.0027211732 0.77600002 -0.010884693 1.3175678e-38 318 248
-0.0013605866 0.77600002 -0.010884693 1.3636655e-38 319 248
0 0.77600002 -0.010884693 1.3455855e-38 320 248
0.0013605866 0.77600002 -0.010884693 1.373244e-38 321 248
0.0027211732 0.77600002 -0.010884693 1.3181432e-38 322 248
0.0040817601 0.77600002 -0.010884693 1.2628258e-38 323 248
0.0054563731 0.778 -0.010912746 1.2718659e-38 324 248
0.0068204664 0.778 -0.010912746 1.2995245e-38 325 248
0.0081845606 0.778 -0.010912746 1.2721513e-38 326 248
-0.033201117 0.78899997 -0.012450419 2.0653263e-38 296 249
-0.031737085 0.787 -0.01241886 1.6320427e-38 297 249
-0.03035721 0.787 -0.01241886 1.4658361e-38 298 249
-0.02897734 0.787 -0.01241886 1.4750915e-38 299 249
-0.027597465 0.787 -0.01241886 1.5943322e-38 300 249
-0.026150968 0.78500003 -0.0123873 1.4744779e-38 301 249
-0.024711479 0.78299999 -0.012355739 1.4006115e-38 302 249
-0.02333862 0.78299999 -0.012355739 1.3545497e-38 303 249
-0.021909652 0.78100002 -0.01232418 1.2440222e-38 304 249
-0.020540299 0.78100002 -0.01232418 1.1149483e-38 305 249
-0.019170946 0.78100002 -0.01232418 1.1424288e-38 306 249
-0.017778799 0.77999997 -0.012308398 1.1516485e-38 307 249
-0.016411198 0.77999997 -0.012308398 1.1423583e-38 308 249
-0.015005025 0.778 -0.012276839 1.123919e-38 309 249
-0.013640933 0.778 -0.012276839 1.0870768e-38 310 249
-0.01224528 0.77600002 -0.01224528 1.0686016e-38 311 249
-0.010884693 0.77600002 -0.01224528 1.0777852e-38 312 249
-0.009524107 0.77600002 -0.01224528 1.0685297e-38 313 249
-0.0081635201 0.77600002 -0.01224528 1.1146273e-38 314 249
-0.0068029333 0.77600002 -0.01224528 1.2068588e-38 315 249
-0.0054423464 0.77600002 -0.01224528 1.20704e-38 316 249
-0.0040817601 0.77600002 -0.01224528 1.2346985e-38 317 249
-0.0027211732 0.77600002 -0.01224528 1.271614e-38 318 249
-0.0013605866 0.77600002 -0.01224528 1.3269314e-38 319 249
0 0.77600002 -0.01224528 1.2995245e-38 320 249
0.0013605866 0.77600002 -0.01224528 1.2995245e-38 321 249
0.0027211732 0.77600002 -0.01224528 1.3086365e-38 322 249
0.0040817601 0.77600002 -0.01224528 1.2810138e-38 323 249
0.0054563731 0.778 -0.012276839 1.2718656e-38 324 249
0.0068204664 0.778 -0.012276839 1.2995601e-38 325 249
0.0081845606 0.778 -0.012276839 1.2996655e-38 326 249
0.0095731998 0.77999997 -0.012308398 1.1705916e-38 327 249
-0.033201117 0.78899997 -0.013833799 2.0929124e-38 296 250
-0.031737085 0.787 -0.013798732 1.6504093e-38 297 250
-0.03035721 0.787 -0.013798732 1.438177e-38 298 250
-0.02897734 0.787 -0.013798732 1.4474326e-38 299 250
-0.027597465 0.787 -0.013798732 1.5575266e-38 300 250
-0.026217593 0.787 -0.013798732 1.5206123e-38 301 250
-0.0247746 0.78500003 -0.013763667 1.4743697e-38 302 250
-0.02333862 0.78299999 -0.013728599 1.4098328e-38 303 250
-0.021965759 0.78299999 -0.013728599 1.2534936e-38 304 250
-0.020540299 0.78100002 -0.013693534 1.1705175e-38 305 250
-0.019170946 0.78100002 -0.013693534 1.1701932e-38 306 250
-0.017801592 0.78100002 -0.013693534 1.1517541e-38 307 250
-0.016411198 0.77999997 -0.013675999 1.1425358e-38 308 250
-0.0150436 0.77999997 -0.013675999 1.114913e-38 309 250
-0.013640933 0.778 -0.013640933 1.1239528e-38 310 250
-0.01224528 0.77600002 -0.013605867 1.077855e-38 311 250
-0.010884693 0.77600002 -0.013605867 1.1052262e-38 312 250
-0.009524107 0.77600002 -0.013605867 1.1052262e-38 313 250
-0.0081635201 0.77600002 -0.013605867 1.114591e-38 314 250
-0.0068029333 0.77600002 -0.013605867 1.2067506e-38 315 250
-0.0054423464 0.77600002 -0.013605867 1.1611214e-38 316 250
-0.0040817601 0.77600002 -0.013605867 1.1703768e-38 317 250
-0.0027211732 0.77600002 -0.013605867 1.2256236e-38 318 250
-0.0013605866 0.77600002 -0.013605867 1.2901605e-38 319 250
0 0.77600002 -0.013605867 1.2442079e-38 320 250
0.0013605866 0.77600002 -0.013605867 1.2349882e-38 321 250
0.0027211732 0.77600002 -0.013605867 1.2532838e-38 322 250
0.0040817601 0.77600002 -0.013605867 1.2532838e-38 323 250
0.0054563731 0.778 -0.013640933 1.2534274e-38 324 250
0.0068204664 0.778 -0.013640933 1.2902697e-38 325 250
0.0082055992 0.77999997 -0.013675999 1.2628988e-38 326 250
0.0095731998 0.77999997 -0.013675999 1.3274357e-38 327 250
-0.031737085 0.787 -0.015178605 1.751717e-38 297 251
-0.03035721 0.787 -0.015178605 1.4383575e-38 298 251
-0.02897734 0.787 -0.015178605 1.4291379e-38 299 251
-0.027597465 0.787 -0.015178605 1.5299049e-38 300 251
-0.026217593 0.787 -0.015178605 1.4929906e-38 301 251
-0.024837719 0.787 -0.015178605 1.4285246e-38 302 251
-0.023398234 0.78500003 -0.015140033 1.3639876e-38 303 251
-0.021965759 0.78299999 -0.01510146 1.2719344e-38 304 251
-0.020540299 0.78100002 -0.015062887 1.1981777e-38 305 251
-0.019170946 0.78100002 -0.015062887 1.1520073e-38 306 251
-0.017801592 0.78100002 -0.015062887 1.0690673e-38 307 251
-0.016411198 0.77999997 -0.0150436 1.1333888e-38 308 251
-0.0150436 0.77999997 -0.0150436 1.1241693e-38 309 251
-0.013640933 0.778 -0.015005025 1.1240247e-38 310 251
-0.012276839 0.778 -0.015005025 1.0594877e-38 311 251
-0.010912746 0.778 -0.015005025 1.1143016e-38 312 251
-0.0095486529 0.778 -0.015005025 1.1143016e-38 313 251
-0.0081635201 0.77600002 -0.014966453 1.0593458e-38 314 251
-0.0068029333 0.77600002 -0.014966453 1.1238827e-38 315 251
-0.0054423464 0.77600002 -0.014966453 1.0597433e-38 316 251
-0.0040817601 0.77600002 -0.014966453 1.1150607e-38 317 251
-0.0027211732 0.77600002 -0.014966453 1.1795979e-38 318 251
-0.0013605866 0.77600002 -0.014966453 1.2165122e-38 319 251
0 0.77600002 -0.014966453 1.2255166e-38 320 251
0.0013605866 0.77600002 -0.014966453 1.2347362e-38 321 251
0.0027211732 0.77600002 -0.014966453 1.2165485e-38 322 251
0.0040922803 0.778 -0.015005025 1.225768e-38 323 251
0.0054563731 0.778 -0.015005025 1.2533541e-38 324 251
0.0068204664 0.778 -0.015005025 1.2902684e-38 325 251
0.0082055992 0.77999997 -0.0150436 1.299705e-38 326 251
0.0095731998 0.77999997 -0.0150436 1.4564016e-38 327 251
0.010940799 0.77999997 -0.0150436 1.5670386e-38 328 251
-0.031817738 0.78899997 -0.016600559 1.8624959e-38 297 252
-0.030434359 0.78899997 -0.016600559 1.6039869e-38 298 252
-0.02905098 0.78899997 -0.016600559 1.474913e-38 299 252
-0.027667599 0.78899997 -0.016600559 1.4381057e-38 300 252
-0.026217593 0.787 -0.01655848 1.3550937e-38 301 252
-0.024837719 0.787 -0.01655848 1.3549123e-38 302 252
-0.023398234 0.78500003 -0.016516401 1.3088505e-38 303 252
-0.021965759 0.78299999 -0.01647432 1.3177453e-38 304 252
-0.0205929 0.78299999 -0.01647432 1.2992702e-38 305 252
-0.019220039 0.78299999 -0.01647432 1.1518651e-38 306 252
-0.017801592 0.78100002 -0.016432239 1.068889e-38 307 252
-0.016432239 0.78100002 -0.016432239 1.1058027e-38 308 252
-0.0150436 0.77999997 -0.016411198 1.1150223e-38 309 252
-0.013675999 0.77999997 -0.016411198 1.1425711e-38 310 252
-0.012308398 0.77999997 -0.016411198 1.0964733e-38 311 252
-0.010912746 0.778 -0.016369121 1.0960417e-38 312 252
-0.0095486529 0.778 -0.016369121 1.0591993e-38 313 252
-0.0081845606 0.778 -0.016369121 1.0499837e-38 314 252
-0.0068204664 0.778 -0.016369121 1.0499837e-38 315 252
-0.0054563731 0.778 -0.016369121 1.0411975e-38 316 252
-0.0040817601 0.77600002 -0.01632704 1.1517964e-38 317 252
-0.0027211732 0.77600002 -0.01632704 1.1429001e-38 318 252
-0.0013605866 0.77600002 -0.01632704 1.1429001e-38 319 252
0 0.77600002 -0.01632704 1.1427569e-38 320 252
0.0013605866 0.77600002 -0.01632704 1.1704158e-38 321 252
0.0027211732 0.77600002 -0.01632704 1.1706309e-38 322 252
0.0040922803 0.778 -0.016369121 1.1982535e-38 323 252
0.0054563731 0.778 -0.016369121 1.2259836e-38 324 252
0.0068204664 0.778 -0.016369121 1.2628258e-38 325 252
0.0082055992 0.77999997 -0.016411198 1.2813375e-38 326 252
0.0095731998 0.77999997 -0.016411198 1.4841679e-38 327 252
0.010940799 0.77999997 -0.016411198 1.6316827e-38 328 252
-0.030434359 0.78899997 -0.017983939 1.8618473e-38 298 253
-0.02905098 0.78899997 -0.017983939 1.5023203e-38 299 253
-0.027667599 0.78899997 -0.017983939 1.3183933e-38 300 253
-0.026217593 0.787 -0.017938353 1.2170141e-38 301 253
-0.024837719 0.787 -0.017938353 1.373135e-38 302 253
-0.023457846 0.787 -0.017938353 1.373135e-38 303 253
-0.021965759 0.78299999 -0.017847179 1.3271461e-38 304 253
-0.0205929 0.78299999 -0.017847179 1.2903037e-38 305 253
-0.019220039 0.78299999 -0.017847179 1.1703049e-38 306 253
-0.017847179 0.78299999 -0.017847179 1.105768e-38 307 253
-0.016432239 0.78100002 -0.017801592 1.0875084e-38 308 253
-0.015062887 0.78100002 -0.017801592 1.0782888e-38 309 253
-0.013675999 0.77999997 -0.017778799 1.133426e-38 310 253
-0.012308398 0.77999997 -0.017778799 1.1426455e-38 311 253
-0.010940799 0.77999997 -0.017778799 1.1974221e-38 312 253
-0.0095731998 0.77999997 -0.017778799 1.03147e-38 313 253
-0.0081845606 0.778 -0.017733213 9.1197569e-39 314 253
-0.0068204664 0.778 -0.017733213 9.3959837e-39 315 253
-0.0054563731 0.778 -0.017733213 1.0780017e-38 316 253
-0.0040922803 0.778 -0.017733213 1.2346982e-38 317 253
-0.0027281865 0.778 -0.017733213 1.0878696e-38 318 253
-0.0013605866 0.77600002 -0.017687626 1.0602109e-38 319 253
0 0.77600002 -0.017687626 1.1242089e-38 320 253
0.0013640933 0.778 -0.017733213 1.1702709e-38 321 253
0.0027281865 0.778 -0.017733213 1.1614829e-38 322 253
0.0040922803 0.778 -0.017733213 1.2075807e-38 323 253
0.0054563731 0.778 -0.017733213 1.2536415e-38 324 253
0.0068379994 0.77999997 -0.017778799 1.2536415e-38 325 253
0.0082055992 0.77999997 -0.017778799 1.2443151e-38 326 253
0.0095731998 0.77999997 -0.017778799 1.5669639e-38 327 253
0.010954826 0.78100002 -0.017801592 1.7054396e-38 328 253
-0.02905098 0.78899997 -0.019367319 1.4292118e-38 299 254
-0.027667599 0.78899997 -0.019367319 1.2998452e-38 300 254
-0.026284218 0.78899997 -0.019367319 1.2998452e-38 301 254
-0.024837719 0.787 -0.019318225 1.3733489e-38 302 254
-0.023457846 0.787 -0.019318225 1.3918239e-38 303 254
-0.022021867 0.78500003 -0.019269135 1.3825337e-38 304 254
-0.0205929 0.78299999 -0.019220039 1.3272163e-38 305 254
-0.019220039 0.78299999 -0.019220039 1.2623558e-38 306 254
-0.017847179 0.78299999 -0.019220039 1.17016e-38 307 254
-0.016432239 0.78100002 -0.019170946 1.1608683e-38 308 254
-0.015062887 0.78100002 -0.019170946 1.1700879e-38 309 254
-0.013693534 0.78100002 -0.019170946 1.1519354e-38 310 254
-0.01232418 0.78100002 -0.019170946 1.1519354e-38 311 254
-0.010940799 0.77999997 -0.0191464 1.2067846e-38 312 254
-0.0095731998 0.77999997 -0.0191464 1.114553e-38 313 254
-0.0082055992 0.77999997 -0.0191464 9.4860311e-39 314 254
-0.0068204664 0.778 -0.019097306 9.5782267e-39 315 254
-0.0054563731 0.778 -0.019097306 1.0317606e-38 316 254
-0.0040922803 0.778 -0.019097306 1.2253715e-38 317 254
-0.0027281865 0.778 -0.019097306 1.1610866e-38 318 254
-0.0013640933 0.778 -0.019097306 1.1242084e-38 319 254
0 0.778 -0.019097306 1.1057345e-38 320 254
0.0013640933 0.778 -0.019097306 1.1517964e-38 321 254
0.0027281865 0.778 -0.019097306 1.1338968e-38 322 254
0.0040922803 0.778 -0.019097306 1.1799945e-38 323 254
0.0054703997 0.77999997 -0.0191464 1.2077608e-38 324 254
0.0068467669 0.78100002 -0.019170946 1.1524434e-38 325 254
0.0082371598 0.78299999 -0.019220039 1.1794557e-38 326 254
0.0096100196 0.78299999 -0.019220039 1.6404338e-38 327 254
0.010982879 0.78299999 -0.019220039 1.6872526e-38 328 254
-0.027667599 0.78899997 -0.0207507 1.4195941e-38 300 255
-0.026284218 0.78899997 -0.0207507 1.3919353e-38 301 255
-0.024900839 0.78899997 -0.0207507 1.410265e-38 302 255
-0.023457846 0.787 -0.0206981 1.4194845e-38 303 255
-0.022077972 0.787 -0.0206981 1.3919353e-38 304 255
-0.020645501 0.78500003 -0.020645501 1.3826798e-38 305 255
-0.019269135 0.78500003 -0.020645501 1.3176747e-38 306 255
-0.017847179 0.78299999 -0.0205929 1.2346985e-38 307 255
-0.01647432 0.78299999 -0.0205929 1.1520803e-38 308 255
-0.01510146 0.78299999 -0.0205929 1.1428608e-38 309 255
-0.013693534 0.78100002 -0.020540299 1.1612273e-38 310 255
-0.01232418 0.78100002 -0.020540299 1.1520076e-38 311 255
-0.010940799 0.77999997 -0.020513998 1.1517559e-38 312 255
-0.0095731998 0.77999997 -0.020513998 1.0964386e-38 313 255
-0.0082055992 0.77999997 -0.020513998 1.0409061e-38 314 255
-0.0068379994 0.77999997 -0.020513998 9.7636914e-39 315 255
-0.0054563731 0.778 -0.020461399 9.9498847e-39 316 255
-0.0040922803 0.778 -0.020461399 1.1148427e-38 317 255
-0.0027281865 0.778 -0.020461399 1.1609052e-38 318 255
-0.0013640933 0.778 -0.020461399 1.1701247e-38 319 255
0 0.778 -0.020461399 1.0966573e-38 320 255
0.0013640933 0.778 -0.020461399 1.1335356e-38 321 255
0.0027281865 0.778 -0.020461399 1.1706659e-38 322 255
0.0041027996 0.77999997 -0.020513998 1.2259833e-38 323 255
0.0054774131 0.78100002 -0.020540299 1.2168006e-38 324 255
0.0068467669 0.78100002 -0.020540299 1.1246049e-38 325 255
0.0082161194 0.78100002 -0.020540299 1.1517614e-38 326 255
0.0095854728 0.78100002 -0.020540299 1.6772765e-38 327 255
0.011010934 0.78500003 -0.020645501 1.6872526e-38 328 255
-0.027702667 0.79000002 -0.022162134 1.5300862e-38 300 256
-0.026284218 0.78899997 -0.022134079 1.4655493e-38 301 256
-0.024900839 0.78899997 -0.022134079 1.4378887e-38 302 256
-0.023517458 0.78899997 -0.022134079 1.4378887e-38 303 256
-0.022077972 0.787 -0.022077972 1.447073e-38 304 256
-0.0206981 0.787 -0.022077972 1.4378534e-38 305 256
-0.019318225 0.787 -0.022077972 1.2903037e-38 306 256
-0.017892767 0.78500003 -0.022021867 1.2165472e-38 307 256
-0.01647432 0.78299999 -0.021965759 1.2073974e-38 308 256
-0.01510146 0.78299999 -0.021965759 1.1981777e-38 309 256
-0.013693534 0.78100002 -0.021909652 1.2072525e-38 310 256
-0.01232418 0.78100002 -0.021909652 1.1611906e-38 311 256
-0.010954826 0.78100002 -0.021909652 1.179163e-38 312 256
-0.0095731998 0.77999997 -0.021881599 1.1238456e-38 313 256
-0.0082055992 0.77999997 -0.021881599 1.0683853e-38 314 256
-0.0068379994 0.77999997 -0.021881599 9.9462876e-39 315 256
-0.0054563731 0.778 -0.021825492 1.0226111e-38 316 256
-0.0040922803 0.778 -0.021825492 1.17016e-38 317 256
-0.0027281865 0.778 -0.021825492 1.1703397e-38 318 256
-0.0013640933 0.778 -0.021825492 1.1795592e-38 319 256
0 0.778 -0.021825492 1.1428257e-38 320 256
0.0013640933 0.778 -0.021825492 1.179668e-38 321 256
0.0027351999 0.77999997 -0.021881599 1.1983244e-38 322 256
0.0041027996 0.77999997 -0.021881599 1.2259833e-38 323 256
0.0054774131 0.78100002 -0.021909652 1.2166931e-38 324 256
0.0068642995 0.78299999 -0.021965759 1.1429364e-38 325 256
0.0082161194 0.78100002 -0.021909652 1.2070068e-38 326 256
0.0095854728 0.78100002 -0.021909652 1.6956437e-38 327 256
0.011010934 0.78500003 -0.022021867 1.7240588e-38 328 256
-0.02638416 0.792 -0.02360688 1.4658379e-38 301 257
-0.024900839 0.78899997 -0.023517458 1.4656199e-38 302 257
-0.023517458 0.78899997 -0.023517458 1.4379253e-38 303 257
-0.022134079 0.78899997 -0.023517458 1.4196294e-38 304 257
-0.0206981 0.787 -0.023457846 1.4104098e-38 305 257
-0.019318225 0.787 -0.023457846 1.3364012e-38 306 257
-0.017938353 0.787 -0.023457846 1.2626447e-38 307 257
-0.016516401 0.78500003 -0.023398234 1.2626425e-38 308 257
-0.01510146 0.78299999 -0.02333862 1.2442034e-38 309 257
-0.013728599 0.78299999 -0.02333862 1.2532064e-38 310 257
-0.012355739 0.78299999 -0.02333862 1.1794499e-38 311 257
-0.010954826 0.78100002 -0.023279008 1.1697284e-38 312 257
-0.0095854728 0.78100002 -0.023279008 1.1144111e-38 313 257
-0.0082161194 0.78100002 -0.023279008 1.0499107e-38 314 257
-0.0068379994 0.77999997 -0.023249198 9.9459345e-39 315 257
-0.0054703997 0.77999997 -0.023249198 1.0503424e-38 316 257
-0.0041027996 0.77999997 -0.023249198 1.2163304e-38 317 257
-0.0027351999 0.77999997 -0.023249198 1.1795964e-38 318 257
-0.0013675999 0.77999997 -0.023249198 1.1703768e-38 319 257
0 0.77999997 -0.023249198 1.1244958e-38 320 257
0.0013675999 0.77999997 -0.023249198 1.1429349e-38 321 257
0.0027351999 0.77999997 -0.023249198 1.1339321e-38 322 257
0.0041080597 0.78100002 -0.023279008 1.1708102e-38 323 257
0.0054774131 0.78100002 -0.023279008 1.2167284e-38 324 257
0.0068642995 0.78299999 -0.02333862 1.1890696e-38 325 257
0.0082161194 0.78100002 -0.023279008 1.2259129e-38 326 257
0.0095854728 0.78100002 -0.023279008 1.6500127e-38 327 257
0.011010934 0.78500003 -0.023398234 1.6965441e-38 328 257
-0.024900839 0.78899997 -0.024900839 1.4840963e-38 302 258
-0.023517458 0.78899997 -0.024900839 1.447182e-38 303 258
-0.022134079 0.78899997 -0.024900839 1.3921152e-38 304 258
-0.0206981 0.787 -0.024837719 1.3736401e-38 305 258
-0.019318225 0.787 -0.024837719 1.3550922e-38 306 258
-0.017983939 0.78899997 -0.024900839 1.2997748e-38 307 258
-0.01655848 0.787 -0.024837719 1.3454759e-38 308 258
-0.015140033 0.78500003 -0.0247746 1.2993782e-38 309 258
-0.013728599 0.78299999 -0.024711479 1.2349132e-38 310 258
-0.012355739 0.78299999 -0.024711479 1.1335339e-38 311 258
-0.010982879 0.78299999 -0.024711479 1.1142332e-38 312 258
-0.0095854728 0.78100002 -0.024648361 1.0773548e-38 313 258
-0.0082161194 0.78100002 -0.024648361 1.0222895e-38 314 258
-0.0068467669 0.78100002 -0.024648361 1.0315091e-38 315 258
-0.0054774131 0.78100002 -0.024648361 1.0874733e-38 316 258
-0.0041080597 0.78100002 -0.024648361 1.1612298e-38 317 258
-0.0027351999 0.77999997 -0.024616797 1.1702343e-38 318 258
-0.0013675999 0.77999997 -0.024616797 1.13332e-38 319 258
0 0.78100002 -0.024648361 1.1517597e-38 320 258
0.0013693533 0.78100002 -0.024648361 1.170199e-38 321 258
0.0027387065 0.78100002 -0.024648361 1.1797062e-38 322 258
0.0041185799 0.78299999 -0.024711479 1.225768e-38 323 258
0.0055054668 0.78500003 -0.0247746 1.2260552e-38 324 258
0.0068642995 0.78299999 -0.024711479 1.2168356e-38 325 258
0.0082371598 0.78299999 -0.024711479 1.2905218e-38 326 258
0.0096100196 0.78299999 -0.024711479 1.6501207e-38 327 258
-0.023517458 0.78899997 -0.026284218 1.4104489e-38 303 259
-0.022134079 0.78899997 -0.026284218 1.4104464e-38 304 259
-0.0207507 0.78899997 -0.026284218 1.3735682e-38 305 259
-0.019367319 0.78899997 -0.026284218 1.3550925e-38 306 259
-0.017983939 0.78899997 -0.026284218 1.3458729e-38 307 259
-0.016600559 0.78899997 -0.026284218 1.3363645e-38 308 259
-0.015178605 0.787 -0.026217593 1.30867e-38 309 259
-0.013763667 0.78500003 -0.026150968 1.2626428e-38 310 259
-0.012355739 0.78299999 -0.026084339 1.1704472e-38 311 259
-0.010982879 0.78299999 -0.026084339 1.1053361e-38 312 259
-0.0096100196 0.78299999 -0.026084339 1.0776414e-38 313 259
-0.0082161194 0.78100002 -0.026017714 9.675837e-39 314 259
-0.0068467669 0.78100002 -0.026017714 1.0505238e-38 315 259
-0.0054774131 0.78100002 -0.026017714 1.1517231e-38 316 259
-0.0041080597 0.78100002 -0.026017714 1.1701263e-38 317 259
-0.0027351999 0.77999997 -0.025984399 1.142468e-38 318 259
-0.0013675999 0.77999997 -0.025984399 1.1332484e-38 319 259
0 0.78100002 -0.026017714 1.0872242e-38 320 259
0.0013693533 0.78100002 -0.026017714 1.1241383e-38 321 259
0.0027387065 0.78100002 -0.026017714 1.1428651e-38 322 259
0.0041185799 0.78299999 -0.026084339 1.1981466e-38 323 259
0.0055054668 0.78500003 -0.026150968 1.2076536e-38 324 259
0.0068818335 0.78500003 -0.026150968 1.2444958e-38 325 259
0.0082582003 0.78500003 -0.026150968 1.3091061e-38 326 259
0.0096345674 0.78500003 -0.026150968 1.5948765e-38 327 259
-0.022162134 0.79000002 -0.027702667 1.3919727e-38 304 260
-0.0207507 0.78899997 -0.027667599 1.3735334e-38 305 260
-0.019367319 0.78899997 -0.027667599 1.364277e-38 306 260
-0.017983939 0.78899997 -0.027667599 1.2997401e-38 307 260
-0.016600559 0.78899997 -0.027667599 1.3271464e-38 308 260
-0.015217179 0.78899997 -0.027667599 1.2902681e-38 309 260
-0.013798732 0.787 -0.027597465 1.2901953e-38 310 260
-0.012355739 0.78299999 -0.027457198 1.2625724e-38 311 260
-0.010982879 0.78299999 -0.027457198 1.3174214e-38 312 260
-0.0096100196 0.78299999 -0.027457198 1.2436649e-38 313 260
-0.0082371598 0.78299999 -0.027457198 1.2071474e-38 314 260
-0.0068467669 0.78100002 -0.027387068 1.2993432e-38 315 260
-0.0054774131 0.78100002 -0.027387068 1.2531027e-38 316 260
-0.0041080597 0.78100002 -0.027387068 1.1701265e-38 317 260
-0.0027387065 0.78100002 -0.027387068 1.0048585e-38 318 260
-0.0013693533 0.78100002 -0.027387068 9.7716381e-39 319 260
0 0.78100002 -0.027387068 1.0688564e-38 320 260
0.0013728599 0.78299999 -0.027457198 1.1241736e-38 321 260
0.0027457199 0.78299999 -0.027457198 1.1704509e-38 322 260
0.0041291001 0.78500003 -0.027527334 1.2349879e-38 323 260
0.0055054668 0.78500003 -0.027527334 1.2627908e-38 324 260
0.0068818335 0.78500003 -0.027527334 1.2904855e-38 325 260
0.0082582003 0.78500003 -0.027527334 1.3089982e-38 326 260
-0.015217179 0.78899997 -0.02905098 1.3178895e-38 309 261
-0.013798732 0.787 -0.02897734 1.2994138e-38 310 261
-0.012355739 0.78299999 -0.028830061 1.2994138e-38 311 261
-0.010982879 0.78299999 -0.028830061 1.2993055e-38 312 261
-0.0096100196 0.78299999 -0.028830061 1.2624633e-38 313 261
-0.0082371598 0.78299999 -0.028830061 1.2166176e-38 314 261
-0.0068642995 0.78299999 -0.028830061 1.2534598e-38 315 261
-0.0054774131 0.78100002 -0.028756421 1.2350579e-38 316 261
-0.0041080597 0.78100002 -0.028756421 1.2258384e-38 317 261
-0.0027387065 0.78100002 -0.028756421 1.1246052e-38 318 261
-0.0013693533 0.78100002 -0.028756421 1.0876911e-38 319 261
0 0.78299999 -0.028830061 1.1244976e-38 320 261
0.0013728599 0.78299999 -0.028830061 1.1705956e-38 321 261
0.0027457199 0.78299999 -0.028830061 1.2442797e-38 322 261
0.0041185799 0.78299999 -0.028830061 1.2534993e-38 323 261
0.0055054668 0.78500003 -0.0289037 1.1800675e-38 324 261
0.0068818335 0.78500003 -0.0289037 1.1616284e-38 325 261
-0.01241886 0.787 -0.03035721 1.2626447e-38 311 262
-0.011010934 0.78500003 -0.030280067 1.253425e-38 312 262
-0.0096345674 0.78500003 -0.030280067 1.2441696e-38 313 262
-0.0082371598 0.78299999 -0.03020292 1.2075069e-38 314 262
-0.0068642995 0.78299999 -0.03020292 1.2351656e-38 315 262
-0.0054914397 0.78299999 -0.03020292 1.2628614e-38 316 262
-0.0041185799 0.78299999 -0.03020292 1.2997398e-38 317 262
-0.0027457199 0.78299999 -0.03020292 1.3181435e-38 318 262
-0.0013728599 0.78299999 -0.03020292 1.2997403e-38 319 262
0 0.78299999 -0.03020292 1.28123e-38 320 262
0.0013728599 0.78299999 -0.03020292 1.2904855e-38 321 262
0.0027457199 0.78299999 -0.03020292 1.3181081e-38 322 262
0.0041185799 0.78299999 -0.03020292 1.2351681e-38 323 262
0.005519493 0.787 -0.03035721 9.9582e-39 324 262
-0.011038986 0.787 -0.031737085 1.2625374e-38 312 263
-0.0096591124 0.787 -0.031737085 1.2809407e-38 313 263
-0.0082582003 0.78500003 -0.031656433 1.2352382e-38 314 263
-0.0068818335 0.78500003 -0.031656433 1.2536413e-38 315 263
-0.0055054668 0.78500003 -0.031656433 1.2628614e-38 316 263
-0.0041291001 0.78500003 -0.031656433 1.2720809e-38 317 263
-0.0027527334 0.78500003 -0.031656433 1.3087796e-38 318 263
-0.0013763667 0.78500003 -0.031656433 1.2811207e-38 319 263
0 0.78500003 -0.031656433 1.2349876e-38 320 263
0.0013763667 0.78500003 -0.031656433 1.1889258e-38 321 263
0.0027527334 0.78500003 -0.031656433 1.1704877e-38 322 263
0.0041291001 0.78500003 -0.031656433 1.0598888e-38 323 263
-0.0096591124 0.787 -0.033116959 1.2352044e-38 313 264
-0.0082582003 0.78500003 -0.033032801 1.2079407e-38 314 264
-0.0068818335 0.78500003 -0.033032801 1.2171603e-38 315 264
-0.0055054668 0.78500003 -0.033032801 1.2537144e-38 316 264
-0.0041291001 0.78500003 -0.033032801 1.2168003e-38 317 264
-0.0027527334 0.78500003 -0.033032801 1.2257317e-38 318 264
-0.0013763667 0.78500003 -0.033032801 1.1611948e-38 319 264
0 0.787 -0.033116959 1.0875096e-38 320 264
0.0013798733 0.787 -0.033116959 1.0321922e-38 321 264
0.0027597465 0.787 -0.033116959 9.2166665e-39 322 264
-0.0082582003 0.78500003 -0.034409165 1.2076539e-38 314 265
-0.0068818335 0.78500003 -0.034409165 1.1891789e-38 315 265
-0.0055054668 0.78500003 -0.034409165 1.142792e-38 316 265
-0.0041291001 0.78500003 -0.034409165 1.0229376e-38 317 265
