# .PCD v.7 - Point Cloud Data file format
FIELDS x y z rgb imX imY
SIZE 4 4 4 4 4 4
TYPE F F F F F F
COUNT 1 1 1 1 1 1
WIDTH 872
HEIGHT 1
VIEWPOINT 0 0 0 1 0 0 0
POINTS 872
DATA ascii
-0.032527838 0.773 0.0094872871 1.125507e-38 296 233
-0.031091858 0.77100003 0.0094627403 1.1439821e-38 297 233
-0.02966289 0.76899999 0.0094381925 1.1532014e-38 298 233
-0.02824094 0.76700002 0.0094136465 1.1624209e-38 299 233
-0.026861066 0.76599997 0.0094013726 1.1900445e-38 300 233
-0.025451386 0.764 0.0093768267 1.2914598e-38 301 233
-0.024017159 0.76099998 0.0093400059 1.3648213e-38 302 233
-0.022682872 0.76099998 0.0093400059 1.3187593e-38 303 233
-0.02129248 0.759 0.00931546 1.2450379e-38 304 233
-0.019909101 0.75700003 0.0092909131 1.1805009e-38 305 233
-0.018581826 0.75700003 0.0092909131 1.208159e-38 306 233
-0.017254554 0.75700003 0.0092909131 1.208159e-38 307 233
-0.015885198 0.755 0.0092663663 1.2265263e-38 308 233
-0.014561433 0.755 0.0092663663 1.2265263e-38 309 233
-0.013220133 0.75400001 0.0092540924 1.2265263e-38 310 233
-0.01189812 0.75400001 0.0092540924 1.2357458e-38 311 233
-0.010576107 0.75400001 0.0092540924 1.254149e-38 312 233
-0.0092540924 0.75400001 0.0092540924 1.272624e-38 313 233
-0.00793208 0.75400001 0.0092540924 1.2728042e-38 314 233
-0.0066100666 0.75400001 0.0092540924 1.2728042e-38 315 233
-0.0052740262 0.75199997 0.0092295464 1.2726607e-38 316 233
-0.0039555198 0.75199997 0.0092295464 1.2542574e-38 317 233
-0.0026370131 0.75199997 0.0092295464 1.2818083e-38 318 233
-0.0013185065 0.75199997 0.0092295464 1.2818083e-38 319 233
0 0.75199997 0.0092295464 1.2727688e-38 320 233
0.0013185065 0.75199997 0.0092295464 1.2727688e-38 321 233
0.0026370131 0.75199997 0.0092295464 1.2728057e-38 322 233
0.003945 0.75 0.0092049995 1.2820253e-38 323 233
0.00526 0.75 0.0092049995 1.2820618e-38 324 233
0.006575 0.75 0.0092049995 1.2912815e-38 325 233
0.00789 0.75 0.0092049995 1.2729503e-38 326 233
0.0092295464 0.75199997 0.0092295464 1.2913894e-38 327 233
0.010548052 0.75199997 0.0092295464 1.2730222e-38 328 233
0.011866559 0.75199997 0.0092295464 1.2453994e-38 329 233
0.013185065 0.75199997 0.0092295464 1.2269247e-38 330 233
0.014503572 0.75199997 0.0092295464 1.2084855e-38 331 233
0.015822079 0.75199997 0.0092295464 1.1625677e-38 332 233
0.017140586 0.75199997 0.0092295464 1.1625677e-38 333 233
0.018459093 0.75199997 0.0092295464 1.1808992e-38 334 233
0.0197776 0.75199997 0.0092295464 1.1808992e-38 335 233
0.021152213 0.75400001 0.0092540924 1.1533847e-38 336 233
0.022474226 0.75400001 0.0092540924 1.1257618e-38 337 233
0.02379624 0.75400001 0.0092540924 1.1257986e-38 338 233
0.025218192 0.75700003 0.0092909131 1.0889203e-38 339 233
0.026545467 0.75700003 0.0092909131 1.0797007e-38 340 233
0.027946379 0.759 0.00931546 1.0704812e-38 341 233
0.029277159 0.759 0.00931546 1.0429304e-38 342 233
0.030688593 0.76099998 0.0093400059 1.0337107e-38 343 233
0.032064959 0.76200002 0.0093522798 1.0427868e-38 344 233
0.033401001 0.76200002 0.0093522798 1.0427868e-38 345 233
0.034737039 0.76200002 0.0093522798 9.8764959e-39 346 233
-0.039355319 0.77399999 0.0081424797 9.6881166e-39 291 234
-0.037998237 0.77399999 0.0081424797 1.1711013e-38 292 234
-0.036641158 0.77399999 0.0081424797 1.1895404e-38 293 234
-0.035375252 0.77600002 0.0081635201 1.134582e-38 294 234
-0.033927001 0.77399999 0.0081424797 1.1438016e-38 295 234
-0.032527838 0.773 0.0081319595 1.1347255e-38 296 234
-0.031091858 0.77100003 0.0081109209 1.1531286e-38 297 234
-0.02966289 0.76899999 0.0080898795 1.1715316e-38 298 234
-0.02824094 0.76700002 0.00806884 1.1899347e-38 299 234
-0.026861066 0.76599997 0.0080583189 1.2358896e-38 300 234
-0.025451386 0.764 0.0080372803 1.2728039e-38 301 234
-0.024017159 0.76099998 0.0080057196 1.2728407e-38 302 234
-0.022682872 0.76099998 0.0080057196 1.2451822e-38 303 234
-0.02129248 0.759 0.0079846792 1.2173789e-38 304 234
-0.019909101 0.75700003 0.0079636406 1.1897202e-38 305 234
-0.018581826 0.75700003 0.0079636406 1.226418e-38 306 234
-0.017208965 0.755 0.0079425992 1.2356735e-38 307 234
-0.015885198 0.755 0.0079425992 1.217342e-38 308 234
-0.014561433 0.755 0.0079425992 1.2265616e-38 309 234
-0.013220133 0.75400001 0.00793208 1.2448928e-38 310 234
-0.01189812 0.75400001 0.00793208 1.2448928e-38 311 234
-0.010576107 0.75400001 0.00793208 1.2816988e-38 312 234
-0.0092540924 0.75400001 0.00793208 1.2909183e-38 313 234
-0.00793208 0.75400001 0.00793208 1.2543645e-38 314 234
-0.0065925326 0.75199997 0.0079110395 1.2543645e-38 315 234
-0.0052740262 0.75199997 0.0079110395 1.2725884e-38 316 234
-0.0039555198 0.75199997 0.0079110395 1.2633688e-38 317 234
-0.0026370131 0.75199997 0.0079110395 1.2909555e-38 318 234
-0.001315 0.75 0.00789 1.3001752e-38 319 234
0 0.75 0.00789 1.2818802e-38 320 234
0.001315 0.75 0.00789 1.2910998e-38 321 234
0.00263 0.75 0.00789 1.2911001e-38 322 234
0.003945 0.75 0.00789 1.2911001e-38 323 234
0.00526 0.75 0.00789 1.2911004e-38 324 234
0.006575 0.75 0.00789 1.2911004e-38 325 234
0.00789 0.75 0.00789 1.2819534e-38 326 234
0.0092049995 0.75 0.00789 1.2727338e-38 327 234
0.01052 0.75 0.00789 1.226673e-38 328 234
0.011866559 0.75199997 0.0079110395 1.226673e-38 329 234
0.01315 0.75 0.00789 1.1992304e-38 330 234
0.014465 0.75 0.00789 1.1808273e-38 331 234
0.015822079 0.75199997 0.0079110395 1.1808273e-38 332 234
0.017140586 0.75199997 0.0079110395 1.1808273e-38 333 234
0.018459093 0.75199997 0.0079110395 1.1808989e-38 334 234
0.0197776 0.75199997 0.0079110395 1.1808989e-38 335 234
0.021096105 0.75199997 0.0079110395 1.1533847e-38 336 234
0.022474226 0.75400001 0.00793208 1.1257618e-38 337 234
0.02379624 0.75400001 0.00793208 1.1165067e-38 338 234
0.025151566 0.755 0.0079425992 1.0980676e-38 339 234
0.026545467 0.75700003 0.0079636406 1.0887761e-38 340 234
0.027946379 0.759 0.0079846792 1.0887761e-38 341 234
0.029277159 0.759 0.0079846792 1.0337104e-38 342 234
0.030688593 0.76099998 0.0080057196 1.0244908e-38 343 234
0.032064959 0.76200002 0.0080162399 1.0336025e-38 344 234
0.033401001 0.76200002 0.0080162399 1.0336025e-38 345 234
0.034737039 0.76200002 0.0080162399 1.0334953e-38 346 234
0.036167759 0.764 0.0080372803 1.0611899e-38 347 234
-0.040712398 0.77399999 0.0067853997 1.1161805e-38 290 235
-0.039355319 0.77399999 0.0067853997 1.0055457e-38 291 235
-0.037998237 0.77399999 0.0067853997 1.1252188e-38 292 235
-0.036641158 0.77399999 0.0067853997 1.1620612e-38 293 235
-0.03528408 0.77399999 0.0067853997 1.1345823e-38 294 235
-0.033883166 0.773 0.0067766332 1.1438019e-38 295 235
-0.032443684 0.77100003 0.0067590997 1.1254707e-38 296 235
-0.031091858 0.77100003 0.0067590997 1.1530933e-38 297 235
-0.02966289 0.76899999 0.0067415666 1.1347618e-38 298 235
-0.02824094 0.76700002 0.006724033 1.1624565e-38 299 235
-0.026861066 0.76599997 0.0067152665 1.2083388e-38 300 235
-0.025351444 0.76099998 0.0066714329 1.2359977e-38 301 235
-0.024017159 0.76099998 0.0066714329 1.2359979e-38 302 235
-0.02262326 0.759 0.0066538998 1.2175587e-38 303 235
-0.021236373 0.75700003 0.0066363667 1.1897555e-38 304 235
-0.0198565 0.755 0.0066188332 1.1805359e-38 305 235
-0.018532733 0.755 0.0066188332 1.1897555e-38 306 235
-0.017208965 0.755 0.0066188332 1.1897555e-38 307 235
-0.01586416 0.75400001 0.0066100666 1.2173064e-38 308 235
-0.014542146 0.75400001 0.0066100666 1.2173064e-38 309 235
-0.013220133 0.75400001 0.0066100666 1.2448928e-38 310 235
-0.01189812 0.75400001 0.0066100666 1.2448928e-38 311 235
-0.010576107 0.75400001 0.0066100666 1.2357812e-38 312 235
-0.0092540924 0.75400001 0.0066100666 1.2541843e-38 313 235
-0.00793208 0.75400001 0.0066100666 1.2634044e-38 314 235
-0.0065925326 0.75199997 0.0065925326 1.2634044e-38 315 235
-0.0052740262 0.75199997 0.0065925326 1.2633691e-38 316 235
-0.0039555198 0.75199997 0.0065925326 1.2541495e-38 317 235
-0.00263 0.75 0.006575 1.2633335e-38 318 235
-0.001315 0.75 0.006575 1.2725889e-38 319 235
0 0.75 0.006575 1.2542938e-38 320 235
0.001315 0.75 0.006575 1.2635493e-38 321 235
0.00263 0.75 0.006575 1.2635137e-38 322 235
0.003945 0.75 0.006575 1.2635137e-38 323 235
0.00526 0.75 0.006575 1.2542588e-38 324 235
0.006575 0.75 0.006575 1.2542588e-38 325 235
0.00789 0.75 0.006575 1.2359279e-38 326 235
0.0092049995 0.75 0.006575 1.2267082e-38 327 235
0.01052 0.75 0.006575 1.1990862e-38 328 235
0.011866559 0.75199997 0.0065925326 1.1898666e-38 329 235
0.01315 0.75 0.006575 1.1806836e-38 330 235
0.014465 0.75 0.006575 1.1806836e-38 331 235
0.015822079 0.75199997 0.0065925326 1.1716796e-38 332 235
0.017140586 0.75199997 0.0065925326 1.1716796e-38 333 235
0.018459093 0.75199997 0.0065925326 1.1533125e-38 334 235
0.0197776 0.75199997 0.0065925326 1.1533125e-38 335 235
0.021096105 0.75199997 0.0065925326 1.1440931e-38 336 235
0.022414612 0.75199997 0.0065925326 1.1348735e-38 337 235
0.023733119 0.75199997 0.0065925326 1.1256184e-38 338 235
0.025118252 0.75400001 0.0066100666 1.0887761e-38 339 235
0.026545467 0.75700003 0.0066363667 1.0520416e-38 340 235
0.027872739 0.75700003 0.0066363667 1.0428221e-38 341 235
0.029277159 0.759 0.0066538998 1.0428221e-38 342 235
0.030607941 0.759 0.0066538998 1.0336025e-38 343 235
0.032022879 0.76099998 0.0066714329 1.0151994e-38 344 235
0.033401001 0.76200002 0.0066801999 1.005944e-38 345 235
0.034737039 0.76200002 0.0066801999 1.0242755e-38 346 235
0.036167759 0.764 0.006697733 1.0427505e-38 347 235
0.03775277 0.76899999 0.0067415666 1.0521865e-38 348 235
-0.040712398 0.77399999 0.0054283198 1.134547e-38 290 236
-0.039355319 0.77399999 0.0054283198 1.0423874e-38 291 236
-0.037998237 0.77399999 0.0054283198 1.1436221e-38 292 236
-0.036641158 0.77399999 0.0054283198 1.1620612e-38 293 236
-0.03528408 0.77399999 0.0054283198 1.14373e-38 294 236
-0.033883166 0.773 0.0054213065 1.14373e-38 295 236
-0.032443684 0.77100003 0.0054072798 1.1438019e-38 296 236
-0.031011207 0.76899999 0.0053932532 1.1530214e-38 297 236
-0.02966289 0.76899999 0.0053932532 1.1622766e-38 298 236
-0.02824094 0.76700002 0.0053792265 1.1898994e-38 299 236
-0.026861066 0.76599997 0.0053722127 1.1992269e-38 300 236
-0.025351444 0.76099998 0.0053371461 1.21763e-38 301 236
-0.023954039 0.759 0.0053231199 1.2359977e-38 302 236
-0.02262326 0.759 0.0053231199 1.2175584e-38 303 236
-0.021236373 0.75700003 0.0053090933 1.1805722e-38 304 236
-0.0198565 0.755 0.0052950666 1.1713527e-38 305 236
-0.018532733 0.755 0.0052950666 1.1805357e-38 306 236
-0.017208965 0.755 0.0052950666 1.1897552e-38 307 236
-0.01586416 0.75400001 0.0052880533 1.2264536e-38 308 236
-0.014542146 0.75400001 0.0052880533 1.2356733e-38 309 236
-0.013220133 0.75400001 0.0052880533 1.2356733e-38 310 236
-0.01189812 0.75400001 0.0052880533 1.2356733e-38 311 236
-0.010576107 0.75400001 0.0052880533 1.2448928e-38 312 236
-0.0092540924 0.75400001 0.0052880533 1.2541124e-38 313 236
-0.00793208 0.75400001 0.0052880533 1.2450729e-38 314 236
-0.0065925326 0.75199997 0.0052740262 1.2450729e-38 315 236
-0.0052740262 0.75199997 0.0052740262 1.2632969e-38 316 236
-0.0039555198 0.75199997 0.0052740262 1.2632969e-38 317 236
-0.00263 0.75 0.00526 1.2632975e-38 318 236
-0.001315 0.75 0.00526 1.272517e-38 319 236
0 0.75 0.00526 1.2542218e-38 320 236
0.001315 0.75 0.00526 1.2818805e-38 321 236
0.00263 0.75 0.00526 1.2542941e-38 322 236
0.003945 0.75 0.00526 1.2542941e-38 323 236
0.00526 0.75 0.00526 1.2450388e-38 324 236
0.006575 0.75 0.00526 1.2358193e-38 325 236
0.00789 0.75 0.00526 1.2358193e-38 326 236
0.0092049995 0.75 0.00526 1.2358193e-38 327 236
0.01052 0.75 0.00526 1.2082685e-38 328 236
0.011835 0.75 0.00526 1.1990489e-38 329 236
0.01315 0.75 0.00526 1.1714628e-38 330 236
0.014465 0.75 0.00526 1.1899019e-38 331 236
0.015822079 0.75199997 0.0052740262 1.1440209e-38 332 236
0.017140586 0.75199997 0.0052740262 1.162424e-38 333 236
0.018459093 0.75199997 0.0052740262 1.1440928e-38 334 236
0.0197776 0.75199997 0.0052740262 1.1440928e-38 335 236
0.021096105 0.75199997 0.0052740262 1.1440212e-38 336 236
0.022414612 0.75199997 0.0052740262 1.1255821e-38 337 236
0.023733119 0.75199997 0.0052740262 1.0979957e-38 338 236
0.025118252 0.75400001 0.0052880533 1.0795205e-38 339 236
0.026475333 0.755 0.0052950666 1.0428221e-38 340 236
0.027872739 0.75700003 0.0053090933 1.0336025e-38 341 236
0.029277159 0.759 0.0053231199 1.0335306e-38 342 236
0.030607941 0.759 0.0053231199 1.0243111e-38 343 236
0.032022879 0.76099998 0.0053371461 1.0150556e-38 344 236
0.033488665 0.764 0.0053581866 1.0150556e-38 345 236
0.034919381 0.76599997 0.0053722127 1.0334231e-38 346 236
0.036262438 0.76599997 0.0053722127 1.0242036e-38 347 236
0.037605491 0.76599997 0.0053722127 8.5882752e-39 348 236
0.039101087 0.76899999 0.0053932532 9.1414476e-39 349 236
-0.040712398 0.77399999 0.0040712398 1.1620259e-38 290 237
-0.039355319 0.77399999 0.0040712398 1.0882694e-38 291 237
-0.037949149 0.773 0.0040659797 1.1527698e-38 292 237
-0.036593821 0.773 0.0040659797 1.1712089e-38 293 237
-0.035238493 0.773 0.0040659797 1.1529498e-38 294 237
-0.033795502 0.77100003 0.0040554604 1.1437303e-38 295 237
-0.032359518 0.76899999 0.0040449398 1.1529496e-38 296 237
-0.031011207 0.76899999 0.0040449398 1.1713527e-38 297 237
-0.029585747 0.76700002 0.00403442 1.1898278e-38 298 237
-0.02824094 0.76700002 0.00403442 1.1990474e-38 299 237
-0.026790932 0.764 0.0040186401 1.2083388e-38 300 237
-0.025351444 0.76099998 0.0040028598 1.2359977e-38 301 237
-0.023954039 0.759 0.0039923396 1.2268503e-38 302 237
-0.022563647 0.75700003 0.0039818203 1.1992274e-38 303 237
-0.021236373 0.75700003 0.0039818203 1.1530217e-38 304 237
-0.0198565 0.755 0.0039712996 1.1530217e-38 305 237
-0.018532733 0.755 0.0039712996 1.1805359e-38 306 237
-0.017208965 0.755 0.0039712996 1.1805359e-38 307 237
-0.01586416 0.75400001 0.00396604 1.2080867e-38 308 237
-0.014542146 0.75400001 0.00396604 1.2173064e-38 309 237
-0.013220133 0.75400001 0.00396604 1.2173064e-38 310 237
-0.01189812 0.75400001 0.00396604 1.2173064e-38 311 237
-0.010576107 0.75400001 0.00396604 1.2265619e-38 312 237
-0.0092540924 0.75400001 0.00396604 1.2357814e-38 313 237
-0.00793208 0.75400001 0.00396604 1.2358177e-38 314 237
-0.0065925326 0.75199997 0.0039555198 1.2358177e-38 315 237
-0.0052740262 0.75199997 0.0039555198 1.2540773e-38 316 237
-0.0039555198 0.75199997 0.0039555198 1.2448578e-38 317 237
-0.0026370131 0.75199997 0.0039555198 1.226491e-38 318 237
-0.001315 0.75 0.003945 1.2541495e-38 319 237
0 0.75 0.003945 1.2450379e-38 320 237
0.001315 0.75 0.003945 1.2542574e-38 321 237
0.00263 0.75 0.003945 1.2450025e-38 322 237
0.003945 0.75 0.003945 1.2450025e-38 323 237
0.00526 0.75 0.003945 1.2357474e-38 324 237
0.006575 0.75 0.003945 1.2357474e-38 325 237
0.00789 0.75 0.003945 1.2174162e-38 326 237
0.0092049995 0.75 0.003945 1.2174162e-38 327 237
0.01052 0.75 0.003945 1.1989767e-38 328 237
0.011835 0.75 0.003945 1.1897572e-38 329 237
0.01315 0.75 0.003945 1.1714623e-38 330 237
0.014465 0.75 0.003945 1.1714623e-38 331 237
0.01578 0.75 0.003945 1.1439483e-38 332 237
0.017140586 0.75199997 0.0039555198 1.1623874e-38 333 237
0.018459093 0.75199997 0.0039555198 1.1440565e-38 334 237
0.0197776 0.75199997 0.0039555198 1.1348011e-38 335 237
0.021096105 0.75199997 0.0039555198 1.1255818e-38 336 237
0.022414612 0.75199997 0.0039555198 1.1163622e-38 337 237
0.023733119 0.75199997 0.0039555198 1.0795561e-38 338 237
0.025118252 0.75400001 0.00396604 1.061117e-38 339 237
0.026475333 0.755 0.0039712996 1.0151638e-38 340 237
0.027872739 0.75700003 0.0039818203 1.0059442e-38 341 237
0.029200014 0.75700003 0.0039818203 9.7828541e-39 342 237
0.030607941 0.759 0.0039923396 9.7828541e-39 343 237
0.032022879 0.76099998 0.0040028598 1.005764e-38 344 237
0.033488665 0.764 0.0040186401 1.0149836e-38 345 237
0.034828212 0.764 0.0040186401 1.0333507e-38 346 237
0.036262438 0.76599997 0.0040291594 1.0425704e-38 347 237
0.037605491 0.76599997 0.0040291594 9.1385651e-39 348 237
0.039101087 0.76899999 0.0040449398 8.7694225e-39 349 237
-0.040712398 0.77399999 0.0027141599 1.1619543e-38 290 238
-0.039355319 0.77399999 0.0027141599 1.0974174e-38 291 238
-0.037949149 0.773 0.0027106532 1.1528417e-38 292 238
-0.036593821 0.773 0.0027106532 1.1620612e-38 293 238
-0.035238493 0.773 0.0027106532 1.14373e-38 294 238
-0.033795502 0.77100003 0.0027036399 1.1529496e-38 295 238
-0.032359518 0.76899999 0.0026966266 1.1712808e-38 296 238
-0.030930554 0.76700002 0.0026896133 1.1897558e-38 297 238
-0.029585747 0.76700002 0.0026896133 1.162313e-38 298 238
-0.02824094 0.76700002 0.0026896133 1.180788e-38 299 238
-0.026790932 0.764 0.0026790933 1.1900076e-38 300 238
-0.025351444 0.76099998 0.0026685731 1.2176303e-38 301 238
-0.023954039 0.759 0.00266156 1.2268149e-38 302 238
-0.022563647 0.75700003 0.0026545466 1.1899726e-38 303 238
-0.021236373 0.75700003 0.0026545466 1.1622057e-38 304 238
-0.0198565 0.755 0.0026475333 1.1529861e-38 305 238
-0.018532733 0.755 0.0026475333 1.1530214e-38 306 238
-0.017208965 0.755 0.0026475333 1.1530214e-38 307 238
-0.01586416 0.75400001 0.0026440267 1.1805003e-38 308 238
-0.014542146 0.75400001 0.0026440267 1.1897558e-38 309 238
-0.013220133 0.75400001 0.0026440267 1.208159e-38 310 238
-0.01189812 0.75400001 0.0026440267 1.208159e-38 311 238
-0.010576107 0.75400001 0.0026440267 1.2173064e-38 312 238
-0.0092295464 0.75199997 0.0026370131 1.2357814e-38 313 238
-0.0079110395 0.75199997 0.0026370131 1.2265982e-38 314 238
-0.0066100666 0.75400001 0.0026440267 1.2265982e-38 315 238
-0.0052880533 0.75400001 0.0026440267 1.2357461e-38 316 238
-0.0039555198 0.75199997 0.0026370131 1.2265266e-38 317 238
-0.0026370131 0.75199997 0.0026370131 1.2173789e-38 318 238
-0.001315 0.75 0.00263 1.2173789e-38 319 238
0 0.75 0.00263 1.2082319e-38 320 238
0.001315 0.75 0.00263 1.2174515e-38 321 238
0.00263 0.75 0.00263 1.235783e-38 322 238
0.003945 0.75 0.00263 1.235783e-38 323 238
0.00526 0.75 0.00263 1.1990489e-38 324 238
0.006575 0.75 0.00263 1.1898294e-38 325 238
0.0078794798 0.74900001 0.0026264933 1.1897938e-38 326 238
0.0091927266 0.74900001 0.0026264933 1.1897938e-38 327 238
0.010505973 0.74900001 0.0026264933 1.1897575e-38 328 238
0.011835 0.75 0.00263 1.1805378e-38 329 238
0.01315 0.75 0.00263 1.1439115e-38 330 238
0.014465 0.75 0.00263 1.1439115e-38 331 238
0.01578 0.75 0.00263 1.1347288e-38 332 238
0.017095 0.75 0.00263 1.1439483e-38 333 238
0.018459093 0.75199997 0.0026370131 1.1255818e-38 334 238
0.0197776 0.75199997 0.0026370131 1.1163622e-38 335 238
0.021096105 0.75199997 0.0026370131 1.0887758e-38 336 238
0.022414612 0.75199997 0.0026370131 1.0795561e-38 337 238
0.023733119 0.75199997 0.0026370131 1.0427499e-38 338 238
0.025118252 0.75400001 0.0026440267 1.0243108e-38 339 238
0.026475333 0.755 0.0026475333 9.7839289e-39 340 238
0.027799098 0.755 0.0026475333 9.5995363e-39 341 238
0.029200014 0.75700003 0.0026545466 9.5066246e-39 342 238
0.030607941 0.759 0.00266156 9.5066246e-39 343 238
0.032022879 0.76099998 0.0026685731 9.8732519e-39 344 238
0.033401001 0.76200002 0.00267208 9.8732519e-39 345 238
0.034828212 0.764 0.0026790933 1.005764e-38 346 238
0.036167759 0.764 0.0026790933 1.0149836e-38 347 238
0.037654586 0.76700002 0.0026896133 1.0149836e-38 348 238
0.038999394 0.76700002 0.0026896133 9.9654447e-39 349 238
-0.040712398 0.77399999 0.0013570799 1.1527347e-38 290 239
-0.039355319 0.77399999 0.0013570799 1.1066369e-38 291 239
-0.037949149 0.773 0.0013553266 1.1528419e-38 292 239
-0.036593821 0.773 0.0013553266 1.1805006e-38 293 239
-0.03514732 0.77100003 0.00135182 1.1438022e-38 294 239
-0.033707831 0.76899999 0.0013483133 1.1438022e-38 295 239
-0.03227536 0.76700002 0.0013448066 1.1713164e-38 296 239
-0.030930554 0.76700002 0.0013448066 1.1805359e-38 297 239
-0.029547172 0.76599997 0.0013430532 1.1898994e-38 298 239
-0.028204117 0.76599997 0.0013430532 1.199119e-38 299 239
-0.026790932 0.764 0.0013395466 1.1808599e-38 300 239
-0.025284819 0.759 0.00133078 1.1900795e-38 301 239
-0.023954039 0.759 0.00133078 1.2083038e-38 302 239
-0.022563647 0.75700003 0.0013272733 1.1898288e-38 303 239
-0.021236373 0.75700003 0.0013272733 1.1622783e-38 304 239
-0.0198565 0.755 0.0013237667 1.1530586e-38 305 239
-0.018532733 0.755 0.0013237667 1.1713532e-38 306 239
-0.017208965 0.755 0.0013237667 1.1713532e-38 307 239
-0.015885198 0.755 0.0013237667 1.1805006e-38 308 239
-0.014561433 0.755 0.0013237667 1.1897202e-38 309 239
-0.013220133 0.75400001 0.0013220133 1.208159e-38 310 239
-0.01189812 0.75400001 0.0013220133 1.208159e-38 311 239
-0.010576107 0.75400001 0.0013220133 1.2356379e-38 312 239
-0.0092295464 0.75199997 0.0013185065 1.2448575e-38 313 239
-0.0079110395 0.75199997 0.0013185065 1.2082669e-38 314 239
-0.0066100666 0.75400001 0.0013220133 1.2082669e-38 315 239
-0.0052880533 0.75400001 0.0013220133 1.2173786e-38 316 239
-0.0039555198 0.75199997 0.0013185065 1.2173786e-38 317 239
-0.0026370131 0.75199997 0.0013185065 1.2081234e-38 318 239
-0.001315 0.75 0.001315 1.2173789e-38 319 239
0 0.75 0.001315 1.2265629e-38 320 239
0.001315 0.75 0.001315 1.2265629e-38 321 239
0.00263 0.75 0.001315 1.2082319e-38 322 239
0.003945 0.75 0.001315 1.2082319e-38 323 239
0.00526 0.75 0.001315 1.1898291e-38 324 239
0.0065662335 0.74900001 0.0013132467 1.1898291e-38 325 239
0.0078794798 0.74900001 0.0013132467 1.1805378e-38 326 239
0.0091927266 0.74900001 0.0013132467 1.1805378e-38 327 239
0.010505973 0.74900001 0.0013132467 1.1805378e-38 328 239
0.01181922 0.74900001 0.0013132467 1.1805378e-38 329 239
0.01315 0.75 0.001315 1.1530233e-38 330 239
0.014465 0.75 0.001315 1.1346202e-38 331 239
0.01578 0.75 0.001315 1.1529158e-38 332 239
0.017095 0.75 0.001315 1.1621714e-38 333 239
0.018409999 0.75 0.001315 1.1071424e-38 334 239
0.0197776 0.75199997 0.0013185065 1.1071424e-38 335 239
0.021096105 0.75199997 0.0013185065 1.079484e-38 336 239
0.022414612 0.75199997 0.0013185065 1.0610448e-38 337 239
0.023733119 0.75199997 0.0013185065 1.0059796e-38 338 239
0.025118252 0.75400001 0.0013220133 9.8754029e-39 339 239
0.026440267 0.75400001 0.0013220133 9.7828485e-39 340 239
0.027799098 0.755 0.0013237667 9.6906529e-39 341 239
0.029200014 0.75700003 0.0013272733 9.5977356e-39 342 239
0.030607941 0.759 0.00133078 9.50554e-39 343 239
0.032022879 0.76099998 0.0013342865 9.7803318e-39 344 239
0.033401001 0.76200002 0.00133604 9.9650818e-39 345 239
0.034828212 0.764 0.0013395466 1.0057277e-38 346 239
0.036167759 0.764 0.0013395466 1.0333504e-38 347 239
0.037605491 0.76599997 0.0013430532 1.171572e-38 348 239
0.038999394 0.76700002 0.0013448066 1.2729872e-38 349 239
-0.040712398 0.77399999 -0 1.1802855e-38 290 240
-0.039355319 0.77399999 -0 1.1434432e-38 291 240
-0.037949149 0.773 -0 1.1529142e-38 292 240
-0.036593821 0.773 -0 1.1529142e-38 293 240
-0.035056144 0.76899999 -0 1.1437666e-38 294 240
-0.033707831 0.76899999 -0 1.134547e-38 295 240
-0.03227536 0.76700002 -0 1.1620612e-38 296 240
-0.030930554 0.76700002 -0 1.1805003e-38 297 240
-0.029547172 0.76599997 -0 1.1714607e-38 298 240
-0.028204117 0.76599997 -0 1.2083388e-38 299 240
-0.026790932 0.764 -0 1.2083391e-38 300 240
-0.025284819 0.759 -0 1.2083391e-38 301 240
-0.023954039 0.759 -0 1.1807171e-38 302 240
-0.022563647 0.75700003 -0 1.1714976e-38 303 240
-0.021180267 0.755 -0 1.1622057e-38 304 240
-0.0198565 0.755 -0 1.1622057e-38 305 240
-0.018532733 0.755 -0 1.171353e-38 306 240
-0.017208965 0.755 -0 1.171353e-38 307 240
-0.015885198 0.755 -0 1.1805725e-38 308 240
-0.014561433 0.755 -0 1.1805725e-38 309 240
-0.013220133 0.75400001 -0 1.1897202e-38 310 240
-0.01189812 0.75400001 -0 1.1897202e-38 311 240
-0.010576107 0.75400001 -0 1.1897202e-38 312 240
-0.0092540924 0.75400001 -0 1.2173789e-38 313 240
-0.00793208 0.75400001 -0 1.1990118e-38 314 240
-0.0066100666 0.75400001 -0 1.1897922e-38 315 240
-0.0052880533 0.75400001 -0 1.2081237e-38 316 240
-0.0039555198 0.75199997 -0 1.1897205e-38 317 240
-0.0026370131 0.75199997 -0 1.1897569e-38 318 240
-0.0013185065 0.75199997 -0 1.1897569e-38 319 240
0 0.75 -0 1.1898288e-38 320 240
0.001315 0.75 -0 1.1898288e-38 321 240
0.00263 0.75 -0 1.1898294e-38 322 240
0.003945 0.75 -0 1.1713904e-38 323 240
0.00526 0.75 -0 1.162243e-38 324 240
0.0065662335 0.74900001 -0 1.1530233e-38 325 240
0.0078794798 0.74900001 -0 1.1621709e-38 326 240
0.0091927266 0.74900001 -0 1.1529514e-38 327 240
0.010505973 0.74900001 -0 1.1529158e-38 328 240
0.01181922 0.74900001 -0 1.1436962e-38 329 240
0.01315 0.75 -0 1.1161817e-38 330 240
0.014465 0.75 -0 1.0977786e-38 331 240
0.01578 0.75 -0 1.0885956e-38 332 240
0.017095 0.75 -0 1.0885956e-38 333 240
0.018409999 0.75 -0 1.0427502e-38 334 240
0.0197776 0.75199997 -0 1.0335306e-38 335 240
0.021096105 0.75199997 -0 1.005944e-38 336 240
0.022414612 0.75199997 -0 9.967244e-39 337 240
0.023733119 0.75199997 -0 9.7828513e-39 338 240
0.025051624 0.75199997 -0 9.5066246e-39 339 240
0.026440267 0.75400001 -0 9.689934e-39 340 240
0.027799098 0.755 -0 9.5055428e-39 341 240
0.029200014 0.75700003 -0 9.5048197e-39 342 240
0.030607941 0.759 -0 9.5048197e-39 343 240
0.032064959 0.76200002 -0 9.5048225e-39 344 240
0.033401001 0.76200002 -0 9.6892152e-39 345 240
0.034828212 0.764 -0 9.689218e-39 346 240
0.036167759 0.764 -0 1.0242392e-38 347 240
0.037605491 0.76599997 -0 1.3189058e-38 348 240
0.038999394 0.76700002 -0 1.4295046e-38 349 240
-0.042178184 0.77600002 -0.0013605866 1.3926244e-38 289 241
-0.040712398 0.77399999 -0.0013570799 1.1987602e-38 290 241
-0.039355319 0.77399999 -0.0013570799 1.1157842e-38 291 241
-0.037949149 0.773 -0.0013553266 1.1527345e-38 292 241
-0.036593821 0.773 -0.0013553266 1.1896126e-38 293 241
-0.035056144 0.76899999 -0.0013483133 1.1620262e-38 294 241
-0.033707831 0.76899999 -0.0013483133 1.1620262e-38 295 241
-0.032359518 0.76899999 -0.0013483133 1.1529496e-38 296 241
-0.030930554 0.76700002 -0.0013448066 1.1713527e-38 297 241
-0.029547172 0.76599997 -0.0013430532 1.1898275e-38 298 241
-0.028204117 0.76599997 -0.0013430532 1.2082667e-38 299 241
-0.0267208 0.76200002 -0.00133604 1.189972e-38 300 241
-0.025284819 0.759 -0.00133078 1.189972e-38 301 241
-0.02389092 0.75700003 -0.0013272733 1.1807171e-38 302 241
-0.022504034 0.755 -0.0013237667 1.1714976e-38 303 241
-0.021180267 0.755 -0.0013237667 1.1622063e-38 304 241
-0.0198565 0.755 -0.0013237667 1.1529867e-38 305 241
-0.018532733 0.755 -0.0013237667 1.1713176e-38 306 241
-0.017208965 0.755 -0.0013237667 1.1805372e-38 307 241
-0.01586416 0.75400001 -0.0013220133 1.1713532e-38 308 241
-0.014542146 0.75400001 -0.0013220133 1.1805728e-38 309 241
-0.013220133 0.75400001 -0.0013220133 1.1805725e-38 310 241
-0.01189812 0.75400001 -0.0013220133 1.1805725e-38 311 241
-0.010576107 0.75400001 -0.0013220133 1.208087e-38 312 241
-0.0092295464 0.75199997 -0.0013185065 1.208087e-38 313 241
-0.0079110395 0.75199997 -0.0013185065 1.1990118e-38 314 241
-0.0066100666 0.75400001 -0.0013220133 1.1897922e-38 315 241
-0.0052880533 0.75400001 -0.0013220133 1.208052e-38 316 241
-0.0039555198 0.75199997 -0.0013185065 1.208052e-38 317 241
-0.0026370131 0.75199997 -0.0013185065 1.2080164e-38 318 241
-0.0013185065 0.75199997 -0.0013185065 1.2172361e-38 319 241
0 0.75 -0.001315 1.2080884e-38 320 241
0.001315 0.75 -0.001315 1.1896852e-38 321 241
0.00263 0.75 -0.001315 1.2080884e-38 322 241
0.003945 0.75 -0.001315 1.1896852e-38 323 241
0.00526 0.75 -0.001315 1.1621707e-38 324 241
0.0065662335 0.74900001 -0.0013132467 1.1529511e-38 325 241
0.0078794798 0.74900001 -0.0013132467 1.1346202e-38 326 241
0.0091927266 0.74900001 -0.0013132467 1.1346202e-38 327 241
0.010505973 0.74900001 -0.0013132467 1.1528795e-38 328 241
0.01181922 0.74900001 -0.0013132467 1.1528795e-38 329 241
0.013132467 0.74900001 -0.0013132467 1.1161454e-38 330 241
0.014445714 0.74900001 -0.0013132467 1.1069259e-38 331 241
0.01575896 0.74900001 -0.0013132467 1.0976707e-38 332 241
0.017095 0.75 -0.001315 1.0976707e-38 333 241
0.018409999 0.75 -0.001315 1.0701562e-38 334 241
0.0197776 0.75199997 -0.0013185065 1.0517531e-38 335 241
0.021096105 0.75199997 -0.0013185065 1.0333504e-38 336 241
0.022414612 0.75199997 -0.0013185065 1.0057277e-38 337 241
0.023733119 0.75199997 -0.0013185065 9.6892152e-39 338 241
0.025051624 0.75199997 -0.0013185065 9.5970195e-39 339 241
0.026440267 0.75400001 -0.0013220133 9.688132e-39 340 241
0.027799098 0.755 -0.0013237667 9.5041008e-39 341 241
0.029200014 0.75700003 -0.0013272733 9.687769e-39 342 241
0.030607941 0.759 -0.00133078 9.687769e-39 343 241
0.032064959 0.76200002 -0.00133604 9.8710813e-39 344 241
0.033401001 0.76200002 -0.00133604 1.0055474e-38 345 241
0.034828212 0.764 -0.0013395466 9.8718086e-39 346 241
0.036167759 0.764 -0.0013395466 1.0701568e-38 347 241
0.037605491 0.76599997 -0.0013430532 1.374151e-38 348 241
-0.042178184 0.77600002 -0.0027211732 1.4110636e-38 289 242
-0.040712398 0.77399999 -0.0027141599 1.1529145e-38 290 242
-0.039355319 0.77399999 -0.0027141599 1.0238406e-38 291 242
-0.037850961 0.77100003 -0.0027036399 1.1251479e-38 292 242
-0.036499143 0.77100003 -0.0027036399 1.1528066e-38 293 242
-0.035056144 0.76899999 -0.0026966266 1.1436594e-38 294 242
-0.033707831 0.76899999 -0.0026966266 1.1436594e-38 295 242
-0.03227536 0.76700002 -0.0026896133 1.1620615e-38 296 242
-0.030930554 0.76700002 -0.0026896133 1.1897202e-38 297 242
-0.029547172 0.76599997 -0.0026861064 1.1714607e-38 298 242
-0.028130481 0.764 -0.0026790933 1.1991193e-38 299 242
-0.0267208 0.76200002 -0.00267208 1.189972e-38 300 242
-0.025284819 0.759 -0.00266156 1.189972e-38 301 242
-0.02389092 0.75700003 -0.0026545466 1.1807171e-38 302 242
-0.022504034 0.755 -0.0026475333 1.1714976e-38 303 242
-0.021180267 0.755 -0.0026475333 1.1622783e-38 304 242
-0.0198565 0.755 -0.0026475333 1.1530586e-38 305 242
-0.018532733 0.755 -0.0026475333 1.162206e-38 306 242
-0.017208965 0.755 -0.0026475333 1.1529864e-38 307 242
-0.01586416 0.75400001 -0.0026440267 1.1622057e-38 308 242
-0.014542146 0.75400001 -0.0026440267 1.1622057e-38 309 242
-0.013220133 0.75400001 -0.0026440267 1.1805725e-38 310 242
-0.01189812 0.75400001 -0.0026440267 1.171353e-38 311 242
-0.010576107 0.75400001 -0.0026440267 1.1805009e-38 312 242
-0.0092295464 0.75199997 -0.0026370131 1.1805009e-38 313 242
-0.0079110395 0.75199997 -0.0026370131 1.1805372e-38 314 242
-0.0065925326 0.75199997 -0.0026370131 1.1805372e-38 315 242
-0.0052740262 0.75199997 -0.0026370131 1.1987968e-38 316 242
-0.0039555198 0.75199997 -0.0026370131 1.1987968e-38 317 242
-0.0026370131 0.75199997 -0.0026370131 1.1805378e-38 318 242
-0.0013185065 0.75199997 -0.0026370131 1.1805378e-38 319 242
0 0.75 -0.00263 1.1621707e-38 320 242
0.001315 0.75 -0.00263 1.1529511e-38 321 242
0.00263 0.75 -0.00263 1.1712826e-38 322 242
0.0039397399 0.74900001 -0.0026264933 1.1712826e-38 323 242
0.0052529867 0.74900001 -0.0026264933 1.1437318e-38 324 242
0.0065662335 0.74900001 -0.0026264933 1.1437318e-38 325 242
0.0078794798 0.74900001 -0.0026264933 1.1436962e-38 326 242
0.0091927266 0.74900001 -0.0026264933 1.1344767e-38 327 242
0.010505973 0.74900001 -0.0026264933 1.1252571e-38 328 242
0.01181922 0.74900001 -0.0026264933 1.1252571e-38 329 242
0.013132467 0.74900001 -0.0026264933 1.0884509e-38 330 242
0.014445714 0.74900001 -0.0026264933 1.0884509e-38 331 242
0.01575896 0.74900001 -0.0026264933 1.0516448e-38 332 242
0.017095 0.75 -0.00263 1.0516448e-38 333 242
0.018409999 0.75 -0.00263 1.014947e-38 334 242
0.0197776 0.75199997 -0.0026370131 1.0057275e-38 335 242
0.021096105 0.75199997 -0.0026370131 9.9647259e-39 336 242
0.022414612 0.75199997 -0.0026370131 9.8725302e-39 337 242
0.023733119 0.75199997 -0.0026370131 9.5970195e-39 338 242
0.025051624 0.75199997 -0.0026370131 9.5048225e-39 339 242
0.026440267 0.75400001 -0.0026440267 9.4126241e-39 340 242
0.027799098 0.755 -0.0026475333 9.3204284e-39 341 242
0.029277159 0.759 -0.00266156 9.5955734e-39 342 242
0.030688593 0.76099998 -0.0026685731 9.5955734e-39 343 242
0.032064959 0.76200002 -0.00267208 9.6877718e-39 344 242
0.033401001 0.76200002 -0.00267208 9.8721645e-39 345 242
0.034828212 0.764 -0.0026790933 1.0056198e-38 346 242
0.036167759 0.764 -0.0026790933 1.0978155e-38 347 242
-0.042178184 0.77600002 -0.0040817601 1.4570542e-38 289 243
-0.040712398 0.77399999 -0.0040712398 1.1713179e-38 290 243
-0.039355319 0.77399999 -0.0040712398 1.0145855e-38 291 243
-0.037850961 0.77100003 -0.0040554604 1.1159284e-38 292 243
-0.036499143 0.77100003 -0.0040554604 1.1528066e-38 293 243
-0.035056144 0.76899999 -0.0040449398 1.1345117e-38 294 243
-0.033707831 0.76899999 -0.0040449398 1.1437313e-38 295 243
-0.03227536 0.76700002 -0.00403442 1.1529861e-38 296 243
-0.030930554 0.76700002 -0.00403442 1.1622057e-38 297 243
-0.029547172 0.76599997 -0.0040291594 1.1623133e-38 298 243
-0.028130481 0.764 -0.0040186401 1.1807524e-38 299 243
-0.0267208 0.76200002 -0.0040081199 1.1807527e-38 300 243
-0.025284819 0.759 -0.0039923396 1.1807527e-38 301 243
-0.02389092 0.75700003 -0.0039818203 1.1714978e-38 302 243
-0.022563647 0.75700003 -0.0039818203 1.1714978e-38 303 243
-0.021236373 0.75700003 -0.0039818203 1.1439115e-38 304 243
-0.0198565 0.755 -0.0039712996 1.1439115e-38 305 243
-0.018532733 0.755 -0.0039712996 1.1439112e-38 306 243
-0.017208965 0.755 -0.0039712996 1.1346915e-38 307 243
-0.01586416 0.75400001 -0.00396604 1.1529864e-38 308 243
-0.014542146 0.75400001 -0.00396604 1.1529864e-38 309 243
-0.013220133 0.75400001 -0.00396604 1.1529142e-38 310 243
-0.01189812 0.75400001 -0.00396604 1.1436947e-38 311 243
-0.010576107 0.75400001 -0.00396604 1.1712813e-38 312 243
-0.0092295464 0.75199997 -0.0039555198 1.1712813e-38 313 243
-0.0079110395 0.75199997 -0.0039555198 1.1713176e-38 314 243
-0.0065925326 0.75199997 -0.0039555198 1.1713176e-38 315 243
-0.0052740262 0.75199997 -0.0039555198 1.1713179e-38 316 243
-0.0039555198 0.75199997 -0.0039555198 1.1713179e-38 317 243
-0.0026370131 0.75199997 -0.0039555198 1.1621707e-38 318 243
-0.0013185065 0.75199997 -0.0039555198 1.1621707e-38 319 243
0 0.75 -0.003945 1.1529514e-38 320 243
0.001315 0.75 -0.003945 1.1437318e-38 321 243
0.00263 0.75 -0.003945 1.1437318e-38 322 243
0.0039397399 0.74900001 -0.0039397399 1.1437318e-38 323 243
0.0052529867 0.74900001 -0.0039397399 1.1344767e-38 324 243
0.0065662335 0.74900001 -0.0039397399 1.1344767e-38 325 243
0.0078794798 0.74900001 -0.0039397399 1.1161454e-38 326 243
0.0091927266 0.74900001 -0.0039397399 1.1069259e-38 327 243
0.010505973 0.74900001 -0.0039397399 1.106854e-38 328 243
0.01181922 0.74900001 -0.0039397399 1.106854e-38 329 243
0.013132467 0.74900001 -0.0039397399 1.0608999e-38 330 243
0.014445714 0.74900001 -0.0039397399 1.0424608e-38 331 243
0.01575896 0.74900001 -0.0039397399 1.0240221e-38 332 243
0.017095 0.75 -0.003945 1.0240221e-38 333 243
0.018409999 0.75 -0.003945 1.0148747e-38 334 243
0.0197776 0.75199997 -0.0039555198 1.0056193e-38 335 243
0.021096105 0.75199997 -0.0039555198 9.7803318e-39 336 243
0.022414612 0.75199997 -0.0039555198 9.6881348e-39 337 243
0.023733119 0.75199997 -0.0039555198 9.5041036e-39 338 243
0.025118252 0.75400001 -0.00396604 9.3197124e-39 339 243
0.026440267 0.75400001 -0.00396604 9.3197096e-39 340 243
0.027799098 0.755 -0.0039712996 9.227514e-39 341 243
0.029277159 0.759 -0.0039923396 9.2275112e-39 342 243
0.030688593 0.76099998 -0.0040028598 9.3197068e-39 343 243
0.032064959 0.76200002 -0.0040081199 9.5041008e-39 344 243
0.033488665 0.764 -0.0040186401 9.7806877e-39 345 243
0.034828212 0.764 -0.0040186401 1.0332785e-38 346 243
0.036167759 0.764 -0.0040186401 1.1623524e-38 347 243
-0.043650985 0.778 -0.0054563731 1.5123718e-38 288 244
-0.042178184 0.77600002 -0.0054423464 1.5031163e-38 289 244
-0.0408176 0.77600002 -0.0054423464 1.235783e-38 290 244
-0.039355319 0.77399999 -0.0054283198 1.0421722e-38 291 244
-0.037949149 0.773 -0.0054213065 1.1068163e-38 292 244
-0.036499143 0.77100003 -0.0054072798 1.1344751e-38 293 244
-0.03514732 0.77100003 -0.0054072798 1.1252919e-38 294 244
-0.033707831 0.76899999 -0.0053932532 1.1437669e-38 295 244
-0.03227536 0.76700002 -0.0053792265 1.1529142e-38 296 244
-0.030930554 0.76700002 -0.0053792265 1.1805728e-38 297 244
-0.029547172 0.76599997 -0.0053722127 1.1623133e-38 298 244
-0.028130481 0.764 -0.0053581866 1.1623133e-38 299 244
-0.0267208 0.76200002 -0.0053441599 1.1715332e-38 300 244
-0.025284819 0.759 -0.0053231199 1.1715332e-38 301 244
-0.023954039 0.759 -0.0053231199 1.162278e-38 302 244
-0.022563647 0.75700003 -0.0053090933 1.162278e-38 303 244
-0.021236373 0.75700003 -0.0053090933 1.1439115e-38 304 244
-0.019909101 0.75700003 -0.0053090933 1.1439115e-38 305 244
-0.018581826 0.75700003 -0.0053090933 1.1530586e-38 306 244
-0.017208965 0.755 -0.0052950666 1.1346196e-38 307 244
-0.01586416 0.75400001 -0.0052880533 1.143695e-38 308 244
-0.014542146 0.75400001 -0.0052880533 1.143695e-38 309 244
-0.013220133 0.75400001 -0.0052880533 1.1528063e-38 310 244
-0.01189812 0.75400001 -0.0052880533 1.1435868e-38 311 244
-0.010576107 0.75400001 -0.0052880533 1.1712095e-38 312 244
-0.0092295464 0.75199997 -0.0052740262 1.1712095e-38 313 244
-0.0079110395 0.75199997 -0.0052740262 1.143695e-38 314 244
-0.0065925326 0.75199997 -0.0052740262 1.143695e-38 315 244
-0.0052740262 0.75199997 -0.0052740262 1.1436594e-38 316 244
-0.0039555198 0.75199997 -0.0052740262 1.1529148e-38 317 244
-0.0026370131 0.75199997 -0.0052740262 1.1712823e-38 318 244
-0.0013185065 0.75199997 -0.0052740262 1.1712823e-38 319 244
0 0.75 -0.00526 1.1528792e-38 320 244
0.001315 0.75 -0.00526 1.1436597e-38 321 244
0.00263 0.75 -0.00526 1.1436599e-38 322 244
0.003945 0.75 -0.00526 1.1344045e-38 323 244
0.00526 0.75 -0.00526 1.106854e-38 324 244
0.006575 0.75 -0.00526 1.1252571e-38 325 244
0.0078794798 0.74900001 -0.0052529867 1.0977063e-38 326 244
0.0091927266 0.74900001 -0.0052529867 1.0884509e-38 327 244
0.010505973 0.74900001 -0.0052529867 1.0883788e-38 328 244
0.01181922 0.74900001 -0.0052529867 1.0883788e-38 329 244
0.013132467 0.74900001 -0.0052529867 1.0608278e-38 330 244
0.014465 0.75 -0.00526 1.0423887e-38 331 244
0.01578 0.75 -0.00526 1.0331694e-38 332 244
0.017095 0.75 -0.00526 1.0331694e-38 333 244
0.018409999 0.75 -0.00526 1.0055474e-38 334 244
0.0197776 0.75199997 -0.0052740262 1.0055474e-38 335 244
0.021096105 0.75199997 -0.0052740262 9.6881348e-39 336 244
0.022414612 0.75199997 -0.0052740262 9.411908e-39 337 244
0.023733119 0.75199997 -0.0052740262 9.3197124e-39 338 244
0.025118252 0.75400001 -0.0052880533 9.227158e-39 339 244
0.026475333 0.755 -0.0052950666 9.2267923e-39 340 244
0.027872739 0.75700003 -0.0053090933 9.1345953e-39 341 244
0.029277159 0.759 -0.0053231199 9.1353155e-39 342 244
0.030688593 0.76099998 -0.0053371461 9.2275112e-39 343 244
0.032064959 0.76200002 -0.0053441599 9.687769e-39 344 244
0.033488665 0.764 -0.0053581866 9.8721617e-39 345 244
0.034828212 0.764 -0.0053581866 1.1345495e-38 346 244
0.036167759 0.764 -0.0053581866 1.2359289e-38 347 244
-0.043650985 0.778 -0.0068204664 1.4847853e-38 288 245
-0.042286891 0.778 -0.0068204664 1.5032246e-38 289 245
-0.0408176 0.77600002 -0.0068029333 1.2819531e-38 290 245
-0.039355319 0.77399999 -0.0067853997 1.0422084e-38 291 245
-0.037998237 0.77399999 -0.0067853997 1.1067444e-38 292 245
-0.036593821 0.773 -0.0067766332 1.1435868e-38 293 245
-0.03514732 0.77100003 -0.0067590997 1.1069609e-38 294 245
-0.033707831 0.76899999 -0.0067415666 1.1069609e-38 295 245
-0.03227536 0.76700002 -0.006724033 1.1161802e-38 296 245
-0.030930554 0.76700002 -0.006724033 1.1346552e-38 297 245
-0.029470026 0.764 -0.006697733 1.1255072e-38 298 245
-0.028130481 0.764 -0.006697733 1.1439465e-38 299 245
-0.0267208 0.76200002 -0.0066801999 1.1439465e-38 300 245
-0.025284819 0.759 -0.0066538998 1.1439465e-38 301 245
-0.023954039 0.759 -0.0066538998 1.1439112e-38 302 245
-0.02262326 0.759 -0.0066538998 1.1346915e-38 303 245
-0.021236373 0.75700003 -0.0066363667 1.1346918e-38 304 245
-0.019909101 0.75700003 -0.0066363667 1.1346918e-38 305 245
-0.018581826 0.75700003 -0.0066363667 1.1346199e-38 306 245
-0.017208965 0.755 -0.0066188332 1.1254003e-38 307 245
-0.015885198 0.755 -0.0066188332 1.1252202e-38 308 245
-0.014542146 0.75400001 -0.0066100666 1.1160005e-38 309 245
-0.013220133 0.75400001 -0.0066100666 1.1251479e-38 310 245
-0.01189812 0.75400001 -0.0066100666 1.1251479e-38 311 245
-0.010576107 0.75400001 -0.0066100666 1.12522e-38 312 245
-0.0092540924 0.75400001 -0.0066100666 1.1344754e-38 313 245
-0.0079110395 0.75199997 -0.0065925326 1.1344401e-38 314 245
-0.0065925326 0.75199997 -0.0065925326 1.1436597e-38 315 245
-0.0052740262 0.75199997 -0.0065925326 1.1436599e-38 316 245
-0.0039555198 0.75199997 -0.0065925326 1.1528795e-38 317 245
-0.0026370131 0.75199997 -0.0065925326 1.1253647e-38 318 245
-0.0013185065 0.75199997 -0.0065925326 1.1253647e-38 319 245
0 0.75199997 -0.0065925326 1.1436597e-38 320 245
0.001315 0.75 -0.006575 1.1436597e-38 321 245
0.00263 0.75 -0.006575 1.1069259e-38 322 245
0.003945 0.75 -0.006575 1.1069259e-38 323 245
0.00526 0.75 -0.006575 1.0793395e-38 324 245
0.0065662335 0.74900001 -0.0065662335 1.0701199e-38 325 245
0.0078794798 0.74900001 -0.0065662335 1.0609002e-38 326 245
0.0091927266 0.74900001 -0.0065662335 1.0609002e-38 327 245
0.010505973 0.74900001 -0.0065662335 1.0608283e-38 328 245
0.011835 0.75 -0.006575 1.0608283e-38 329 245
0.01315 0.75 -0.006575 1.0423889e-38 330 245
0.014465 0.75 -0.006575 1.0331694e-38 331 245
0.01578 0.75 -0.006575 9.8725176e-39 332 245
0.017095 0.75 -0.006575 9.7799619e-39 333 245
0.018409999 0.75 -0.006575 9.7799647e-39 334 245
0.019724999 0.75 -0.006575 9.7799647e-39 335 245
0.021096105 0.75199997 -0.0065925326 9.4126269e-39 336 245
0.022474226 0.75400001 -0.0066100666 9.2278769e-39 337 245
0.02379624 0.75400001 -0.0066100666 9.227158e-39 338 245
0.025118252 0.75400001 -0.0066100666 9.0427654e-39 339 245
0.026475333 0.755 -0.0066188332 9.0427626e-39 340 245
0.027872739 0.75700003 -0.0066363667 9.0427626e-39 341 245
0.029354304 0.76099998 -0.0066714329 9.1353155e-39 342 245
0.030688593 0.76099998 -0.0066714329 9.3197068e-39 343 245
0.032064959 0.76200002 -0.0066801999 9.6884879e-39 344 245
0.033488665 0.764 -0.006697733 9.8728806e-39 345 245
0.034828212 0.764 -0.006697733 1.189759e-38 346 245
0.036262438 0.76599997 -0.0067152665 1.2819546e-38 347 245
-0.043763198 0.77999997 -0.0082055992 1.4756376e-38 288 246
-0.042286891 0.778 -0.0081845606 1.4940769e-38 289 246
-0.040922798 0.778 -0.0081845606 1.3371626e-38 290 246
-0.039457016 0.77600002 -0.0081635201 1.0974539e-38 291 246
-0.037998237 0.77399999 -0.0081424797 1.0882694e-38 292 246
-0.036593821 0.773 -0.0081319595 1.115964e-38 293 246
-0.03514732 0.77100003 -0.0081109209 1.1160003e-38 294 246
-0.033707831 0.76899999 -0.0080898795 1.1344754e-38 295 246
-0.03227536 0.76700002 -0.00806884 1.1345473e-38 296 246
-0.030930554 0.76700002 -0.00806884 1.1437669e-38 297 246
-0.029470026 0.764 -0.0080372803 1.1529861e-38 298 246
-0.028130481 0.764 -0.0080372803 1.1529861e-38 299 246
-0.0267208 0.76200002 -0.0080162399 1.1347988e-38 300 246
-0.025284819 0.759 -0.0079846792 1.1347988e-38 301 246
-0.023954039 0.759 -0.0079846792 1.1530586e-38 302 246
-0.022563647 0.75700003 -0.0079636406 1.1530586e-38 303 246
-0.021236373 0.75700003 -0.0079636406 1.1346199e-38 304 246
-0.019909101 0.75700003 -0.0079636406 1.1346199e-38 305 246
-0.018581826 0.75700003 -0.0079636406 1.1346552e-38 306 246
-0.017208965 0.755 -0.0079425992 1.1069606e-38 307 246
-0.015885198 0.755 -0.0079425992 1.1251833e-38 308 246
-0.014542146 0.75400001 -0.00793208 1.1159637e-38 309 246
-0.013220133 0.75400001 -0.00793208 1.1250754e-38 310 246
-0.01189812 0.75400001 -0.00793208 1.1342949e-38 311 246
-0.010576107 0.75400001 -0.00793208 1.1435148e-38 312 246
-0.0092540924 0.75400001 -0.00793208 1.1435148e-38 313 246
-0.0079110395 0.75199997 -0.0079110395 1.1252202e-38 314 246
-0.0065925326 0.75199997 -0.0079110395 1.1344398e-38 315 246
-0.0052740262 0.75199997 -0.0079110395 1.1344764e-38 316 246
-0.0039555198 0.75199997 -0.0079110395 1.1344764e-38 317 246
-0.0026370131 0.75199997 -0.0079110395 1.1437318e-38 318 246
-0.0013185065 0.75199997 -0.0079110395 1.1344764e-38 319 246
0 0.75199997 -0.0079110395 1.1344764e-38 320 246
0.001315 0.75 -0.00789 1.1252568e-38 321 246
0.00263 0.75 -0.00789 1.1069256e-38 322 246
0.003945 0.75 -0.00789 1.097706e-38 323 246
0.00526 0.75 -0.00789 1.0701918e-38 324 246
0.0065662335 0.74900001 -0.0078794798 1.0517887e-38 325 246
0.0078794798 0.74900001 -0.0078794798 1.0516448e-38 326 246
0.0091927266 0.74900001 -0.0078794798 1.0516448e-38 327 246
0.010505973 0.74900001 -0.0078794798 1.0423533e-38 328 246
0.011835 0.75 -0.00789 1.0331338e-38 329 246
0.01315 0.75 -0.00789 1.0239139e-38 330 246
0.014465 0.75 -0.00789 1.0055107e-38 331 246
0.01578 0.75 -0.00789 9.8714344e-39 332 246
0.017095 0.75 -0.00789 9.8714344e-39 333 246
0.018409999 0.75 -0.00789 9.687769e-39 334 246
0.019724999 0.75 -0.00789 9.5955734e-39 335 246
0.021096105 0.75199997 -0.0079110395 9.3204313e-39 336 246
0.022474226 0.75400001 -0.00793208 9.0438458e-39 337 246
0.02379624 0.75400001 -0.00793208 9.1349624e-39 338 246
0.025118252 0.75400001 -0.00793208 9.0427654e-39 339 246
0.026475333 0.755 -0.0079425992 9.0424024e-39 340 246
0.027872739 0.75700003 -0.0079636406 9.0424024e-39 341 246
0.029354304 0.76099998 -0.0080057196 9.1353127e-39 342 246
0.030688593 0.76099998 -0.0080057196 9.2278671e-39 343 246
0.032064959 0.76200002 -0.0080162399 9.5955706e-39 344 246
0.033488665 0.764 -0.0080372803 9.8725176e-39 345 246
0.034828212 0.764 -0.0080372803 1.1990865e-38 346 246
-0.042178184 0.77600002 -0.009524107 1.5032602e-38 289 247
-0.0408176 0.77600002 -0.009524107 1.3740764e-38 290 247
-0.039355319 0.77399999 -0.0094995592 1.1620265e-38 291 247
-0.037998237 0.77399999 -0.0094995592 1.0697583e-38 292 247
-0.036593821 0.773 -0.0094872871 1.0789778e-38 293 247
-0.03514732 0.77100003 -0.0094627403 1.0700829e-38 294 247
-0.033707831 0.76899999 -0.0094381925 1.088486e-38 295 247
-0.03227536 0.76700002 -0.0094136465 1.0793748e-38 296 247
-0.030890226 0.76599997 -0.0094013726 1.0885944e-38 297 247
-0.029470026 0.764 -0.0093768267 1.0703345e-38 298 247
-0.028130481 0.764 -0.0093768267 1.097993e-38 299 247
-0.0267208 0.76200002 -0.0093522798 1.0979927e-38 300 247
-0.025284819 0.759 -0.00931546 1.0979927e-38 301 247
-0.023954039 0.759 -0.00931546 1.1253647e-38 302 247
-0.022563647 0.75700003 -0.0092909131 1.1253647e-38 303 247
-0.021236373 0.75700003 -0.0092909131 1.0702997e-38 304 247
-0.019909101 0.75700003 -0.0092909131 1.0702997e-38 305 247
-0.018532733 0.755 -0.0092663663 1.1069253e-38 306 247
-0.017208965 0.755 -0.0092663663 1.0977058e-38 307 247
-0.01586416 0.75400001 -0.0092540924 1.1342949e-38 308 247
-0.014542146 0.75400001 -0.0092540924 1.1250754e-38 309 247
-0.013220133 0.75400001 -0.0092540924 1.097489e-38 310 247
-0.01189812 0.75400001 -0.0092540924 1.1067444e-38 311 247
-0.010576107 0.75400001 -0.0092540924 1.0791946e-38 312 247
-0.0092540924 0.75400001 -0.0092540924 1.0976337e-38 313 247
-0.0079110395 0.75199997 -0.0092295464 1.1068537e-38 314 247
-0.0065925326 0.75199997 -0.0092295464 1.1252568e-38 315 247
-0.0052740262 0.75199997 -0.0092295464 1.1069259e-38 316 247
-0.0039555198 0.75199997 -0.0092295464 1.1069259e-38 317 247
-0.0026370131 0.75199997 -0.0092295464 1.0886309e-38 318 247
-0.0013185065 0.75199997 -0.0092295464 1.0794114e-38 319 247
0 0.75199997 -0.0092295464 1.0701918e-38 320 247
0.001315 0.75 -0.0092049995 1.0701918e-38 321 247
0.00263 0.75 -0.0092049995 1.0426052e-38 322 247
0.003945 0.75 -0.0092049995 1.0426052e-38 323 247
0.00526 0.75 -0.0092049995 1.0242742e-38 324 247
0.0065662335 0.74900001 -0.0091927266 1.0058349e-38 325 247
0.0078794798 0.74900001 -0.0091927266 1.0333138e-38 326 247
0.0091927266 0.74900001 -0.0091927266 1.0056193e-38 327 247
0.010505973 0.74900001 -0.0091927266 1.0055477e-38 328 247
0.011835 0.75 -0.0092049995 9.9632797e-39 329 247
0.01315 0.75 -0.0092049995 9.687769e-39 330 247
0.014503572 0.75199997 -0.0092295464 9.5955734e-39 331 247
0.01578 0.75 -0.0092049995 9.3197068e-39 332 247
0.017095 0.75 -0.0092049995 9.3197068e-39 333 247
0.018459093 0.75199997 -0.0092295464 9.2282328e-39 334 247
0.0197776 0.75199997 -0.0092295464 9.2282328e-39 335 247
0.021096105 0.75199997 -0.0092295464 8.952369e-39 336 247
