# .PCD v.7 - Point Cloud Data file format
FIELDS x y z rgb imX imY
SIZE 4 4 4 4 4 4
TYPE F F F F F F
COUNT 1 1 1 1 1 1
WIDTH 849
HEIGHT 1
VIEWPOINT 0 0 0 1 0 0 0
POINTS 849
DATA ascii
-0.044610061 0.77100003 0.00135182 1.3990281e-38 287 239
-0.043146025 0.76899999 0.0013483133 1.4174281e-38 288 239
-0.041689005 0.76700002 0.0013448066 1.4082085e-38 289 239
-0.040291596 0.76599997 0.0013430532 1.4540893e-38 290 239
-0.038948543 0.76599997 0.0013430532 1.4633089e-38 291 239
-0.037507307 0.764 0.0013395466 1.4174634e-38 292 239
-0.036167759 0.764 0.0013395466 1.362146e-38 293 239
-0.034737039 0.76200002 0.00133604 1.3527843e-38 294 239
-0.033401001 0.76200002 0.00133604 1.3343091e-38 295 239
-0.032022879 0.76099998 0.0013342865 1.3433504e-38 296 239
-0.030688593 0.76099998 0.0013342865 1.3433504e-38 297 239
-0.029354304 0.76099998 0.0013342865 1.3708652e-38 298 239
-0.028020019 0.76099998 0.0013342865 1.3800848e-38 299 239
-0.026685731 0.76099998 0.0013342865 1.3525334e-38 300 239
-0.025284819 0.759 0.00133078 1.361753e-38 301 239
-0.023954039 0.759 0.00133078 1.3525334e-38 302 239
-0.022563647 0.75700003 0.0013272733 1.3525334e-38 303 239
-0.021236373 0.75700003 0.0013272733 1.343386e-38 304 239
-0.019909101 0.75700003 0.0013272733 1.3526056e-38 305 239
-0.018581826 0.75700003 0.0013272733 1.3432435e-38 306 239
-0.017254554 0.75700003 0.0013272733 1.3524631e-38 307 239
-0.015927281 0.75700003 0.0013272733 1.36154e-38 308 239
-0.014600007 0.75700003 0.0013272733 1.3707595e-38 309 239
-0.013272733 0.75700003 0.0013272733 1.3617549e-38 310 239
-0.01194546 0.75700003 0.0013272733 1.3709745e-38 311 239
-0.010618187 0.75700003 0.0013272733 1.3342758e-38 312 239
-0.0092909131 0.75700003 0.0013272733 1.3250561e-38 313 239
-0.0079636406 0.75700003 0.0013272733 1.3064381e-38 314 239
-0.0066363667 0.75700003 0.0013272733 1.2971827e-38 315 239
-0.0053090933 0.75700003 0.0013272733 1.297505e-38 316 239
-0.0039818203 0.75700003 0.0013272733 1.3712615e-38 317 239
-0.0026545466 0.75700003 0.0013272733 1.3988461e-38 318 239
-0.00133078 0.759 0.00133078 1.3896265e-38 319 239
0 0.759 0.00133078 1.3621105e-38 320 239
0.00133078 0.759 0.00133078 1.3621105e-38 321 239
0.00266156 0.759 0.00133078 1.3896249e-38 322 239
0.0040028598 0.76099998 0.0013342865 1.3896249e-38 323 239
0.0053371461 0.76099998 0.0013342865 1.3894097e-38 324 239
0.0066714329 0.76099998 0.0013342865 1.3709706e-38 325 239
0.0080057196 0.76099998 0.0013342865 1.334093e-38 326 239
0.0093522798 0.76200002 0.00133604 1.334093e-38 327 239
0.01068832 0.76200002 0.00133604 1.2973586e-38 328 239
0.01202436 0.76200002 0.00133604 1.288139e-38 329 239
0.013395466 0.764 0.0013395466 1.2789194e-38 330 239
0.014735013 0.764 0.0013395466 1.2789194e-38 331 239
0.016116638 0.76599997 0.0013430532 1.2605173e-38 332 239
0.017482487 0.76700002 0.0013448066 1.2697727e-38 333 239
0.018827293 0.76700002 0.0013448066 1.233148e-38 334 239
0.020277301 0.77100003 0.00135182 1.2700261e-38 335 239
0.021629119 0.77100003 0.00135182 1.2149632e-38 336 239
0.02298094 0.77100003 0.00135182 1.3163424e-38 337 239
0.024490559 0.77600002 0.0013605866 1.2902702e-38 338 239
-0.049107358 0.778 -0 1.2804373e-38 284 240
-0.047497798 0.77399999 -0 1.1144853e-38 285 240
-0.046081103 0.773 -0 1.2428716e-38 286 240
-0.044725779 0.773 -0 1.2705304e-38 287 240
-0.043146025 0.76899999 -0 1.3163382e-38 288 240
-0.041689005 0.76700002 -0 1.3163382e-38 289 240
-0.040291596 0.76599997 -0 1.3713671e-38 290 240
-0.038948543 0.76599997 -0 1.3805867e-38 291 240
-0.037507307 0.764 -0 1.3621476e-38 292 240
-0.036073081 0.76200002 -0 1.3252695e-38 293 240
-0.034737039 0.76200002 -0 1.3157999e-38 294 240
-0.033357166 0.76099998 -0 1.3065445e-38 295 240
-0.032022879 0.76099998 -0 1.269847e-38 296 240
-0.030688593 0.76099998 -0 1.2974697e-38 297 240
-0.029354304 0.76099998 -0 1.2975047e-38 298 240
-0.028020019 0.76099998 -0 1.2975047e-38 299 240
-0.026685731 0.76099998 -0 1.3250195e-38 300 240
-0.025284819 0.759 -0 1.3065445e-38 301 240
-0.023954039 0.759 -0 1.306545e-38 302 240
-0.022563647 0.75700003 -0 1.2881419e-38 303 240
-0.021236373 0.75700003 -0 1.2881066e-38 304 240
-0.0199617 0.759 -0 1.2881066e-38 305 240
-0.01863092 0.759 -0 1.2788162e-38 306 240
-0.017300138 0.759 -0 1.2880716e-38 307 240
-0.015927281 0.75700003 -0 1.2971477e-38 308 240
-0.014600007 0.75700003 -0 1.3063672e-38 309 240
-0.013272733 0.75700003 -0 1.2973625e-38 310 240
-0.01194546 0.75700003 -0 1.2973625e-38 311 240
-0.010618187 0.75700003 -0 1.3065097e-38 312 240
-0.00931546 0.759 -0 1.2696315e-38 313 240
-0.0079636406 0.75700003 -0 1.2235359e-38 314 240
-0.0066363667 0.75700003 -0 1.2143163e-38 315 240
-0.0053090933 0.75700003 -0 1.168721e-38 316 240
-0.0039818203 0.75700003 -0 1.2240025e-38 317 240
-0.00266156 0.759 -0 1.3159798e-38 318 240
-0.00133078 0.759 -0 1.3251994e-38 319 240
0 0.759 -0 1.3435294e-38 320 240
0.00133078 0.759 -0 1.3527489e-38 321 240
0.00266156 0.759 -0 1.3711155e-38 322 240
0.0040028598 0.76099998 -0 1.3618958e-38 323 240
0.0053371461 0.76099998 -0 1.352569e-38 324 240
0.0066714329 0.76099998 -0 1.334094e-38 325 240
0.0080057196 0.76099998 -0 1.3065429e-38 326 240
0.0093522798 0.76200002 -0 1.2881037e-38 327 240
0.01068832 0.76200002 -0 1.2605529e-38 328 240
0.01202436 0.76200002 -0 1.2605529e-38 329 240
0.013395466 0.764 -0 1.2237469e-38 330 240
0.014735013 0.764 -0 1.2237469e-38 331 240
0.016116638 0.76599997 -0 1.2237482e-38 332 240
0.017482487 0.76700002 -0 1.2329678e-38 333 240
0.018827293 0.76700002 -0 1.1872319e-38 334 240
0.0202247 0.76899999 -0 1.22411e-38 335 240
0.021573013 0.76899999 -0 1.1783736e-38 336 240
0.022921326 0.76899999 -0 1.2244714e-38 337 240
0.02433276 0.77100003 -0 1.2715066e-38 338 240
-0.047743265 0.778 -0.0013640933 1.0315088e-38 285 241
-0.046140719 0.77399999 -0.0013570799 1.2700635e-38 286 241
-0.044725779 0.773 -0.0013553266 1.3069416e-38 287 241
-0.043146025 0.76899999 -0.0013483133 1.2977205e-38 288 241
-0.041689005 0.76700002 -0.0013448066 1.2977205e-38 289 241
-0.040291596 0.76599997 -0.0013430532 1.3711518e-38 290 241
-0.038948543 0.76599997 -0.0013430532 1.3896268e-38 291 241
-0.037507307 0.764 -0.0013395466 1.352928e-38 292 241
-0.036073081 0.76200002 -0.00133604 1.2699521e-38 293 241
-0.034737039 0.76200002 -0.00133604 1.2879965e-38 294 241
-0.033357166 0.76099998 -0.0013342865 1.2695574e-38 295 241
-0.032022879 0.76099998 -0.0013342865 1.2697374e-38 296 241
-0.030688593 0.76099998 -0.0013342865 1.2881767e-38 297 241
-0.029354304 0.76099998 -0.0013342865 1.2882483e-38 298 241
-0.028020019 0.76099998 -0.0013342865 1.2790287e-38 299 241
-0.026685731 0.76099998 -0.0013342865 1.288104e-38 300 241
-0.025284819 0.759 -0.00133078 1.2788844e-38 301 241
-0.023954039 0.759 -0.00133078 1.260446e-38 302 241
-0.02262326 0.759 -0.00133078 1.2788491e-38 303 241
-0.02129248 0.759 -0.00133078 1.2604107e-38 304 241
-0.0199617 0.759 -0.00133078 1.2788138e-38 305 241
-0.01863092 0.759 -0.00133078 1.2604107e-38 306 241
-0.017300138 0.759 -0.00133078 1.2788138e-38 307 241
-0.015969358 0.759 -0.00133078 1.2788135e-38 308 241
-0.014600007 0.75700003 -0.0013272733 1.2788135e-38 309 241
-0.013272733 0.75700003 -0.0013272733 1.2880689e-38 310 241
-0.01194546 0.75700003 -0.0013272733 1.2788135e-38 311 241
-0.010618187 0.75700003 -0.0013272733 1.2511555e-38 312 241
-0.00931546 0.759 -0.00133078 1.2419359e-38 313 241
-0.0079636406 0.75700003 -0.0013272733 1.195875e-38 314 241
-0.0066363667 0.75700003 -0.0013272733 1.1774358e-38 315 241
-0.0053090933 0.75700003 -0.0013272733 1.1408097e-38 316 241
-0.0039818203 0.75700003 -0.0013272733 1.1869075e-38 317 241
-0.00266156 0.759 -0.00133078 1.306293e-38 318 241
-0.00133078 0.759 -0.00133078 1.3432072e-38 319 241
0 0.759 -0.00133078 1.3616085e-38 320 241
0.00133078 0.759 -0.00133078 1.3800476e-38 321 241
0.00266156 0.759 -0.00133078 1.3433489e-38 322 241
0.0040028598 0.76099998 -0.0013342865 1.3433489e-38 323 241
0.0053371461 0.76099998 -0.0013342865 1.3248382e-38 324 241
0.0066714329 0.76099998 -0.0013342865 1.3155826e-38 325 241
0.0080057196 0.76099998 -0.0013342865 1.2788841e-38 326 241
0.0093400059 0.76099998 -0.0013342865 1.260481e-38 327 241
0.01068832 0.76200002 -0.00133604 1.2603728e-38 328 241
0.01202436 0.76200002 -0.00133604 1.2603728e-38 329 241
0.013395466 0.764 -0.0013395466 1.232822e-38 330 241
0.014735013 0.764 -0.0013395466 1.232822e-38 331 241
0.016074561 0.764 -0.0013395466 1.2144202e-38 332 241
0.017459691 0.76599997 -0.0013430532 1.2420429e-38 333 241
0.018827293 0.76700002 -0.0013448066 1.187087e-38 334 241
0.0202247 0.76899999 -0.0013483133 1.2331848e-38 335 241
0.021573013 0.76899999 -0.0013483133 1.1598624e-38 336 241
0.022921326 0.76899999 -0.0013483133 1.2612776e-38 337 241
0.02433276 0.77100003 -0.00135182 1.2808703e-38 338 241
-0.049107358 0.778 -0.0027281865 1.2066086e-38 284 242
-0.047620531 0.77600002 -0.0027211732 1.0775348e-38 285 242
-0.046140719 0.77399999 -0.0027141599 1.2518407e-38 286 242
-0.044783637 0.77399999 -0.0027141599 1.2334016e-38 287 242
-0.043258239 0.77100003 -0.0027036399 1.2241448e-38 288 242
-0.041689005 0.76700002 -0.0026896133 1.2241448e-38 289 242
-0.040291596 0.76599997 -0.0026861064 1.2977555e-38 290 242
-0.038948543 0.76599997 -0.0026861064 1.2977555e-38 291 242
-0.037507307 0.764 -0.0026790933 1.3160498e-38 292 242
-0.036073081 0.76200002 -0.00267208 1.2699521e-38 293 242
-0.034737039 0.76200002 -0.00267208 1.2605173e-38 294 242
-0.033357166 0.76099998 -0.0026685731 1.2512977e-38 295 242
-0.032022879 0.76099998 -0.0026685731 1.2329312e-38 296 242
-0.030688593 0.76099998 -0.0026685731 1.2698094e-38 297 242
-0.029354304 0.76099998 -0.0026685731 1.2605897e-38 298 242
-0.028020019 0.76099998 -0.0026685731 1.2421508e-38 299 242
-0.026685731 0.76099998 -0.0026685731 1.2421508e-38 300 242
-0.025284819 0.759 -0.00266156 1.2329312e-38 301 242
-0.023954039 0.759 -0.00266156 1.2329315e-38 302 242
-0.02262326 0.759 -0.00266156 1.2329315e-38 303 242
-0.02129248 0.759 -0.00266156 1.223641e-38 304 242
-0.020014299 0.76099998 -0.0026685731 1.223641e-38 305 242
-0.01863092 0.759 -0.00266156 1.2328608e-38 306 242
-0.017300138 0.759 -0.00266156 1.2236413e-38 307 242
-0.015969358 0.759 -0.00266156 1.223641e-38 308 242
-0.014638579 0.759 -0.00266156 1.2328964e-38 309 242
-0.0133078 0.759 -0.00266156 1.223641e-38 310 242
-0.01194546 0.75700003 -0.0026545466 1.2144214e-38 311 242
-0.010618187 0.75700003 -0.0026545466 1.2143498e-38 312 242
-0.0092909131 0.75700003 -0.0026545466 1.1866551e-38 313 242
-0.0079636406 0.75700003 -0.0026545466 1.1590693e-38 314 242
-0.0066363667 0.75700003 -0.0026545466 1.1498497e-38 315 242
-0.0053090933 0.75700003 -0.0026545466 1.1132236e-38 316 242
-0.0039818203 0.75700003 -0.0026545466 1.1593214e-38 317 242
-0.00266156 0.759 -0.00266156 1.2328611e-38 318 242
-0.00133078 0.759 -0.00266156 1.2604838e-38 319 242
0 0.759 -0.00266156 1.3248391e-38 320 242
0.00133078 0.759 -0.00266156 1.3340946e-38 321 242
0.0026685731 0.76099998 -0.0026685731 1.3065429e-38 322 242
0.0040028598 0.76099998 -0.0026685731 1.2973234e-38 323 242
0.0053371461 0.76099998 -0.0026685731 1.2788844e-38 324 242
0.0066714329 0.76099998 -0.0026685731 1.2604454e-38 325 242
0.0080057196 0.76099998 -0.0026685731 1.2512977e-38 326 242
0.0093400059 0.76099998 -0.0026685731 1.2420782e-38 327 242
0.01068832 0.76200002 -0.00267208 1.2144555e-38 328 242
0.01202436 0.76200002 -0.00267208 1.2052358e-38 329 242
0.013395466 0.764 -0.0026790933 1.1776494e-38 330 242
0.014735013 0.764 -0.0026790933 1.1776494e-38 331 242
0.016074561 0.764 -0.0026790933 1.1501718e-38 332 242
0.017459691 0.76599997 -0.0026861064 1.1593915e-38 333 242
0.018827293 0.76700002 -0.0026896133 1.1503535e-38 334 242
0.0202247 0.76899999 -0.0026966266 1.1872319e-38 335 242
0.021629119 0.77100003 -0.0027036399 1.1414599e-38 336 242
0.02298094 0.77100003 -0.0027036399 1.2797533e-38 337 242
0.024395877 0.773 -0.0027106532 1.3453352e-38 338 242
-0.049107358 0.778 -0.0040922803 1.2434862e-38 284 243
-0.047620531 0.77600002 -0.0040817601 1.0867896e-38 285 243
-0.046140719 0.77399999 -0.0040712398 1.2516609e-38 286 243
-0.044725779 0.773 -0.0040659797 1.2240381e-38 287 243
-0.043258239 0.77100003 -0.0040554604 1.2331845e-38 288 243
-0.041689005 0.76700002 -0.00403442 1.2147814e-38 289 243
-0.040291596 0.76599997 -0.0040291594 1.2883202e-38 290 243
-0.038948543 0.76599997 -0.0040291594 1.2883202e-38 291 243
-0.037507307 0.764 -0.0040186401 1.2699527e-38 292 243
-0.036073081 0.76200002 -0.0040081199 1.242258e-38 293 243
-0.034737039 0.76200002 -0.0040081199 1.2330384e-38 294 243
-0.033357166 0.76099998 -0.0040028598 1.2054157e-38 295 243
-0.032022879 0.76099998 -0.0040028598 1.2420782e-38 296 243
-0.030688593 0.76099998 -0.0040028598 1.2512977e-38 297 243
-0.029354304 0.76099998 -0.0040028598 1.251298e-38 298 243
-0.028020019 0.76099998 -0.0040028598 1.251298e-38 299 243
-0.026685731 0.76099998 -0.0040028598 1.2329312e-38 300 243
-0.025351444 0.76099998 -0.0040028598 1.2329312e-38 301 243
-0.023954039 0.759 -0.0039923396 1.2237119e-38 302 243
-0.02262326 0.759 -0.0039923396 1.2237119e-38 303 243
-0.02129248 0.759 -0.0039923396 1.2143849e-38 304 243
-0.020014299 0.76099998 -0.0040028598 1.2236044e-38 305 243
-0.018680012 0.76099998 -0.0040028598 1.2144217e-38 306 243
-0.017300138 0.759 -0.0039923396 1.2144217e-38 307 243
-0.015969358 0.759 -0.0039923396 1.1868709e-38 308 243
-0.014638579 0.759 -0.0039923396 1.1868709e-38 309 243
-0.0133078 0.759 -0.0039923396 1.1868707e-38 310 243
-0.01197702 0.759 -0.0039923396 1.1776509e-38 311 243
-0.010618187 0.75700003 -0.0039818203 1.1683595e-38 312 243
-0.0092909131 0.75700003 -0.0039818203 1.1591399e-38 313 243
-0.0079636406 0.75700003 -0.0039818203 1.1406652e-38 314 243
-0.0066363667 0.75700003 -0.0039818203 1.1498848e-38 315 243
-0.0053090933 0.75700003 -0.0039818203 1.1316252e-38 316 243
-0.0039818203 0.75700003 -0.0039818203 1.1593197e-38 317 243
-0.00266156 0.759 -0.0039923396 1.2144568e-38 318 243
-0.00133078 0.759 -0.0039923396 1.2328959e-38 319 243
0 0.759 -0.0039923396 1.2879965e-38 320 243
0.00133078 0.759 -0.0039923396 1.2879965e-38 321 243
0.0026685731 0.76099998 -0.0040028598 1.2880321e-38 322 243
0.0040028598 0.76099998 -0.0040028598 1.2788125e-38 323 243
0.0053371461 0.76099998 -0.0040028598 1.2420784e-38 324 243
0.0066714329 0.76099998 -0.0040028598 1.2420784e-38 325 243
0.0080057196 0.76099998 -0.0040028598 1.2420063e-38 326 243
0.0093400059 0.76099998 -0.0040028598 1.2327867e-38 327 243
0.01068832 0.76200002 -0.0040081199 1.1960159e-38 328 243
0.01202436 0.76200002 -0.0040081199 1.1960159e-38 329 243
0.0133604 0.76200002 -0.0040081199 1.1684298e-38 330 243
0.014735013 0.764 -0.0040186401 1.1684298e-38 331 243
0.016074561 0.764 -0.0040186401 1.1500999e-38 332 243
0.017459691 0.76599997 -0.0040291594 1.1593194e-38 333 243
0.018827293 0.76700002 -0.00403442 1.1319145e-38 334 243
0.0202247 0.76899999 -0.0040449398 1.1780123e-38 335 243
0.021629119 0.77100003 -0.0040554604 1.1321684e-38 336 243
0.02298094 0.77100003 -0.0040554604 1.288901e-38 337 243
0.024395877 0.773 -0.0040659797 1.354735e-38 338 243
-0.049107358 0.778 -0.0054563731 1.2711084e-38 284 244
-0.047620531 0.77600002 -0.0054423464 1.0682781e-38 285 244
-0.046140719 0.77399999 -0.0054283198 1.2422972e-38 286 244
-0.044725779 0.773 -0.0054213065 1.2330776e-38 287 244
-0.043258239 0.77100003 -0.0054072798 1.1871945e-38 288 244
-0.041689005 0.76700002 -0.0053792265 1.1871945e-38 289 244
-0.040291596 0.76599997 -0.0053722127 1.2422947e-38 290 244
-0.038948543 0.76599997 -0.0053722127 1.2238914e-38 291 244
-0.037507307 0.764 -0.0053581866 1.2421508e-38 292 244
-0.036073081 0.76200002 -0.0053441599 1.2421508e-38 293 244
-0.034737039 0.76200002 -0.0053441599 1.2329668e-38 294 244
-0.033357166 0.76099998 -0.0053371461 1.2329668e-38 295 244
-0.032022879 0.76099998 -0.0053371461 1.2237469e-38 296 244
-0.030688593 0.76099998 -0.0053371461 1.2237469e-38 297 244
-0.029354304 0.76099998 -0.0053371461 1.2236395e-38 298 244
-0.028020019 0.76099998 -0.0053371461 1.2236395e-38 299 244
-0.026685731 0.76099998 -0.0053371461 1.1961252e-38 300 244
-0.025351444 0.76099998 -0.0053371461 1.1961252e-38 301 244
-0.023954039 0.759 -0.0053231199 1.1960172e-38 302 244
-0.02262326 0.759 -0.0053231199 1.2052369e-38 303 244
-0.02129248 0.759 -0.0053231199 1.1959456e-38 304 244
-0.020014299 0.76099998 -0.0053371461 1.1959456e-38 305 244
-0.018680012 0.76099998 -0.0053371461 1.1684314e-38 306 244
-0.017300138 0.759 -0.0053231199 1.1684314e-38 307 244
-0.015969358 0.759 -0.0053231199 1.1409169e-38 308 244
-0.014638579 0.759 -0.0053231199 1.1225138e-38 309 244
-0.0133078 0.759 -0.0053231199 1.1132586e-38 310 244
-0.01197702 0.759 -0.0053231199 1.1040391e-38 311 244
-0.010618187 0.75700003 -0.0053090933 1.131518e-38 312 244
-0.0092909131 0.75700003 -0.0053090933 1.1222984e-38 313 244
-0.0079636406 0.75700003 -0.0053090933 1.1224053e-38 314 244
-0.0066363667 0.75700003 -0.0053090933 1.1224053e-38 315 244
-0.0053090933 0.75700003 -0.0053090933 1.1316602e-38 316 244
-0.0039818203 0.75700003 -0.0053090933 1.1408798e-38 317 244
-0.00266156 0.759 -0.0053231199 1.186726e-38 318 244
-0.00133078 0.759 -0.0053231199 1.1959456e-38 319 244
0 0.759 -0.0053231199 1.2510109e-38 320 244
0.00133078 0.759 -0.0053231199 1.2694502e-38 321 244
0.0026685731 0.76099998 -0.0053371461 1.2603378e-38 322 244
0.0040028598 0.76099998 -0.0053371461 1.2511182e-38 323 244
0.0053371461 0.76099998 -0.0053371461 1.2236395e-38 324 244
0.0066714329 0.76099998 -0.0053371461 1.2144199e-38 325 244
0.0080057196 0.76099998 -0.0053371461 1.2052358e-38 326 244
0.0093400059 0.76099998 -0.0053371461 1.2052358e-38 327 244
0.010674292 0.76099998 -0.0053371461 1.1867964e-38 328 244
0.01202436 0.76200002 -0.0053441599 1.1775409e-38 329 244
0.0133604 0.76200002 -0.0053441599 1.1499904e-38 330 244
0.014735013 0.764 -0.0053581866 1.15921e-38 331 244
0.016074561 0.764 -0.0053581866 1.1316252e-38 332 244
0.017459691 0.76599997 -0.0053722127 1.1500643e-38 333 244
0.018827293 0.76700002 -0.0053792265 1.1135476e-38 334 244
0.0202247 0.76899999 -0.0053932532 1.150426e-38 335 244
0.021629119 0.77100003 -0.0054072798 1.1136934e-38 336 244
0.023040552 0.773 -0.0054213065 1.3073043e-38 337 244
0.024395877 0.773 -0.0054213065 1.3548791e-38 338 244
-0.047620531 0.77600002 -0.0068029333 1.0591304e-38 285 245
-0.046140719 0.77399999 -0.0067853997 1.2056338e-38 286 245
-0.044725779 0.773 -0.0067766332 1.1964142e-38 287 245
-0.043258239 0.77100003 -0.0067590997 1.1963772e-38 288 245
-0.041689005 0.76700002 -0.006724033 1.1871576e-38 289 245
-0.040344197 0.76700002 -0.006724033 1.2146719e-38 290 245
-0.038948543 0.76599997 -0.0067152665 1.2054523e-38 291 245
-0.037507307 0.764 -0.006697733 1.1778662e-38 292 245
-0.036073081 0.76200002 -0.0066801999 1.1778662e-38 293 245
-0.034737039 0.76200002 -0.0066801999 1.2053448e-38 294 245
-0.033357166 0.76099998 -0.0066714329 1.2053448e-38 295 245
-0.032022879 0.76099998 -0.0066714329 1.2237832e-38 296 245
-0.030688593 0.76099998 -0.0066714329 1.2053801e-38 297 245
-0.029354304 0.76099998 -0.0066714329 1.2144921e-38 298 245
-0.028020019 0.76099998 -0.0066714329 1.1960528e-38 299 245
-0.026685731 0.76099998 -0.0066714329 1.1501715e-38 300 245
-0.025351444 0.76099998 -0.0066714329 1.1409519e-38 301 245
-0.024017159 0.76099998 -0.0066714329 1.1408447e-38 302 245
-0.02262326 0.759 -0.0066538998 1.1408447e-38 303 245
-0.02129248 0.759 -0.0066538998 1.1498848e-38 304 245
-0.020014299 0.76099998 -0.0066714329 1.1591043e-38 305 245
-0.018680012 0.76099998 -0.0066714329 1.1132939e-38 306 245
-0.017300138 0.759 -0.0066538998 1.1132939e-38 307 245
-0.015969358 0.759 -0.0066538998 1.0950346e-38 308 245
-0.014638579 0.759 -0.0066538998 1.0765596e-38 309 245
-0.0133078 0.759 -0.0066538998 1.0948192e-38 310 245
-0.01197702 0.759 -0.0066538998 1.0855997e-38 311 245
-0.01064624 0.759 -0.0066538998 1.0855997e-38 312 245
-0.00931546 0.759 -0.0066538998 1.0948192e-38 313 245
-0.0079636406 0.75700003 -0.0066363667 1.076523e-38 314 245
-0.0066363667 0.75700003 -0.0066363667 1.1041816e-38 315 245
-0.0053090933 0.75700003 -0.0066363667 1.1316958e-38 316 245
-0.0039818203 0.75700003 -0.0066363667 1.1132208e-38 317 245
-0.00266156 0.759 -0.0066538998 1.1405933e-38 318 245
-0.00133078 0.759 -0.0066538998 1.1498129e-38 319 245
0 0.759 -0.0066538998 1.1407378e-38 320 245
0.00133078 0.759 -0.0066538998 1.1683605e-38 321 245
0.0026685731 0.76099998 -0.0066714329 1.1684311e-38 322 245
0.0040028598 0.76099998 -0.0066714329 1.1776507e-38 323 245
0.0053371461 0.76099998 -0.0066714329 1.1960528e-38 324 245
0.0066714329 0.76099998 -0.0066714329 1.1776138e-38 325 245
0.0080057196 0.76099998 -0.0066714329 1.1776491e-38 326 245
0.0093400059 0.76099998 -0.0066714329 1.1684296e-38 327 245
0.010674292 0.76099998 -0.0066714329 1.1592097e-38 328 245
0.01202436 0.76200002 -0.0066801999 1.1499902e-38 329 245
0.0133604 0.76200002 -0.0066801999 1.1224759e-38 330 245
0.014735013 0.764 -0.006697733 1.1224759e-38 331 245
0.016074561 0.764 -0.006697733 1.1041463e-38 332 245
0.017459691 0.76599997 -0.0067152665 1.1225854e-38 333 245
0.018827293 0.76700002 -0.006724033 1.1044359e-38 334 245
0.0202247 0.76899999 -0.0067415666 1.1412783e-38 335 245
0.021573013 0.76899999 -0.0067415666 1.1045818e-38 336 245
0.02298094 0.77100003 -0.0067590997 1.3166676e-38 337 245
-0.050471451 0.778 -0.0081845606 1.493749e-38 283 246
-0.048981119 0.77600002 -0.0081635201 1.2529932e-38 284 246
-0.047497798 0.77399999 -0.0081424797 1.0409792e-38 285 246
-0.046081103 0.773 -0.0081319595 1.2517312e-38 286 246
-0.044610061 0.77100003 -0.0081109209 1.233328e-38 287 246
-0.043258239 0.77100003 -0.0081109209 1.2055239e-38 288 246
-0.041689005 0.76700002 -0.00806884 1.2055239e-38 289 246
-0.040344197 0.76700002 -0.00806884 1.2054157e-38 290 246
-0.038948543 0.76599997 -0.0080583189 1.1869407e-38 291 246
-0.037605491 0.76599997 -0.0080583189 1.1777577e-38 292 246
-0.036167759 0.764 -0.0080372803 1.1870132e-38 293 246
-0.034828212 0.764 -0.0080372803 1.2145274e-38 294 246
-0.033401001 0.76200002 -0.0080162399 1.2237469e-38 295 246
-0.032064959 0.76200002 -0.0080162399 1.2145271e-38 296 246
-0.030728921 0.76200002 -0.0080162399 1.1960878e-38 297 246
-0.029392879 0.76200002 -0.0080162399 1.1776138e-38 298 246
-0.028056841 0.76200002 -0.0080162399 1.1683943e-38 299 246
-0.026685731 0.76099998 -0.0080057196 1.1316605e-38 300 246
-0.025351444 0.76099998 -0.0080057196 1.1132213e-38 301 246
-0.024017159 0.76099998 -0.0080057196 1.1406285e-38 302 246
-0.02262326 0.759 -0.0079846792 1.1406285e-38 303 246
-0.02129248 0.759 -0.0079846792 1.1313736e-38 304 246
-0.020014299 0.76099998 -0.0080057196 1.1498129e-38 305 246
-0.018680012 0.76099998 -0.0080057196 1.113186e-38 306 246
-0.017300138 0.759 -0.0079846792 1.1224056e-38 307 246
-0.015969358 0.759 -0.0079846792 1.0765952e-38 308 246
-0.014638579 0.759 -0.0079846792 1.0765952e-38 309 246
-0.0133078 0.759 -0.0079846792 1.0673036e-38 310 246
-0.01197702 0.759 -0.0079846792 1.0673036e-38 311 246
-0.01064624 0.759 -0.0079846792 1.0764153e-38 312 246
-0.00931546 0.759 -0.0079846792 1.0856348e-38 313 246
-0.0079636406 0.75700003 -0.0079636406 1.0948178e-38 314 246
-0.0066363667 0.75700003 -0.0079636406 1.1132211e-38 315 246
-0.0053231199 0.759 -0.0079846792 1.1316236e-38 316 246
-0.0039923396 0.759 -0.0079846792 1.1039648e-38 317 246
-0.00266156 0.759 -0.0079846792 1.1221888e-38 318 246
-0.0013342865 0.76099998 -0.0080057196 1.1221888e-38 319 246
0 0.759 -0.0079846792 1.1130774e-38 320 246
0.00133078 0.759 -0.0079846792 1.1407003e-38 321 246
0.0026685731 0.76099998 -0.0080057196 1.1498832e-38 322 246
0.0040028598 0.76099998 -0.0080057196 1.1775059e-38 323 246
0.0053371461 0.76099998 -0.0080057196 1.1867608e-38 324 246
0.0066714329 0.76099998 -0.0080057196 1.1775412e-38 325 246
0.0080057196 0.76099998 -0.0080057196 1.1774693e-38 326 246
0.0093400059 0.76099998 -0.0080057196 1.1774693e-38 327 246
0.010674292 0.76099998 -0.0080057196 1.1315153e-38 328 246
0.01202436 0.76200002 -0.0080162399 1.1407709e-38 329 246
0.0133604 0.76200002 -0.0080162399 1.1224038e-38 330 246
0.014735013 0.764 -0.0080372803 1.1316592e-38 331 246
0.016074561 0.764 -0.0080372803 1.1041094e-38 332 246
0.017459691 0.76599997 -0.0080583189 1.1409516e-38 333 246
0.018827293 0.76700002 -0.00806884 1.1043628e-38 334 246
0.0202247 0.76899999 -0.0080898795 1.1412769e-38 335 246
0.021573013 0.76899999 -0.0080898795 1.1138723e-38 336 246
0.02298094 0.77100003 -0.0081109209 1.3996427e-38 337 246
-0.051702294 0.77600002 -0.009524107 1.8347649e-38 282 247
-0.050341707 0.77600002 -0.009524107 1.5489945e-38 283 247
-0.04885488 0.77399999 -0.0094995592 1.2807239e-38 284 247
-0.047436431 0.773 -0.0094872871 1.0410511e-38 285 247
-0.046081103 0.773 -0.0094872871 1.261166e-38 286 247
-0.044610061 0.77100003 -0.0094627403 1.196629e-38 287 247
-0.043258239 0.77100003 -0.0094627403 1.24233e-38 288 247
-0.041797712 0.76899999 -0.0094381925 1.2054876e-38 289 247
-0.040344197 0.76700002 -0.0094136465 1.1777577e-38 290 247
-0.038948543 0.76599997 -0.0094013726 1.1777577e-38 291 247
-0.037605491 0.76599997 -0.0094013726 1.1318049e-38 292 247
-0.036167759 0.764 -0.0093768267 1.1225854e-38 293 247
-0.034828212 0.764 -0.0093768267 1.1225857e-38 294 247
-0.033401001 0.76200002 -0.0093522798 1.1225857e-38 295 247
-0.032064959 0.76200002 -0.0093522798 1.1225857e-38 296 247
-0.030688593 0.76099998 -0.0093400059 1.1133661e-38 297 247
-0.029354304 0.76099998 -0.0093400059 1.1132939e-38 298 247
-0.028020019 0.76099998 -0.0093400059 1.0948548e-38 299 247
-0.026685731 0.76099998 -0.0093400059 1.0947473e-38 300 247
-0.025351444 0.76099998 -0.0093400059 1.0855276e-38 301 247
-0.023954039 0.759 -0.00931546 1.0579062e-38 302 247
-0.02262326 0.759 -0.00931546 1.0486866e-38 303 247
-0.02129248 0.759 -0.00931546 1.0396116e-38 304 247
-0.020014299 0.76099998 -0.0093400059 1.0580148e-38 305 247
-0.01863092 0.759 -0.00931546 1.0397908e-38 306 247
-0.017300138 0.759 -0.00931546 1.0397908e-38 307 247
-0.015927281 0.75700003 -0.0092909131 1.0214946e-38 308 247
-0.014600007 0.75700003 -0.0092909131 1.012275e-38 309 247
-0.013272733 0.75700003 -0.0092909131 1.0397891e-38 310 247
-0.01194546 0.75700003 -0.0092909131 1.0305695e-38 311 247
-0.010618187 0.75700003 -0.0092909131 1.0304623e-38 312 247
-0.0092909131 0.75700003 -0.0092909131 1.0212428e-38 313 247
-0.0079636406 0.75700003 -0.0092909131 1.0028762e-38 314 247
-0.0066363667 0.75700003 -0.0092909131 1.0212794e-38 315 247
-0.0053231199 0.759 -0.00931546 1.002876e-38 316 247
-0.0039923396 0.759 -0.00931546 1.002876e-38 317 247
-0.0026685731 0.76099998 -0.0093400059 1.0119513e-38 318 247
-0.0013342865 0.76099998 -0.0093400059 1.039574e-38 319 247
0 0.76099998 -0.0093400059 1.0303191e-38 320 247
0.0013342865 0.76099998 -0.0093400059 1.0303191e-38 321 247
0.0026685731 0.76099998 -0.0093400059 1.0579418e-38 322 247
0.0040028598 0.76099998 -0.0093400059 1.0855646e-38 323 247
0.0053371461 0.76099998 -0.0093400059 1.1406652e-38 324 247
0.0066714329 0.76099998 -0.0093400059 1.1314457e-38 325 247
0.0080057196 0.76099998 -0.0093400059 1.1407003e-38 326 247
0.0093400059 0.76099998 -0.0093400059 1.1314805e-38 327 247
0.010674292 0.76099998 -0.0093400059 1.1131844e-38 328 247
0.01202436 0.76200002 -0.0093522798 1.1131844e-38 329 247
0.0133604 0.76200002 -0.0093522798 1.1132211e-38 330 247
0.014735013 0.764 -0.0093768267 1.1224406e-38 331 247
0.016116638 0.76599997 -0.0094013726 1.1041109e-38 332 247
0.017482487 0.76700002 -0.0094136465 1.1133305e-38 333 247
0.018876385 0.76899999 -0.0094381925 1.095288e-38 334 247
0.0202247 0.76899999 -0.0094381925 1.1229468e-38 335 247
0.021573013 0.76899999 -0.0094381925 1.0773896e-38 336 247
-0.051702294 0.77600002 -0.010884693 1.8256179e-38 282 248
-0.050341707 0.77600002 -0.010884693 1.5766899e-38 283 248
-0.04885488 0.77399999 -0.01085664 1.2993082e-38 284 248
-0.047436431 0.773 -0.010842613 1.0319409e-38 285 248
-0.046081103 0.773 -0.010842613 1.2794268e-38 286 248
-0.044725779 0.773 -0.010842613 1.2333649e-38 287 248
-0.043258239 0.77100003 -0.01081456 1.2147087e-38 288 248
-0.041797712 0.76899999 -0.010786506 1.1870502e-38 289 248
-0.040344197 0.76700002 -0.010758453 1.1686466e-38 290 248
-0.038999394 0.76700002 -0.010758453 1.1501715e-38 291 248
-0.037605491 0.76599997 -0.010744425 1.1408447e-38 292 248
-0.036167759 0.764 -0.010716373 1.1224056e-38 293 248
-0.034828212 0.764 -0.010716373 1.0947476e-38 294 248
-0.033401001 0.76200002 -0.01068832 1.0855279e-38 295 248
-0.032022879 0.76099998 -0.010674292 1.0855279e-38 296 248
-0.030688593 0.76099998 -0.010674292 1.0947476e-38 297 248
-0.029354304 0.76099998 -0.010674292 1.0855279e-38 298 248
-0.028020019 0.76099998 -0.010674292 1.0763083e-38 299 248
-0.026685731 0.76099998 -0.010674292 1.0579412e-38 300 248
-0.025284819 0.759 -0.01064624 1.0395021e-38 301 248
-0.023954039 0.759 -0.01064624 1.0395024e-38 302 248
-0.02262326 0.759 -0.01064624 1.0395024e-38 303 248
-0.02129248 0.759 -0.01064624 1.039539e-38 304 248
-0.0199617 0.759 -0.01064624 1.0487585e-38 305 248
-0.01863092 0.759 -0.01064624 1.0212794e-38 306 248
-0.017300138 0.759 -0.01064624 1.0212794e-38 307 248
-0.015927281 0.75700003 -0.010618187 1.0121674e-38 308 248
-0.014600007 0.75700003 -0.010618187 1.0121674e-38 309 248
-0.013272733 0.75700003 -0.010618187 1.0029834e-38 310 248
-0.01194546 0.75700003 -0.010618187 9.93728e-39 311 248
-0.010618187 0.75700003 -0.010618187 1.0119876e-38 312 248
-0.0092909131 0.75700003 -0.010618187 1.0027681e-38 313 248
-0.0079636406 0.75700003 -0.010618187 9.9354822e-39 314 248
-0.0066363667 0.75700003 -0.010618187 1.0027678e-38 315 248
-0.0053231199 0.759 -0.01064624 1.011808e-38 316 248
-0.0039923396 0.759 -0.01064624 9.9340486e-39 317 248
-0.0026685731 0.76099998 -0.010674292 9.8414999e-39 318 248
-0.0013342865 0.76099998 -0.010674292 9.9336955e-39 319 248
0 0.76099998 -0.010674292 1.0024809e-38 320 248
0.0013342865 0.76099998 -0.010674292 1.0117005e-38 321 248
0.0026685731 0.76099998 -0.010674292 1.0485066e-38 322 248
0.0040028598 0.76099998 -0.010674292 1.0669816e-38 323 248
0.0053371461 0.76099998 -0.010674292 1.1128989e-38 324 248
0.0066538998 0.759 -0.01064624 1.1128989e-38 325 248
0.0079846792 0.759 -0.01064624 1.1038939e-38 326 248
0.0093400059 0.76099998 -0.010674292 1.1038939e-38 327 248
0.01068832 0.76200002 -0.01068832 1.1039292e-38 328 248
0.01202436 0.76200002 -0.01068832 1.1039292e-38 329 248
0.013395466 0.764 -0.010716373 1.0855992e-38 330 248
0.014735013 0.764 -0.010716373 1.0948548e-38 331 248
0.016116638 0.76599997 -0.010744425 1.104004e-38 332 248
0.017482487 0.76700002 -0.010758453 1.1224432e-38 333 248
0.018876385 0.76899999 -0.010786506 1.0951808e-38 334 248
0.0202247 0.76899999 -0.010786506 1.1412786e-38 335 248
0.021629119 0.77100003 -0.01081456 1.0497672e-38 336 248
-0.051702294 0.77600002 -0.01224528 1.8163268e-38 282 249
-0.050341707 0.77600002 -0.01224528 1.604241e-38 283 249
-0.04885488 0.77399999 -0.01221372 1.3545902e-38 284 249
-0.047436431 0.773 -0.012197939 1.0134663e-38 285 249
-0.046081103 0.773 -0.012197939 1.2060306e-38 286 249
-0.044725779 0.773 -0.012197939 1.1507132e-38 287 249
-0.043258239 0.77100003 -0.01216638 1.2146734e-38 288 249
-0.041797712 0.76899999 -0.012134819 1.1685757e-38 289 249
-0.040344197 0.76700002 -0.01210326 1.1318049e-38 290 249
-0.038999394 0.76700002 -0.01210326 1.1225854e-38 291 249
-0.037605491 0.76599997 -0.012087479 1.1041107e-38 292 249
-0.036262438 0.76599997 -0.012087479 1.0948911e-38 293 249
-0.034828212 0.764 -0.01205592 1.0396819e-38 294 249
-0.033401001 0.76200002 -0.01202436 1.0304623e-38 295 249
-0.032022879 0.76099998 -0.012008579 1.0212791e-38 296 249
-0.030688593 0.76099998 -0.012008579 1.0212791e-38 297 249
-0.029354304 0.76099998 -0.012008579 1.0395743e-38 298 249
-0.028020019 0.76099998 -0.012008579 1.0303188e-38 299 249
-0.026685731 0.76099998 -0.012008579 9.936564e-39 300 249
-0.025284819 0.759 -0.01197702 9.8443683e-39 301 249
-0.023954039 0.759 -0.01197702 1.0027683e-38 302 249
-0.02262326 0.759 -0.01197702 1.0119879e-38 303 249
-0.02129248 0.759 -0.01197702 9.6614246e-39 304 249
-0.0199617 0.759 -0.01197702 9.6614246e-39 305 249
-0.01863092 0.759 -0.01197702 9.5695919e-39 306 249
-0.017300138 0.759 -0.01197702 9.5695919e-39 307 249
-0.015927281 0.75700003 -0.01194546 9.6617848e-39 308 249
-0.014600007 0.75700003 -0.01194546 9.6617848e-39 309 249
-0.013272733 0.75700003 -0.01194546 9.8447341e-39 310 249
-0.01194546 0.75700003 -0.01194546 9.7525384e-39 311 249
-0.010618187 0.75700003 -0.01194546 9.7518168e-39 312 249
-0.0092909131 0.75700003 -0.01194546 9.8443711e-39 313 249
-0.0079636406 0.75700003 -0.01194546 9.7528916e-39 314 249
-0.0066363667 0.75700003 -0.01194546 9.4763047e-39 315 249
-0.0053231199 0.759 -0.01197702 9.5663549e-39 316 249
-0.0039923396 0.759 -0.01197702 9.3819637e-39 317 249
-0.0026685731 0.76099998 -0.012008579 9.2904939e-39 318 249
-0.0013342865 0.76099998 -0.012008579 9.2904939e-39 319 249
0 0.76099998 -0.012008579 9.3819637e-39 320 249
0.0013342865 0.76099998 -0.012008579 9.3819637e-39 321 249
0.0026685731 0.76099998 -0.012008579 9.4741593e-39 322 249
0.0040028598 0.76099998 -0.012008579 9.5663549e-39 323 249
0.0053371461 0.76099998 -0.012008579 1.0301754e-38 324 249
0.0066538998 0.759 -0.01197702 1.0485785e-38 325 249
0.0079846792 0.759 -0.01197702 1.0671238e-38 326 249
0.0093400059 0.76099998 -0.012008579 1.0671238e-38 327 249
0.01068832 0.76200002 -0.01202436 1.0763431e-38 328 249
0.01202436 0.76200002 -0.01202436 1.0855627e-38 329 249
0.013395466 0.764 -0.01205592 1.0580131e-38 330 249
0.014735013 0.764 -0.01205592 1.0764883e-38 331 249
0.016116638 0.76599997 -0.012087479 1.1039684e-38 332 249
0.017528072 0.76899999 -0.012134819 1.1408465e-38 333 249
0.018876385 0.76899999 -0.012134819 1.0952173e-38 334 249
0.0202247 0.76899999 -0.012134819 1.1321316e-38 335 249
-0.050211959 0.77399999 -0.013570799 1.6318629e-38 283 250
-0.04885488 0.77399999 -0.013570799 1.4191628e-38 284 250
-0.047436431 0.773 -0.013553266 1.0226856e-38 285 250
-0.046081103 0.773 -0.013553266 1.1414581e-38 286 250
-0.044725779 0.773 -0.013553266 1.1322385e-38 287 250
-0.043258239 0.77100003 -0.013518199 1.1503167e-38 288 250
-0.041797712 0.76899999 -0.013483133 1.1042188e-38 289 250
-0.040344197 0.76700002 -0.013448066 1.0582649e-38 290 250
-0.038999394 0.76700002 -0.013448066 1.0490454e-38 291 250
-0.037654586 0.76700002 -0.013448066 1.0398258e-38 292 250
-0.036262438 0.76599997 -0.013430533 1.0398258e-38 293 250
-0.034919381 0.76599997 -0.013430533 1.02135e-38 294 250
-0.033488665 0.764 -0.013395466 1.002911e-38 295 250
-0.032022879 0.76099998 -0.013342866 9.7539678e-39 296 250
-0.030688593 0.76099998 -0.013342866 9.6617721e-39 297 250
-0.029354304 0.76099998 -0.013342866 9.9365668e-39 298 250
-0.027946379 0.759 -0.0133078 9.8443711e-39 299 250
-0.026615599 0.759 -0.0133078 9.7528916e-39 300 250
-0.025284819 0.759 -0.0133078 9.5688605e-39 301 250
-0.023954039 0.759 -0.0133078 9.5695793e-39 302 250
-0.02262326 0.759 -0.0133078 9.5695793e-39 303 250
-0.02129248 0.759 -0.0133078 9.661419e-39 304 250
-0.0199617 0.759 -0.0133078 9.661419e-39 305 250
-0.01863092 0.759 -0.0133078 9.5688703e-39 306 250
-0.017300138 0.759 -0.0133078 9.6614246e-39 307 250
-0.015927281 0.75700003 -0.013272733 9.3855608e-39 308 250
-0.014600007 0.75700003 -0.013272733 9.3855608e-39 309 250
-0.013272733 0.75700003 -0.013272733 9.3844804e-39 310 250
-0.01194546 0.75700003 -0.013272733 9.3844804e-39 311 250
-0.010618187 0.75700003 -0.013272733 9.3848307e-39 312 250
-0.0092909131 0.75700003 -0.013272733 9.3848307e-39 313 250
-0.0079636406 0.75700003 -0.013272733 9.6599729e-39 314 250
-0.0066363667 0.75700003 -0.013272733 9.5677772e-39 315 250
-0.0053231199 0.759 -0.0133078 9.4741565e-39 316 250
-0.0039923396 0.759 -0.0133078 9.2897652e-39 317 250
-0.0026685731 0.76099998 -0.013342866 8.9227848e-39 318 250
-0.0013342865 0.76099998 -0.013342866 8.9227848e-39 319 250
0 0.76099998 -0.013342866 8.9231379e-39 320 250
0.0013342865 0.76099998 -0.013342866 8.8309409e-39 321 250
0.0026685731 0.76099998 -0.013342866 9.2897624e-39 322 250
0.0040028598 0.76099998 -0.013342866 9.3819581e-39 323 250
0.0053371461 0.76099998 -0.013342866 9.8414943e-39 324 250
0.0066714329 0.76099998 -0.013342866 9.9340486e-39 325 250
0.0080057196 0.76099998 -0.013342866 1.0027318e-38 326 250
0.0093400059 0.76099998 -0.013342866 1.0027318e-38 327 250
0.01068832 0.76200002 -0.0133604 1.0119876e-38 328 250
0.01202436 0.76200002 -0.0133604 1.0212072e-38 329 250
0.013395466 0.764 -0.013395466 1.0304992e-38 330 250
0.014773586 0.76599997 -0.013430533 1.0489385e-38 331 250
0.01613768 0.76700002 -0.013448066 1.0764542e-38 332 250
0.017528072 0.76899999 -0.013483133 1.122552e-38 333 250
0.018876385 0.76899999 -0.013483133 1.0769227e-38 334 250
0.0202247 0.76899999 -0.013483133 1.1230565e-38 335 250
-0.050211959 0.77399999 -0.014927879 1.6410469e-38 283 251
-0.04885488 0.77399999 -0.014927879 1.492919e-38 284 251
-0.047436431 0.773 -0.014908593 1.0411604e-38 285 251
-0.046081103 0.773 -0.014908593 1.0954326e-38 286 251
-0.044725779 0.773 -0.014908593 1.1139076e-38 287 251
-0.043370452 0.773 -0.014908593 1.0674495e-38 288 251
-0.04190642 0.77100003 -0.01487002 1.0029125e-38 289 251
-0.040344197 0.76700002 -0.014792874 1.0121677e-38 290 251
-0.038999394 0.76700002 -0.014792874 1.0029481e-38 291 251
-0.037654586 0.76700002 -0.014792874 1.0212794e-38 292 251
-0.036262438 0.76599997 -0.014773586 1.0212794e-38 293 251
-0.034919381 0.76599997 -0.014773586 1.0212428e-38 294 251
-0.033488665 0.764 -0.014735013 1.0212428e-38 295 251
-0.032022879 0.76099998 -0.014677152 9.6617721e-39 296 251
-0.030688593 0.76099998 -0.014677152 9.5695765e-39 297 251
-0.029354304 0.76099998 -0.014677152 9.5688605e-39 298 251
-0.027946379 0.759 -0.014638579 9.5688605e-39 299 251
-0.026615599 0.759 -0.014638579 9.477025e-39 300 251
-0.025284819 0.759 -0.014638579 9.477025e-39 301 251
-0.023954039 0.759 -0.014638579 9.3862643e-39 302 251
-0.02262326 0.759 -0.014638579 9.5702954e-39 303 251
-0.02129248 0.759 -0.014638579 9.5702954e-39 304 251
-0.0199617 0.759 -0.014638579 9.662491e-39 305 251
-0.01863092 0.759 -0.014638579 9.2033149e-39 306 251
-0.017300138 0.759 -0.014638579 9.3873461e-39 307 251
-0.015969358 0.759 -0.014638579 9.110769e-39 308 251
-0.014638579 0.759 -0.014638579 9.110769e-39 309 251
-0.0133078 0.759 -0.014638579 9.2008094e-39 310 251
-0.01197702 0.759 -0.014638579 9.1086138e-39 311 251
-0.01064624 0.759 -0.014638579 9.3837559e-39 312 251
-0.00931546 0.759 -0.014638579 9.3837559e-39 313 251
-0.0079846792 0.759 -0.014638579 9.5674241e-39 314 251
-0.0066538998 0.759 -0.014638579 9.2911974e-39 315 251
-0.0053371461 0.76099998 -0.014677152 9.2897652e-39 316 251
-0.0040028598 0.76099998 -0.014677152 9.1057327e-39 317 251
-0.0026685731 0.76099998 -0.014677152 8.7391054e-39 318 251
-0.0013342865 0.76099998 -0.014677152 8.7391054e-39 319 251
0 0.76099998 -0.014677152 8.7394613e-39 320 251
0.0013342865 0.76099998 -0.014677152 8.5554302e-39 321 251
0.0026685731 0.76099998 -0.014677152 8.7387425e-39 322 251
0.0040028598 0.76099998 -0.014677152 8.9231351e-39 323 251
0.0053371461 0.76099998 -0.014677152 9.1989989e-39 324 251
0.0066714329 0.76099998 -0.014677152 9.2911946e-39 325 251
0.0080057196 0.76099998 -0.014677152 9.4737908e-39 326 251
0.0093400059 0.76099998 -0.014677152 9.6578219e-39 327 251
0.01068832 0.76200002 -0.01469644 9.5674269e-39 328 251
0.01202436 0.76200002 -0.01469644 9.7518196e-39 329 251
0.013395466 0.764 -0.014735013 1.0029481e-38 330 251
0.014773586 0.76599997 -0.014773586 1.0213874e-38 331 251
0.01613768 0.76700002 -0.014792874 1.0582302e-38 332 251
0.017528072 0.76899999 -0.014831445 1.085889e-38 333 251
0.018876385 0.76899999 -0.014831445 1.058627e-38 334 251
0.0202247 0.76899999 -0.014831445 1.1323835e-38 335 251
-0.050211959 0.77399999 -0.016284959 1.6778896e-38 283 252
-0.04885488 0.77399999 -0.016284959 1.566783e-38 284 252
-0.047436431 0.773 -0.016263919 1.0689266e-38 285 252
-0.046081103 0.773 -0.016263919 1.0862479e-38 286 252
-0.044725779 0.773 -0.016263919 1.0862479e-38 287 252
-0.043370452 0.773 -0.016263919 1.0858163e-38 288 252
-0.04190642 0.77100003 -0.016221842 1.0212794e-38 289 252
-0.040344197 0.76700002 -0.01613768 9.2029646e-39 290 252
-0.038999394 0.76700002 -0.01613768 9.110769e-39 291 252
-0.037654586 0.76700002 -0.01613768 9.2937281e-39 292 252
-0.036262438 0.76599997 -0.016116638 9.2937281e-39 293 252
-0.034919381 0.76599997 -0.016116638 9.5688703e-39 294 252
-0.033576332 0.76599997 -0.016116638 9.6614246e-39 295 252
-0.032149121 0.764 -0.016074561 9.3859111e-39 296 252
-0.030688593 0.76099998 -0.016011439 9.2937155e-39 297 252
-0.029354304 0.76099998 -0.016011439 9.2937127e-39 298 252
-0.027946379 0.759 -0.015969358 9.2937127e-39 299 252
-0.026615599 0.759 -0.015969358 9.2940658e-39 300 252
-0.025284819 0.759 -0.015969358 9.3862615e-39 301 252
-0.023954039 0.759 -0.015969358 9.5695737e-39 302 252
-0.022563647 0.75700003 -0.015927281 9.6617693e-39 303 252
-0.021236373 0.75700003 -0.015927281 9.6624882e-39 304 252
-0.019909101 0.75700003 -0.015927281 9.7550426e-39 305 252
-0.018581826 0.75700003 -0.015927281 9.5713772e-39 306 252
-0.017254554 0.75700003 -0.015927281 9.4788228e-39 307 252
-0.015927281 0.75700003 -0.015927281 9.110769e-39 308 252
-0.014638579 0.759 -0.015969358 9.0185733e-39 309 252
-0.0133078 0.759 -0.015969358 9.0174971e-39 310 252
-0.01197702 0.759 -0.015969358 8.9253015e-39 311 252
-0.01064624 0.759 -0.015969358 9.2004437e-39 312 252
-0.00931546 0.759 -0.015969358 9.108248e-39 313 252
-0.0079846792 0.759 -0.015969358 9.2908414e-39 314 252
-0.0066714329 0.76099998 -0.016011439 9.2908414e-39 315 252
-0.0053371461 0.76099998 -0.016011439 9.1986486e-39 316 252
-0.0040028598 0.76099998 -0.016011439 9.106453e-39 317 252
-0.0026685731 0.76099998 -0.016011439 8.7394613e-39 318 252
-0.0013342865 0.76099998 -0.016011439 8.7394613e-39 319 252
0 0.76099998 -0.016011439 8.4628786e-39 320 252
0.0013342865 0.76099998 -0.016011439 8.4628786e-39 321 252
0.0026685731 0.76099998 -0.016011439 8.4635975e-39 322 252
0.0040028598 0.76099998 -0.016011439 8.6479902e-39 323 252
0.0053371461 0.76099998 -0.016011439 8.9231379e-39 324 252
0.0066714329 0.76099998 -0.016011439 8.8309409e-39 325 252
0.0080057196 0.76099998 -0.016011439 9.0139028e-39 326 252
0.0093522798 0.76200002 -0.01603248 8.9213485e-39 327 252
0.01068832 0.76200002 -0.01603248 8.6483615e-39 328 252
0.01205592 0.764 -0.016074561 9.017144e-39 329 252
0.013430533 0.76599997 -0.016116638 9.6617848e-39 330 252
0.014773586 0.76599997 -0.016116638 9.9387318e-39 331 252
0.01613768 0.76700002 -0.01613768 1.0399709e-38 332 252
0.017528072 0.76899999 -0.016179759 1.0676297e-38 333 252
0.018925481 0.77100003 -0.016221842 1.0680262e-38 334 252
-0.050211959 0.77399999 -0.01764204 1.6780333e-38 283 253
-0.04885488 0.77399999 -0.01764204 1.6222092e-38 284 253
-0.047436431 0.773 -0.017619247 1.1520115e-38 285 253
-0.046081103 0.773 -0.017619247 1.1231985e-38 286 253
-0.044725779 0.773 -0.017619247 1.0125997e-38 287 253
-0.043258239 0.77100003 -0.01757366 1.0124195e-38 288 253
-0.04190642 0.77100003 -0.01757366 9.6632169e-39 289 253
-0.040344197 0.76700002 -0.017482487 8.836696e-39 290 253
-0.038999394 0.76700002 -0.017482487 8.6526649e-39 291 253
-0.037654586 0.76700002 -0.017482487 9.0185705e-39 292 253
-0.036309779 0.76700002 -0.017482487 8.9263735e-39 293 253
-0.034919381 0.76599997 -0.017459691 9.4759544e-39 294 253
-0.033576332 0.76599997 -0.017459691 9.4759544e-39 295 253
-0.032149121 0.764 -0.017414106 9.6596226e-39 296 253
-0.030688593 0.76099998 -0.017345725 9.6596226e-39 297 253
-0.029354304 0.76099998 -0.017345725 9.3848279e-39 298 253
-0.027946379 0.759 -0.017300138 9.477025e-39 299 253
-0.026615599 0.759 -0.017300138 9.5695765e-39 300 253
-0.025284819 0.759 -0.017300138 9.4773809e-39 301 253
-0.023954039 0.759 -0.017300138 9.752886e-39 302 253
-0.022563647 0.75700003 -0.017254554 9.752886e-39 303 253
-0.021236373 0.75700003 -0.017254554 9.8450844e-39 304 253
-0.019909101 0.75700003 -0.017254554 9.8450844e-39 305 253
-0.018581826 0.75700003 -0.017254554 9.9365668e-39 306 253
-0.017254554 0.75700003 -0.017254554 9.9365668e-39 307 253
-0.015927281 0.75700003 -0.017254554 9.2015325e-39 308 253
-0.014638579 0.759 -0.017300138 9.0175e-39 309 253
-0.0133078 0.759 -0.017300138 8.9253015e-39 310 253
-0.01197702 0.759 -0.017300138 9.0174971e-39 311 253
-0.01064624 0.759 -0.017300138 9.1082452e-39 312 253
-0.00931546 0.759 -0.017300138 8.923854e-39 313 253
-0.0079846792 0.759 -0.017300138 9.381242e-39 314 253
-0.0066714329 0.76099998 -0.017345725 9.1968493e-39 315 253
-0.0053371461 0.76099998 -0.017345725 8.7391082e-39 316 253
-0.0040028598 0.76099998 -0.017345725 8.7391082e-39 317 253
-0.0026685731 0.76099998 -0.017345725 8.7383893e-39 318 253
-0.0013342865 0.76099998 -0.017345725 8.5539981e-39 319 253
0 0.76099998 -0.017345725 8.6454776e-39 320 253
0.0013342865 0.76099998 -0.017345725 8.5529233e-39 321 253
0.0026685731 0.76099998 -0.017345725 8.6461909e-39 322 253
0.0040028598 0.76099998 -0.017345725 8.7383865e-39 323 253
0.0053441599 0.76200002 -0.01736852 8.8309409e-39 324 253
0.0066801999 0.76200002 -0.01736852 8.7383865e-39 325 253
0.0080162399 0.76200002 -0.01736852 8.6461965e-39 326 253
0.0093522798 0.76200002 -0.01736852 8.6461965e-39 327 253
0.010716373 0.764 -0.017414106 8.9238568e-39 328 253
0.012087479 0.76599997 -0.017459691 9.2004437e-39 329 253
0.013448066 0.76700002 -0.017482487 9.7539706e-39 330 253
0.014792874 0.76700002 -0.017482487 1.0214949e-38 331 253
0.016179759 0.76899999 -0.017528072 1.0124198e-38 332 253
0.017528072 0.76899999 -0.017528072 1.0861763e-38 333 253
0.018925481 0.77100003 -0.01757366 1.0497319e-38 334 253
-0.04885488 0.77399999 -0.018999118 1.622426e-38 284 254
-0.047436431 0.773 -0.018974574 1.2905218e-38 285 254
-0.046081103 0.773 -0.018974574 1.1696916e-38 286 254
-0.044725779 0.773 -0.018974574 9.0232425e-39 287 254
-0.043258239 0.77100003 -0.018925481 9.0217907e-39 288 254
-0.04190642 0.77100003 -0.018925481 9.206182e-39 289 254
-0.040344197 0.76700002 -0.018827293 8.8370491e-39 290 254
-0.038999394 0.76700002 -0.018827293 8.5604637e-39 291 254
-0.037654586 0.76700002 -0.018827293 8.6505125e-39 292 254
-0.036309779 0.76700002 -0.018827293 8.6505125e-39 293 254
-0.034964975 0.76700002 -0.018827293 8.8323996e-39 294 254
-0.033576332 0.76599997 -0.018802745 8.740204e-39 295 254
-0.032149121 0.764 -0.018753653 8.7405599e-39 296 254
-0.030688593 0.76099998 -0.018680012 8.8327556e-39 297 254
-0.029354304 0.76099998 -0.018680012 9.1089697e-39 298 254
-0.027946379 0.759 -0.01863092 9.2011653e-39 299 254
-0.026615599 0.759 -0.01863092 9.5688605e-39 300 254
-0.025284819 0.759 -0.01863092 9.7528916e-39 301 254
-0.023954039 0.759 -0.01863092 9.7528888e-39 302 254
-0.022563647 0.75700003 -0.018581826 9.7528888e-39 303 254
-0.021236373 0.75700003 -0.018581826 9.2933596e-39 304 254
-0.019909101 0.75700003 -0.018581826 9.2011625e-39 305 254
-0.018581826 0.75700003 -0.018581826 9.200815e-39 306 254
-0.017254554 0.75700003 -0.018581826 9.293012e-39 307 254
-0.015969358 0.759 -0.01863092 9.2008122e-39 308 254
-0.014638579 0.759 -0.01863092 9.2930092e-39 309 254
-0.0133078 0.759 -0.01863092 9.1089697e-39 310 254
-0.01197702 0.759 -0.01863092 9.0167741e-39 311 254
-0.01064624 0.759 -0.01863092 9.1068187e-39 312 254
-0.0093400059 0.76099998 -0.018680012 8.7380362e-39 313 254
-0.0080057196 0.76099998 -0.018680012 8.6454874e-39 314 254
-0.0066714329 0.76099998 -0.018680012 8.6454874e-39 315 254
-0.0053371461 0.76099998 -0.018680012 8.6454874e-39 316 254
-0.0040028598 0.76099998 -0.018680012 8.4610962e-39 317 254
-0.0026685731 0.76099998 -0.018680012 8.0019229e-39 318 254
-0.0013342865 0.76099998 -0.018680012 7.9097273e-39 319 254
0 0.76099998 -0.018680012 7.6338621e-39 320 254
0.0013342865 0.76099998 -0.018680012 7.5416664e-39 321 254
0.0026685731 0.76099998 -0.018680012 7.5423825e-39 322 254
0.0040028598 0.76099998 -0.018680012 7.7267751e-39 323 254
0.0053441599 0.76200002 -0.01870456 8.2785028e-39 324 254
