# .PCD v.7 - Point Cloud Data file format
FIELDS x y z rgb imX imY
SIZE 4 4 4 4 4 4
TYPE F F F F F F
COUNT 1 1 1 1 1 1
WIDTH 846
HEIGHT 1
VIEWPOINT 0 0 0 1 0 0 0
POINTS 846
DATA ascii
0.0026896133 0.76700002 0.01210326 9.660731e-39 322 231
0.0040449398 0.76899999 0.012134819 9.8454824e-39 323 231
0.0053932532 0.76899999 0.012134819 1.0213539e-38 324 231
0.0067415666 0.76899999 0.012134819 1.039793e-38 325 231
0.0081109209 0.77100003 0.01216638 1.1131898e-38 326 231
0.0094381925 0.76899999 0.012134819 1.1501041e-38 327 231
0.010786506 0.76899999 0.012134819 1.1960214e-38 328 231
0.012134819 0.76899999 0.012134819 1.2144964e-38 329 231
0.013448066 0.76700002 0.01210326 1.1685057e-38 330 231
0.014792874 0.76700002 0.01210326 1.1408468e-38 331 231
0.01613768 0.76700002 0.01210326 1.0857459e-38 332 231
0.017528072 0.76899999 0.012134819 1.0673428e-38 333 231
0.018876385 0.76899999 0.012134819 1.0397936e-38 334 231
0.0202247 0.76899999 0.012134819 1.0397936e-38 335 231
0.021685226 0.773 0.012197939 1.0397951e-38 336 231
0.02307036 0.77399999 0.01221372 1.0305397e-38 337 231
0.024553679 0.778 0.012276839 8.9289463e-39 338 231
0.025917772 0.778 0.012276839 7.9151545e-39 339 231
0.027281865 0.778 0.012276839 6.823941e-39 340 231
0.028719598 0.77999997 0.012308398 1.3093244e-38 341 231
0.030087199 0.77999997 0.012308398 1.494292e-38 342 231
-0.027387068 0.78100002 0.010954826 1.3459856e-38 300 232
-0.026017714 0.78100002 0.010954826 7.4674999e-39 301 232
-0.024616797 0.77999997 0.010940799 1.1501778e-38 302 232
-0.023189586 0.778 0.010912746 1.1225192e-38 303 232
-0.021769386 0.77600002 0.010884693 1.0490496e-38 304 232
-0.020356199 0.77399999 0.01085664 1.0213908e-38 305 232
-0.018974574 0.773 0.010842613 9.5721381e-39 306 232
-0.01757366 0.77100003 0.01081456 8.834573e-39 307 232
-0.016221842 0.77100003 0.01081456 6.1709779e-39 308 232
-0.014831445 0.76899999 0.010786506 6.355009e-39 309 232
-0.013483133 0.76899999 0.010786506 6.5368892e-39 310 232
-0.012134819 0.76899999 0.010786506 6.2599422e-39 311 232
-0.010786506 0.76899999 0.010786506 6.5350899e-39 312 232
-0.0094136465 0.76700002 0.010758453 6.6272855e-39 313 232
-0.00806884 0.76700002 0.010758453 7.4527302e-39 314 232
-0.006724033 0.76700002 0.010758453 7.5449272e-39 315 232
-0.0053792265 0.76700002 0.010758453 8.3707278e-39 316 232
-0.00403442 0.76700002 0.010758453 8.6469546e-39 317 232
-0.0026861064 0.76599997 0.010744425 9.1976074e-39 318 232
-0.0013430532 0.76599997 0.010744425 9.3819987e-39 319 232
0 0.76599997 0.010744425 9.5656669e-39 320 232
0.0013430532 0.76599997 0.010744425 9.8422552e-39 321 232
0.0026861064 0.76599997 0.010744425 9.8444062e-39 322 232
0.00403442 0.76700002 0.010758453 1.0305384e-38 323 232
0.0053792265 0.76700002 0.010758453 1.085639e-38 324 232
0.006724033 0.76700002 0.010758453 1.1040782e-38 325 232
0.0080898795 0.76899999 0.010786506 1.1499242e-38 326 232
0.0094381925 0.76899999 0.010786506 1.1591439e-38 327 232
0.010758453 0.76700002 0.010758453 1.1868021e-38 328 232
0.01210326 0.76700002 0.010758453 1.1960217e-38 329 232
0.013448066 0.76700002 0.010758453 1.1594308e-38 330 232
0.014792874 0.76700002 0.010758453 1.1409558e-38 331 232
0.01613768 0.76700002 0.010758453 1.076671e-38 332 232
0.017528072 0.76899999 0.010786506 1.0490482e-38 333 232
0.018876385 0.76899999 0.010786506 1.0306456e-38 334 232
0.0202247 0.76899999 0.010786506 1.0214261e-38 335 232
0.021685226 0.773 0.010842613 1.0213908e-38 336 232
0.02307036 0.77399999 0.01085664 1.0029876e-38 337 232
0.024490559 0.77600002 0.010884693 9.2951925e-39 338 232
0.025851147 0.77600002 0.010884693 8.0044536e-39 339 232
0.027211733 0.77600002 0.010884693 6.3582713e-39 340 232
0.028645959 0.778 0.010912746 1.3181108e-38 341 232
0.030087199 0.77999997 0.010940799 1.539886e-38 342 232
-0.028756421 0.78100002 0.0095854728 1.447725e-38 299 233
-0.027387068 0.78100002 0.0095854728 1.2533218e-38 300 233
-0.026017714 0.78100002 0.0095854728 7.8312405e-39 301 233
-0.024616797 0.77999997 0.0095731998 1.058271e-38 302 233
-0.023189586 0.778 0.0095486529 1.0490514e-38 303 233
-0.021713279 0.77399999 0.0094995592 9.29664e-39 304 233
-0.0203299 0.773 0.0094872871 9.1122487e-39 305 233
-0.018974574 0.773 0.0094872871 7.2751759e-39 306 233
-0.01757366 0.77100003 0.0094627403 6.7220021e-39 307 233
-0.016179759 0.76899999 0.0094381925 6.0770012e-39 308 233
-0.014831445 0.76899999 0.0094381925 5.8926114e-39 309 233
-0.013483133 0.76899999 0.0094381925 5.7082201e-39 310 233
-0.012134819 0.76899999 0.0094381925 5.6160245e-39 311 233
-0.010786506 0.76899999 0.0094381925 5.9833623e-39 312 233
-0.0094136465 0.76700002 0.0094136465 6.0755579e-39 313 233
-0.00806884 0.76700002 0.0094136465 6.7173302e-39 314 233
-0.006724033 0.76700002 0.0094136465 6.8095258e-39 315 233
-0.0053722127 0.76599997 0.0094013726 7.6356921e-39 316 233
-0.0040291594 0.76599997 0.0094013726 7.8200848e-39 317 233
-0.0026861064 0.76599997 0.0094013726 8.3707377e-39 318 233
-0.0013395466 0.764 0.0093768267 8.5554876e-39 319 233
0 0.764 0.0093768267 8.9235443e-39 320 233
0.0013395466 0.764 0.0093768267 9.2923268e-39 321 233
0.0026790933 0.764 0.0093768267 9.7529322e-39 322 233
0.0040186401 0.764 0.0093768267 1.0029521e-38 323 233
0.0053581866 0.764 0.0093768267 1.1131545e-38 324 233
0.006697733 0.764 0.0093768267 1.1224101e-38 325 233
0.0080372803 0.764 0.0093768267 1.1591807e-38 326 233
0.0094013726 0.76599997 0.0094013726 1.1499612e-38 327 233
0.010744425 0.76599997 0.0094013726 1.1408495e-38 328 233
0.012087479 0.76599997 0.0094013726 1.1500691e-38 329 233
0.013430533 0.76599997 0.0094013726 1.150176e-38 330 233
0.014773586 0.76599997 0.0094013726 1.1409564e-38 331 233
0.016116638 0.76599997 0.0094013726 1.1224803e-38 332 233
0.017459691 0.76599997 0.0094013726 1.1224803e-38 333 233
0.018827293 0.76700002 0.0094136465 1.058088e-38 334 233
0.020172099 0.76700002 0.0094136465 1.058088e-38 335 233
0.021629119 0.77100003 0.0094627403 1.0212833e-38 336 233
0.023040552 0.773 0.0094872871 1.0028442e-38 337 233
0.02442744 0.77399999 0.0094995592 9.5699843e-39 338 233
0.025784519 0.77399999 0.0094995592 8.4639955e-39 339 233
0.027141599 0.77399999 0.0094995592 6.626945e-39 340 233
0.028572321 0.77600002 0.009524107 1.1052695e-38 341 233
0.03001005 0.778 0.0095486529 1.319048e-38 342 233
-0.028756421 0.78100002 0.0082161194 1.4198865e-38 299 234
-0.027387068 0.78100002 0.0082161194 1.1151002e-38 300 234
-0.026017714 0.78100002 0.0082161194 7.5557327e-39 301 234
-0.024616797 0.77999997 0.0082055992 9.2058891e-39 302 234
-0.023189586 0.778 0.0081845606 8.7452711e-39 303 234
-0.021713279 0.77399999 0.0081424797 8.8356619e-39 304 234
-0.0203299 0.773 0.0081319595 8.2828482e-39 305 234
-0.018925481 0.77100003 0.0081109209 6.9053144e-39 306 234
-0.01757366 0.77100003 0.0081109209 6.3521406e-39 307 234
-0.016179759 0.76899999 0.0080898795 5.8007689e-39 308 234
-0.014831445 0.76899999 0.0080898795 5.6163776e-39 309 234
-0.013483133 0.76899999 0.0080898795 5.7989696e-39 310 234
-0.01210326 0.76700002 0.00806884 5.8911666e-39 311 234
-0.010758453 0.76700002 0.00806884 6.3496267e-39 312 234
-0.0094136465 0.76700002 0.00806884 6.3496267e-39 313 234
-0.00806884 0.76700002 0.00806884 6.6244129e-39 314 234
-0.0067152665 0.76599997 0.0080583189 6.7169672e-39 315 234
-0.0053722127 0.76599997 0.0080583189 7.726443e-39 316 234
-0.0040291594 0.76599997 0.0080583189 7.9108343e-39 317 234
-0.0026790933 0.764 0.0080372803 8.2781791e-39 318 234
-0.0013395466 0.764 0.0080372803 8.5544058e-39 319 234
0 0.76200002 0.0080162399 9.0142952e-39 320 234
0.00133604 0.76200002 0.0080162399 9.4752733e-39 321 234
0.00267208 0.76200002 0.0080162399 1.0302863e-38 322 234
0.0040081199 0.76200002 0.0080162399 1.0763842e-38 323 234
0.0053441599 0.76200002 0.0080162399 1.1407762e-38 324 234
0.0066801999 0.76200002 0.0080162399 1.1499959e-38 325 234
0.0080162399 0.76200002 0.0080162399 1.1775107e-38 326 234
0.0093522798 0.76200002 0.0080162399 1.1775107e-38 327 234
0.010716373 0.764 0.0080372803 1.1499242e-38 328 234
0.01205592 0.764 0.0080372803 1.1591439e-38 329 234
0.013430533 0.76599997 0.0080583189 1.1591439e-38 330 234
0.014773586 0.76599997 0.0080583189 1.177547e-38 331 234
0.016116638 0.76599997 0.0080583189 1.1316644e-38 332 234
0.017459691 0.76599997 0.0080583189 1.1132251e-38 333 234
0.018802745 0.76599997 0.0080583189 1.0764548e-38 334 234
0.020172099 0.76700002 0.00806884 1.030357e-38 335 234
0.021573013 0.76899999 0.0080898795 1.0211389e-38 336 234
0.022921326 0.76899999 0.0080898795 1.0027358e-38 337 234
0.024395877 0.773 0.0081319595 9.2012046e-39 338 234
0.025751207 0.773 0.0081319595 9.2012046e-39 339 234
0.027106533 0.773 0.0081319595 7.5445895e-39 340 234
0.028572321 0.77600002 0.0081635201 6.8070245e-39 341 234
0.029932907 0.77600002 0.0081635201 9.6884879e-39 342 234
-0.028756421 0.78100002 0.0068467669 1.3738245e-38 299 235
-0.027387068 0.78100002 0.0068467669 1.0686064e-38 300 235
-0.026017714 0.78100002 0.0068467669 7.9198362e-39 301 235
-0.024553679 0.778 0.0068204664 8.7477878e-39 302 235
-0.023129974 0.77600002 0.0068029333 8.3786466e-39 303 235
-0.021685226 0.773 0.0067766332 7.5499677e-39 304 235
-0.020277301 0.77100003 0.0067590997 6.9967939e-39 305 235
-0.018876385 0.76899999 0.0067415666 5.7110928e-39 306 235
-0.017528072 0.76899999 0.0067415666 5.250116e-39 307 235
-0.016179759 0.76899999 0.0067415666 5.5238247e-39 308 235
-0.014792874 0.76700002 0.006724033 5.431629e-39 309 235
-0.013448066 0.76700002 0.006724033 5.5231086e-39 310 235
-0.01210326 0.76700002 0.006724033 5.5231086e-39 311 235
-0.010758453 0.76700002 0.006724033 6.2570737e-39 312 235
-0.0094136465 0.76700002 0.006724033 6.2570737e-39 313 235
-0.0080583189 0.76599997 0.0067152665 6.6244157e-39 314 235
-0.0067152665 0.76599997 0.0067152665 6.7166113e-39 315 235
-0.0053581866 0.764 0.006697733 7.3583836e-39 316 235
-0.0040186401 0.764 0.006697733 7.4505792e-39 317 235
-0.0026790933 0.764 0.006697733 8.0012349e-39 318 235
-0.0013342865 0.76099998 0.0066714329 8.2778232e-39 319 235
0 0.76099998 0.0066714329 8.6466015e-39 320 235
0.0013342865 0.76099998 0.0066714329 8.9235485e-39 321 235
0.0026685731 0.76099998 0.0066714329 1.0118122e-38 322 235
0.0040028598 0.76099998 0.0066714329 1.0671296e-38 323 235
0.0053441599 0.76200002 0.0066801999 1.140669e-38 324 235
0.0066714329 0.76099998 0.0066714329 1.1498887e-38 325 235
0.0080057196 0.76099998 0.0066714329 1.1774031e-38 326 235
0.0093400059 0.76099998 0.0066714329 1.1774031e-38 327 235
0.01068832 0.76200002 0.0066801999 1.1498887e-38 328 235
0.01205592 0.764 0.006697733 1.1498887e-38 329 235
0.013395466 0.764 0.006697733 1.1224098e-38 330 235
0.014735013 0.764 0.006697733 1.1224098e-38 331 235
0.016074561 0.764 0.006697733 1.085639e-38 332 235
0.017459691 0.76599997 0.0067152665 1.0764195e-38 333 235
0.018802745 0.76599997 0.0067152665 1.0303937e-38 334 235
0.020172099 0.76700002 0.006724033 1.0027709e-38 335 235
0.021516906 0.76700002 0.006724033 9.5674634e-39 336 235
0.022861714 0.76700002 0.006724033 9.4752677e-39 337 235
0.024269639 0.76899999 0.0067415666 9.1997724e-39 338 235
0.02568458 0.77100003 0.0067590997 9.1997724e-39 339 235
0.027106533 0.773 0.0067766332 8.2799896e-39 340 235
0.028498679 0.77399999 0.0067853997 6.6204682e-39 341 235
0.029855758 0.77399999 0.0067853997 9.3985845e-39 342 235
-0.028756421 0.78100002 0.0054774131 1.3460938e-38 299 236
-0.027387068 0.78100002 0.0054774131 9.948496e-39 300 236
-0.026017714 0.78100002 0.0054774131 7.5514097e-39 301 236
-0.024553679 0.778 0.0054563731 8.2882488e-39 302 236
-0.023129974 0.77600002 0.0054423464 7.6428794e-39 303 236
-0.021685226 0.773 0.0054213065 6.9971569e-39 304 236
-0.020277301 0.77100003 0.0054072798 6.4439831e-39 305 236
-0.018876385 0.76899999 0.0053932532 5.5263428e-39 306 236
-0.017528072 0.76899999 0.0053932532 5.1579204e-39 307 236
-0.016179759 0.76899999 0.0053932532 5.247242e-39 308 236
-0.014792874 0.76700002 0.0053792265 5.1550463e-39 309 236
-0.013448066 0.76700002 0.0053792265 5.4301941e-39 310 236
-0.01210326 0.76700002 0.0053792265 5.6142252e-39 311 236
-0.010758453 0.76700002 0.0053792265 6.0737614e-39 312 236
-0.0094013726 0.76599997 0.0053722127 6.0737614e-39 313 236
-0.0080583189 0.76599997 0.0053722127 6.6244185e-39 314 236
-0.006697733 0.764 0.0053581866 6.6244185e-39 315 236
-0.0053581866 0.764 0.0053581866 7.266188e-39 316 236
-0.0040186401 0.764 0.0053581866 7.266188e-39 317 236
-0.00267208 0.76200002 0.0053441599 7.7250053e-39 318 236
-0.0013342865 0.76099998 0.0053371461 8.0934277e-39 319 236
0 0.76099998 0.0053371461 8.5529681e-39 320 236
0.0013342865 0.76099998 0.0053371461 9.0139449e-39 321 236
0.0026685731 0.76099998 0.0053371461 1.0024854e-38 322 236
0.0040028598 0.76099998 0.0053371461 1.0578028e-38 323 236
0.0053371461 0.76099998 0.0053371461 1.1038631e-38 324 236
0.0066714329 0.76099998 0.0053371461 1.1130826e-38 325 236
0.0080057196 0.76099998 0.0053371461 1.1406327e-38 326 236
0.0093400059 0.76099998 0.0053371461 1.1406327e-38 327 236
0.010674292 0.76099998 0.0053371461 1.1131182e-38 328 236
0.01202436 0.76200002 0.0053441599 1.1131182e-38 329 236
0.0133604 0.76200002 0.0053441599 1.1039705e-38 330 236
0.014735013 0.764 0.0053581866 1.094751e-38 331 236
0.016074561 0.764 0.0053581866 1.0488331e-38 332 236
0.017459691 0.76599997 0.0053722127 1.0211384e-38 333 236
0.018802745 0.76599997 0.0053722127 9.9351599e-39 334 236
0.020172099 0.76700002 0.0053792265 9.7504099e-39 335 236
0.021516906 0.76700002 0.0053792265 9.3830749e-39 336 236
0.022861714 0.76700002 0.0053792265 9.1990424e-39 337 236
0.024269639 0.76899999 0.0053932532 8.9235415e-39 338 236
0.02568458 0.77100003 0.0054072798 8.8313459e-39 339 236
0.027036399 0.77100003 0.0054072798 8.4647354e-39 340 236
0.028461859 0.773 0.0054213065 7.265832e-39 341 236
0.029855758 0.77399999 0.0054283198 8.3840738e-39 342 236
-0.03020292 0.78299999 0.0041185799 1.7979242e-38 298 237
-0.028756421 0.78100002 0.0041080597 1.3000678e-38 299 237
-0.027387068 0.78100002 0.0041080597 8.8446666e-39 300 237
-0.025984399 0.77999997 0.0041027996 7.3695365e-39 301 237
-0.024553679 0.778 0.0040922803 7.7375932e-39 302 237
-0.023129974 0.77600002 0.0040817601 6.815997e-39 303 237
-0.021685226 0.773 0.0040659797 6.1702745e-39 304 237
-0.020277301 0.77100003 0.0040554604 5.8014905e-39 305 237
-0.018876385 0.76899999 0.0040449398 5.1579204e-39 306 237
-0.017528072 0.76899999 0.0040449398 4.973169e-39 307 237
-0.016179759 0.76899999 0.0040449398 5.0628479e-39 308 237
-0.014792874 0.76700002 0.00403442 4.9706523e-39 309 237
-0.013448066 0.76700002 0.00403442 5.2465189e-39 310 237
-0.012087479 0.76599997 0.0040291594 5.3387145e-39 311 237
-0.010744425 0.76599997 0.0040291594 5.6145784e-39 312 237
-0.0094013726 0.76599997 0.0040291594 5.706774e-39 313 237
-0.0080372803 0.764 0.0040186401 6.440023e-39 314 237
-0.006697733 0.764 0.0040186401 6.440023e-39 315 237
-0.0053441599 0.76200002 0.0040081199 6.714812e-39 316 237
-0.0040081199 0.76200002 0.0040081199 6.8070077e-39 317 237
-0.00267208 0.76200002 0.0040081199 7.266188e-39 318 237
-0.0013342865 0.76099998 0.0040028598 7.4505792e-39 319 237
0 0.76099998 0.0040028598 8.3685754e-39 320 237
0.0013342865 0.76099998 0.0040028598 8.7369992e-39 321 237
0.0026685731 0.76099998 0.0040028598 9.7479072e-39 322 237
0.0040028598 0.76099998 0.0040028598 1.011705e-38 323 237
0.0053371461 0.76099998 0.0040028598 1.0761691e-38 324 237
0.0066714329 0.76099998 0.0040028598 1.0761691e-38 325 237
0.0080057196 0.76099998 0.0040028598 1.1036833e-38 326 237
0.0093400059 0.76099998 0.0040028598 1.1036833e-38 327 237
0.010674292 0.76099998 0.0040028598 1.0853523e-38 328 237
0.01202436 0.76200002 0.0040081199 1.0853523e-38 329 237
0.0133604 0.76200002 0.0040081199 1.0395066e-38 330 237
0.01469644 0.76200002 0.0040081199 1.0302869e-38 331 237
0.016074561 0.764 0.0040186401 1.0027721e-38 332 237
0.017414106 0.764 0.0040186401 9.7511343e-39 333 237
0.018802745 0.76599997 0.0040291594 9.4756237e-39 334 237
0.020172099 0.76700002 0.00403442 9.1990368e-39 335 237
0.021516906 0.76700002 0.00403442 8.8316962e-39 336 237
0.022921326 0.76899999 0.0040449398 8.6473049e-39 337 237
0.024269639 0.76899999 0.0040449398 8.6469546e-39 338 237
0.025617953 0.76899999 0.0040449398 8.6469546e-39 339 237
0.027036399 0.77100003 0.0040554604 8.3728886e-39 340 237
0.028461859 0.773 0.0040659797 7.2661824e-39 341 237
0.029855758 0.77399999 0.0040712398 8.106754e-39 342 237
0.031212838 0.77399999 0.0040712398 1.409947e-38 343 237
-0.03020292 0.78299999 0.0027457199 1.7979242e-38 298 238
-0.028756421 0.78100002 0.0027387065 1.3369461e-38 299 238
-0.027387068 0.78100002 0.0027387065 9.3960411e-39 300 238
-0.025984399 0.77999997 0.0027351999 7.8290755e-39 301 238
-0.024553679 0.778 0.0027281865 7.8290699e-39 302 238
-0.02307036 0.77399999 0.0027141599 6.9993093e-39 303 238
-0.021629119 0.77100003 0.0027036399 5.985879e-39 304 238
-0.020277301 0.77100003 0.0027036399 5.6170965e-39 305 238
-0.018876385 0.76899999 0.0026966266 4.7902099e-39 306 238
-0.017528072 0.76899999 0.0026966266 4.6980143e-39 307 238
-0.016179759 0.76899999 0.0026966266 4.7876931e-39 308 238
-0.014792874 0.76700002 0.0026896133 4.7876931e-39 309 238
-0.013448066 0.76700002 0.0026896133 4.9710082e-39 310 238
-0.012087479 0.76599997 0.0026861064 4.9710082e-39 311 238
-0.010744425 0.76599997 0.0026861064 5.2465189e-39 312 238
-0.0094013726 0.76599997 0.0026861064 5.3387145e-39 313 238
-0.0080372803 0.764 0.0026790933 5.8886513e-39 314 238
-0.006697733 0.764 0.0026790933 5.8886513e-39 315 238
-0.0053441599 0.76200002 0.00267208 6.0719636e-39 316 238
-0.0040081199 0.76200002 0.00267208 6.2563548e-39 317 238
-0.00267208 0.76200002 0.00267208 6.440023e-39 318 238
-0.0013342865 0.76099998 0.0026685731 6.7166113e-39 319 238
0 0.76099998 0.0026685731 7.725371e-39 320 238
0.0013342865 0.76099998 0.0026685731 8.0941522e-39 321 238
0.0026685731 0.76099998 0.0026685731 9.1039867e-39 322 238
0.0040028598 0.76099998 0.0026685731 9.5649648e-39 323 238
0.0053371461 0.76099998 0.0026685731 9.7497064e-39 324 238
0.0066714329 0.76099998 0.0026685731 9.8422608e-39 325 238
0.0080057196 0.76099998 0.0026685731 9.8422552e-39 326 238
0.0093400059 0.76099998 0.0026685731 9.8422552e-39 327 238
0.010674292 0.76099998 0.0026685731 1.01174e-38 328 238
0.01202436 0.76200002 0.00267208 1.0301431e-38 329 238
0.0133604 0.76200002 0.00267208 9.84333e-39 330 238
0.01469644 0.76200002 0.00267208 9.7511343e-39 331 238
0.01603248 0.76200002 0.00267208 9.5667445e-39 332 238
0.01736852 0.76200002 0.00267208 9.4745489e-39 333 238
0.01870456 0.76200002 0.00267208 9.1075628e-39 334 238
0.020145798 0.76599997 0.0026861064 8.9228128e-39 335 238
0.021516906 0.76700002 0.0026896133 8.4639955e-39 336 238
0.022861714 0.76700002 0.0026896133 8.2792455e-39 337 238
0.024269639 0.76899999 0.0026966266 8.370725e-39 338 238
0.025617953 0.76899999 0.0026966266 8.5547562e-39 339 238
0.027036399 0.77100003 0.0027036399 7.7303933e-39 340 238
0.028461859 0.773 0.0027106532 6.9928283e-39 341 238
0.029740039 0.77100003 0.0027036399 8.0127535e-39 342 238
0.031091858 0.77100003 0.0027036399 1.3083873e-38 343 238
-0.03020292 0.78299999 0.0013728599 1.788777e-38 298 239
-0.028756421 0.78100002 0.0013693533 1.3831162e-38 299 239
-0.027351998 0.77999997 0.0013675999 1.013648e-38 300 239
-0.025984399 0.77999997 0.0013675999 7.2784171e-39 301 239
-0.024553679 0.778 0.0013640933 7.1854942e-39 302 239
-0.02307036 0.77399999 0.0013570799 6.1713437e-39 303 239
-0.021629119 0.77100003 0.00135182 5.6188944e-39 304 239
-0.020277301 0.77100003 0.00135182 5.1579176e-39 305 239
-0.018876385 0.76899999 0.0013483133 4.8824055e-39 306 239
-0.017528072 0.76899999 0.0013483133 4.5132643e-39 307 239
-0.016179759 0.76899999 0.0013483133 4.8788056e-39 308 239
-0.014792874 0.76700002 0.0013448066 4.7866099e-39 309 239
-0.013448066 0.76700002 0.0013448066 5.1535974e-39 310 239
-0.012087479 0.76599997 0.0013430532 5.2457944e-39 311 239
-0.010744425 0.76599997 0.0013430532 5.5209394e-39 312 239
-0.0094013726 0.76599997 0.0013430532 5.5209394e-39 313 239
-0.0080372803 0.764 0.0013395466 5.8879226e-39 314 239
-0.006697733 0.764 0.0013395466 5.8879226e-39 315 239
-0.0053441599 0.76200002 0.00133604 5.9793994e-39 316 239
-0.0040081199 0.76200002 0.00133604 6.1637907e-39 317 239
-0.00267208 0.76200002 0.00133604 6.4393014e-39 318 239
-0.0013342865 0.76099998 0.0013342865 6.7155281e-39 319 239
0 0.76099998 0.0013342865 7.6328041e-39 320 239
0.0013342865 0.76099998 0.0013342865 7.9093896e-39 321 239
0.0026685731 0.76099998 0.0013342865 8.827383e-39 322 239
0.0040028598 0.76099998 0.0013342865 9.2880024e-39 323 239
0.0053371461 0.76099998 0.0013342865 9.4727524e-39 324 239
0.0066714329 0.76099998 0.0013342865 9.4727524e-39 325 239
0.0080057196 0.76099998 0.0013342865 9.56602e-39 326 239
0.0093400059 0.76099998 0.0013342865 9.4738244e-39 327 239
0.010674292 0.76099998 0.0013342865 9.6578499e-39 328 239
0.01202436 0.76200002 0.00133604 9.7500469e-39 329 239
0.0133604 0.76200002 0.00133604 9.9340781e-39 330 239
0.01469644 0.76200002 0.00133604 9.7500469e-39 331 239
0.01603248 0.76200002 0.00133604 9.6585702e-39 332 239
0.01736852 0.76200002 0.00133604 9.2897877e-39 333 239
0.01870456 0.76200002 0.00133604 8.7391376e-39 334 239
0.020145798 0.76599997 0.0013430532 8.4621906e-39 335 239
0.021488851 0.76599997 0.0013430532 8.4611214e-39 336 239
0.022861714 0.76700002 0.0013448066 8.4611214e-39 337 239
0.024206521 0.76700002 0.0013448066 8.0944969e-39 338 239
0.025617953 0.76899999 0.0013483133 8.1870512e-39 339 239
0.026966266 0.76899999 0.0013483133 7.9137028e-39 340 239
0.028388219 0.77100003 0.00135182 7.3608877e-39 341 239
0.029740039 0.77100003 0.00135182 7.6443255e-39 342 239
0.031091858 0.77100003 0.00135182 1.2254107e-38 343 239
0.032443684 0.77100003 0.00135182 1.548996e-38 344 239
-0.028756421 0.78100002 -0 1.4475813e-38 299 240
-0.027351998 0.77999997 -0 1.1889271e-38 300 240
-0.025984399 0.77999997 -0 7.8326629e-39 301 240
-0.024553679 0.778 -0 7.2773213e-39 302 240
-0.02307036 0.77399999 -0 6.0787781e-39 303 240
-0.021685226 0.773 -0 5.067873e-39 304 240
-0.020277301 0.77100003 -0 4.883123e-39 305 240
-0.018925481 0.77100003 -0 4.6980114e-39 306 240
-0.01757366 0.77100003 -0 4.5136202e-39 307 240
-0.016179759 0.76899999 -0 4.7876931e-39 308 240
-0.014831445 0.76899999 -0 4.6954961e-39 309 240
-0.013448066 0.76700002 -0 4.9702851e-39 310 240
-0.01210326 0.76700002 -0 5.1543177e-39 311 240
-0.010744425 0.76599997 -0 5.1543177e-39 312 240
-0.0094013726 0.76599997 -0 4.9702851e-39 313 240
-0.0080372803 0.764 -0 5.4283892e-39 314 240
-0.006697733 0.764 -0 5.243998e-39 315 240
-0.0053441599 0.76200002 -0 5.2436476e-39 316 240
-0.0040081199 0.76200002 -0 5.4280389e-39 317 240
-0.00267208 0.76200002 -0 5.8872192e-39 318 240
-0.0013342865 0.76099998 -0 6.0716104e-39 319 240
0 0.76099998 -0 6.7144589e-39 320 240
0.0013342865 0.76099998 -0 6.8066545e-39 321 240
0.0026685731 0.76099998 -0 7.6331726e-39 322 240
0.0040028598 0.76099998 -0 7.9101182e-39 323 240
0.0053441599 0.76200002 -0 8.3703719e-39 324 240
0.0066714329 0.76099998 -0 8.6469574e-39 325 240
0.0080057196 0.76099998 -0 8.6473049e-39 326 240
0.0093400059 0.76099998 -0 8.8316962e-39 327 240
0.010674292 0.76099998 -0 9.1079159e-39 328 240
0.01202436 0.76200002 -0 9.200113e-39 329 240
0.0133604 0.76200002 -0 9.474902e-39 330 240
0.01469644 0.76200002 -0 9.382705e-39 331 240
0.01603248 0.76200002 -0 9.1979578e-39 332 240
0.01736852 0.76200002 -0 9.1979578e-39 333 240
0.01870456 0.76200002 -0 8.5543932e-39 334 240
0.020093199 0.764 -0 8.3696418e-39 335 240
0.021432746 0.764 -0 8.2770959e-39 336 240
0.022861714 0.76700002 -0 8.2770959e-39 337 240
0.024206521 0.76700002 -0 8.0934277e-39 338 240
0.025551327 0.76700002 -0 8.3703747e-39 339 240
0.026966266 0.76899999 -0 7.7300402e-39 340 240
0.028388219 0.77100003 -0 7.8222358e-39 341 240
0.029740039 0.77100003 -0 7.0940258e-39 342 240
0.031091858 0.77100003 -0 1.1427219e-38 343 240
0.032443684 0.77100003 -0 1.5304845e-38 344 240
-0.027351998 0.77999997 -0.0013675999 1.2719031e-38 300 241
-0.025984399 0.77999997 -0.0013675999 8.6624235e-39 301 241
-0.024553679 0.778 -0.0013640933 7.4631545e-39 302 241
-0.02307036 0.77399999 -0.0013570799 5.9883845e-39 303 241
-0.021685226 0.773 -0.0013553266 4.8856425e-39 304 241
-0.020277301 0.77100003 -0.00135182 4.4250245e-39 305 241
-0.018925481 0.77100003 -0.00135182 4.514702e-39 306 241
-0.01757366 0.77100003 -0.00135182 4.329952e-39 307 241
-0.016179759 0.76899999 -0.0013483133 4.6954961e-39 308 241
-0.014831445 0.76899999 -0.0013483133 4.6033005e-39 309 241
-0.013448066 0.76700002 -0.0013448066 4.8788056e-39 310 241
-0.01210326 0.76700002 -0.0013448066 4.8788056e-39 311 241
-0.010744425 0.76599997 -0.0013430532 5.1532345e-39 312 241
-0.0094013726 0.76599997 -0.0013430532 5.0610388e-39 313 241
-0.0080372803 0.764 -0.0013395466 5.5184241e-39 314 241
-0.006697733 0.764 -0.0013395466 5.4262284e-39 315 241
-0.0053441599 0.76200002 -0.00133604 5.4258753e-39 316 241
-0.0040081199 0.76200002 -0.00133604 5.5180709e-39 317 241
-0.00267208 0.76200002 -0.00133604 5.9768911e-39 318 241
-0.00133604 0.76200002 -0.00133604 6.1616411e-39 319 241
0 0.76200002 -0.00133604 6.4375063e-39 320 241
0.00133604 0.76200002 -0.00133604 6.5297019e-39 321 241
0.00267208 0.76200002 -0.00133604 7.6317237e-39 322 241
0.0040081199 0.76200002 -0.00133604 7.9086707e-39 323 241
0.0053441599 0.76200002 -0.00133604 8.2774462e-39 324 241
0.0066714329 0.76099998 -0.0013342865 8.4618375e-39 325 241
0.0080057196 0.76099998 -0.0013342865 8.6473021e-39 326 241
0.0093400059 0.76099998 -0.0013342865 8.7398565e-39 327 241
0.01068832 0.76200002 -0.00133604 9.1079159e-39 328 241
0.01202436 0.76200002 -0.00133604 9.0153616e-39 329 241
0.0133604 0.76200002 -0.00133604 9.3827022e-39 330 241
0.01469644 0.76200002 -0.00133604 9.3827022e-39 331 241
0.01603248 0.76200002 -0.00133604 9.1071943e-39 332 241
0.01736852 0.76200002 -0.00133604 8.8302486e-39 333 241
0.01870456 0.76200002 -0.00133604 8.4621906e-39 334 241
0.020093199 0.764 -0.0013395466 8.2777993e-39 335 241
0.021432746 0.764 -0.0013395466 8.2774462e-39 336 241
0.022861714 0.76700002 -0.0013448066 8.2774462e-39 337 241
0.024206521 0.76700002 -0.0013448066 8.1870512e-39 338 241
0.025551327 0.76700002 -0.0013448066 8.3714439e-39 339 241
0.026966266 0.76899999 -0.0013483133 7.8229421e-39 340 241
0.028388219 0.77100003 -0.00135182 7.5459964e-39 341 241
0.029740039 0.77100003 -0.00135182 7.276971e-39 342 241
0.031091858 0.77100003 -0.00135182 1.1886752e-38 343 241
0.032443684 0.77100003 -0.00135182 1.5304847e-38 344 241
-0.026017714 0.78100002 -0.0027387065 8.4780351e-39 301 242
-0.024616797 0.77999997 -0.0027351999 7.4638803e-39 302 242
-0.02307036 0.77399999 -0.0027141599 6.1731415e-39 303 242
-0.021685226 0.773 -0.0027106532 4.9781941e-39 304 242
-0.020277301 0.77100003 -0.0027036399 4.5172173e-39 305 242
-0.018925481 0.77100003 -0.0027036399 4.5146964e-39 306 242
-0.01757366 0.77100003 -0.0027036399 4.4225008e-39 307 242
-0.016179759 0.76899999 -0.0026966266 4.6962136e-39 308 242
-0.014831445 0.76899999 -0.0026966266 4.6040166e-39 309 242
-0.013448066 0.76700002 -0.0026896133 4.7866127e-39 310 242
-0.01210326 0.76700002 -0.0026896133 4.7866127e-39 311 242
-0.010744425 0.76599997 -0.0026861064 4.7858939e-39 312 242
-0.0094013726 0.76599997 -0.0026861064 4.6936983e-39 313 242
-0.0080372803 0.764 -0.0026790933 5.3343957e-39 314 242
-0.006697733 0.764 -0.0026790933 5.2422001e-39 315 242
-0.0053441599 0.76200002 -0.00267208 5.241847e-39 316 242
-0.0040081199 0.76200002 -0.00267208 5.3340426e-39 317 242
-0.0026790933 0.764 -0.0026790933 5.5177178e-39 318 242
-0.0013395466 0.764 -0.0026790933 5.7017489e-39 319 242
0 0.76200002 -0.00267208 6.0690895e-39 320 242
0.00133604 0.76200002 -0.00267208 6.2538409e-39 321 242
0.00267208 0.76200002 -0.00267208 6.6218947e-39 322 242
0.0040081199 0.76200002 -0.00267208 6.9906759e-39 323 242
0.0053441599 0.76200002 -0.00267208 7.5427622e-39 324 242
0.0066714329 0.76099998 -0.0026685731 7.9111846e-39 325 242
0.0080057196 0.76099998 -0.0026685731 8.1884848e-39 326 242
0.0093522798 0.76200002 -0.00267208 8.3725159e-39 327 242
0.01068832 0.76200002 -0.00267208 8.5561855e-39 328 242
0.01202436 0.76200002 -0.00267208 8.5561855e-39 329 242
0.0133604 0.76200002 -0.00267208 9.0153616e-39 330 242
0.01469644 0.76200002 -0.00267208 9.0153616e-39 331 242
0.01603248 0.76200002 -0.00267208 8.9235219e-39 332 242
0.01736852 0.76200002 -0.00267208 8.739132e-39 333 242
0.01870456 0.76200002 -0.00267208 8.5540233e-39 334 242
0.020093199 0.764 -0.0026790933 8.4618277e-39 335 242
0.021488851 0.76599997 -0.0026861064 8.3699978e-39 336 242
0.022861714 0.76700002 -0.0026896133 8.3699978e-39 337 242
0.024206521 0.76700002 -0.0026896133 8.095936e-39 338 242
0.025617953 0.76899999 -0.0026966266 8.3721628e-39 339 242
0.026966266 0.76899999 -0.0026966266 8.0069732e-39 340 242
0.028388219 0.77100003 -0.0027036399 7.1775726e-39 341 242
0.029740039 0.77100003 -0.0027036399 8.1049338e-39 342 242
0.031091858 0.77100003 -0.0027036399 1.3083498e-38 343 242
0.032443684 0.77100003 -0.0027036399 1.5580358e-38 344 242
-0.024616797 0.77999997 -0.0041027996 7.3727595e-39 302 243
-0.02307036 0.77399999 -0.0040712398 6.4508046e-39 303 243
-0.021685226 0.773 -0.0040659797 5.2551383e-39 304 243
-0.020277301 0.77100003 -0.0040554604 4.6097689e-39 305 243
-0.018925481 0.77100003 -0.0040554604 4.7912791e-39 306 243
-0.01757366 0.77100003 -0.0040554604 4.5150523e-39 307 243
-0.016179759 0.76899999 -0.0040449398 4.9717215e-39 308 243
-0.014831445 0.76899999 -0.0040449398 4.7876903e-39 309 243
-0.013448066 0.76700002 -0.00403442 4.7866127e-39 310 243
-0.01210326 0.76700002 -0.00403442 4.6025816e-39 311 243
-0.010744425 0.76599997 -0.0040291594 4.6929766e-39 312 243
-0.0094013726 0.76599997 -0.0040291594 4.6929766e-39 313 243
-0.0080372803 0.764 -0.0040186401 5.0588822e-39 314 243
-0.006697733 0.764 -0.0040186401 4.9666852e-39 315 243
-0.0053441599 0.76200002 -0.0040081199 5.2421973e-39 316 243
-0.0040081199 0.76200002 -0.0040081199 5.2421973e-39 317 243
-0.0026790933 0.764 -0.0040186401 5.4258725e-39 318 243
-0.0013395466 0.764 -0.0040186401 5.5180681e-39 319 243
0 0.76200002 -0.0040081199 6.1598404e-39 320 243
0.00133604 0.76200002 -0.0040081199 6.3442317e-39 321 243
0.00267208 0.76200002 -0.0040081199 6.6211717e-39 322 243
0.0040081199 0.76200002 -0.0040081199 6.8977586e-39 323 243
0.0053441599 0.76200002 -0.0040081199 7.3580108e-39 324 243
0.0066801999 0.76200002 -0.0040081199 7.7267934e-39 325 243
0.0080162399 0.76200002 -0.0040081199 8.0037362e-39 326 243
0.0093522798 0.76200002 -0.0040081199 8.1881288e-39 327 243
0.01068832 0.76200002 -0.0040081199 8.4639899e-39 328 243
0.01202436 0.76200002 -0.0040081199 8.4639899e-39 329 243
0.0133604 0.76200002 -0.0040081199 9.0157175e-39 330 243
0.01469644 0.76200002 -0.0040081199 8.9235219e-39 331 243
0.01603248 0.76200002 -0.0040081199 8.739132e-39 332 243
0.01736852 0.76200002 -0.0040081199 8.6469364e-39 333 243
0.018753653 0.764 -0.0040186401 8.8295354e-39 334 243
0.020093199 0.764 -0.0040186401 8.644784e-39 335 243
0.021488851 0.76599997 -0.0040291594 8.4611186e-39 336 243
0.022861714 0.76700002 -0.00403442 8.553673e-39 337 243
0.024206521 0.76700002 -0.00403442 8.2792483e-39 338 243
0.025617953 0.76899999 -0.0040449398 8.5558352e-39 339 243
0.027036399 0.77100003 -0.0040554604 7.9155006e-39 340 243
0.028461859 0.773 -0.0040659797 6.8095132e-39 341 243
0.029817186 0.773 -0.0040659797 8.6584733e-39 342 243
0.03117251 0.773 -0.0040659797 1.3729593e-38 343 243
0.032527838 0.773 -0.0040659797 1.5671838e-38 344 243
-0.024616797 0.77999997 -0.0054703997 7.0972488e-39 302 244
-0.02307036 0.77399999 -0.0054283198 6.2671294e-39 303 244
-0.021713279 0.77399999 -0.0054283198 5.6228418e-39 304 244
-0.0203299 0.773 -0.0054213065 4.8852768e-39 305 244
-0.018974574 0.773 -0.0054213065 4.8827586e-39 306 244
-0.017619247 0.773 -0.0054213065 4.6983674e-39 307 244
-0.016179759 0.76899999 -0.0053932532 5.0639199e-39 308 244
-0.014831445 0.76899999 -0.0053932532 4.6954961e-39 309 244
-0.013448066 0.76700002 -0.0053792265 4.7862568e-39 310 244
-0.01210326 0.76700002 -0.0053792265 4.5100301e-39 311 244
-0.010744425 0.76599997 -0.0053722127 4.6004278e-39 312 244
-0.0094013726 0.76599997 -0.0053722127 4.6004278e-39 313 244
-0.0080372803 0.764 -0.0053581866 4.966688e-39 314 244
-0.006697733 0.764 -0.0053581866 4.966688e-39 315 244
-0.0053581866 0.764 -0.0053581866 4.966688e-39 316 244
-0.0040186401 0.764 -0.0053581866 5.1510807e-39 317 244
-0.0026790933 0.764 -0.0053581866 5.3343929e-39 318 244
-0.0013395466 0.764 -0.0053581866 5.4269473e-39 319 244
0 0.764 -0.0053581866 5.8850486e-39 320 244
0.0013395466 0.764 -0.0053581866 5.9772442e-39 321 244
0.0026790933 0.764 -0.0053581866 6.6204514e-39 322 244
0.0040186401 0.764 -0.0053581866 7.0810708e-39 323 244
0.0053441599 0.76200002 -0.0053441599 7.358015e-39 324 244
0.0066801999 0.76200002 -0.0053441599 7.7267962e-39 325 244
0.0080162399 0.76200002 -0.0053441599 8.0037362e-39 326 244
0.0093522798 0.76200002 -0.0053441599 8.0959332e-39 327 244
0.01068832 0.76200002 -0.0053441599 8.188482e-39 328 244
0.01202436 0.76200002 -0.0053441599 8.188482e-39 329 244
0.0133604 0.76200002 -0.0053441599 8.6476581e-39 330 244
0.01469644 0.76200002 -0.0053441599 8.5554624e-39 331 244
0.01603248 0.76200002 -0.0053441599 8.7380558e-39 332 244
0.01736852 0.76200002 -0.0053441599 8.7380558e-39 333 244
0.018753653 0.764 -0.0053581866 8.7373383e-39 334 244
0.020093199 0.764 -0.0053581866 8.7373383e-39 335 244
0.021488851 0.76599997 -0.0053722127 8.2785252e-39 336 244
0.022861714 0.76700002 -0.0053792265 8.2785252e-39 337 244
0.024269639 0.76899999 -0.0053932532 8.1881316e-39 338 244
0.025617953 0.76899999 -0.0053932532 8.4643584e-39 339 244
0.027036399 0.77100003 -0.0054072798 7.9155006e-39 340 244
0.028461859 0.773 -0.0054213065 6.6251205e-39 341 244
0.029817186 0.773 -0.0054213065 8.8432205e-39 342 244
0.03117251 0.773 -0.0054213065 1.4743741e-38 343 244
0.032527838 0.773 -0.0054213065 1.6039894e-38 344 244
-0.02307036 0.77399999 -0.0067853997 6.7266684e-39 303 245
-0.021685226 0.773 -0.0067766332 6.5404751e-39 304 245
-0.0203299 0.773 -0.0067766332 5.8951057e-39 305 245
-0.018974574 0.773 -0.0067766332 5.2497363e-39 306 245
-0.017619247 0.773 -0.0067766332 4.9735095e-39 307 245
-0.016221842 0.77100003 -0.0067590997 5.063201e-39 308 245
-0.014831445 0.76899999 -0.0067415666 4.8788084e-39 309 245
-0.013448066 0.76700002 -0.006724033 4.7848219e-39 310 245
-0.01210326 0.76700002 -0.006724033 4.6926263e-39 311 245
-0.010758453 0.76700002 -0.006724033 4.7837401e-39 312 245
-0.0094136465 0.76700002 -0.006724033 4.6915431e-39 313 245
-0.0080583189 0.76599997 -0.0067152665 4.7833757e-39 314 245
-0.0067152665 0.76599997 -0.0067152665 4.8755728e-39 315 245
-0.0053581866 0.764 -0.006697733 5.0588878e-39 316 245
-0.0040186401 0.764 -0.006697733 5.1510835e-39 317 245
-0.0026861064 0.76599997 -0.0067152665 5.4265914e-39 318 245
-0.0013430532 0.76599997 -0.0067152665 5.4265914e-39 319 245
0 0.764 -0.006697733 6.0690769e-39 320 245
0.0013395466 0.764 -0.006697733 6.0690769e-39 321 245
0.00267208 0.76200002 -0.0066801999 6.6211689e-39 322 245
0.0040081199 0.76200002 -0.0066801999 6.8055601e-39 323 245
0.0053441599 0.76200002 -0.0066801999 7.0825058e-39 324 245
0.0066801999 0.76200002 -0.0066801999 7.4509295e-39 325 245
0.0080162399 0.76200002 -0.0066801999 7.818989e-39 326 245
0.0093522798 0.76200002 -0.0066801999 8.0033803e-39 327 245
0.01068832 0.76200002 -0.0066801999 8.2788811e-39 328 245
0.01205592 0.764 -0.006697733 8.3710782e-39 329 245
0.0133604 0.76200002 -0.0066801999 8.2788811e-39 330 245
0.01469644 0.76200002 -0.0066801999 8.2788811e-39 331 245
0.016074561 0.764 -0.006697733 8.7369824e-39 332 245
0.017414106 0.764 -0.006697733 8.7369824e-39 333 245
0.018753653 0.764 -0.006697733 8.7377027e-39 334 245
0.020093199 0.764 -0.006697733 8.7377027e-39 335 245
0.021488851 0.76599997 -0.0067152665 8.5543932e-39 336 245
0.022861714 0.76700002 -0.006724033 8.5543932e-39 337 245
0.024206521 0.76700002 -0.006724033 8.0963018e-39 338 245
0.025617953 0.76899999 -0.0067415666 8.3728886e-39 339 245
0.027036399 0.77100003 -0.0067590997 7.6407116e-39 340 245
0.028388219 0.77100003 -0.0067590997 6.5343654e-39 341 245
0.029817186 0.773 -0.0067766332 1.0129994e-38 342 245
0.03117251 0.773 -0.0067766332 1.6583688e-38 343 245
-0.02307036 0.77399999 -0.0081424797 7.4628041e-39 303 246
-0.021685226 0.773 -0.0081319595 6.1724185e-39 304 246
-0.0203299 0.773 -0.0081319595 5.527049e-39 305 246
-0.018974574 0.773 -0.0081319595 4.9756773e-39 306 246
-0.017619247 0.773 -0.0081319595 4.4225036e-39 307 246
-0.016221842 0.77100003 -0.0081109209 4.9710082e-39 308 246
-0.014831445 0.76899999 -0.0080898795 4.8784524e-39 309 246
-0.013483133 0.76899999 -0.0080898795 4.785538e-39 310 246
-0.01210326 0.76700002 -0.00806884 4.6011467e-39 311 246
-0.010758453 0.76700002 -0.00806884 4.8752197e-39 312 246
-0.0094136465 0.76700002 -0.00806884 4.8752197e-39 313 246
-0.0080583189 0.76599997 -0.0080583189 4.7826667e-39 314 246
-0.0067152665 0.76599997 -0.0080583189 4.7826667e-39 315 246
-0.0053722127 0.76599997 -0.0080583189 5.241847e-39 316 246
-0.0040291594 0.76599997 -0.0080583189 5.3340426e-39 317 246
-0.0026861064 0.76599997 -0.0080583189 5.5180681e-39 318 246
-0.0013430532 0.76599997 -0.0080583189 5.7020993e-39 319 246
0 0.764 -0.0080372803 6.1601907e-39 320 246
0.0013395466 0.764 -0.0080372803 6.3449407e-39 321 246
0.00267208 0.76200002 -0.0080162399 6.4378566e-39 322 246
0.0040081199 0.76200002 -0.0080162399 6.7144435e-39 323 246
0.0053441599 0.76200002 -0.0080162399 7.3580108e-39 324 246
0.0066801999 0.76200002 -0.0080162399 7.5427622e-39 325 246
0.0080162399 0.76200002 -0.0080162399 7.9108217e-39 326 246
0.0093522798 0.76200002 -0.0080162399 8.0948528e-39 327 246
0.01068832 0.76200002 -0.0080162399 8.1870484e-39 328 246
0.01205592 0.764 -0.0080372803 8.1870484e-39 329 246
0.013395466 0.764 -0.0080372803 8.2785252e-39 330 246
0.014735013 0.764 -0.0080372803 8.1863296e-39 331 246
0.016074561 0.764 -0.0080372803 8.8281019e-39 332 246
0.017414106 0.764 -0.0080372803 8.9202975e-39 333 246
0.018753653 0.764 -0.0080372803 8.5536702e-39 334 246
0.020093199 0.764 -0.0080372803 8.8298983e-39 335 246
0.021488851 0.76599997 -0.0080583189 8.3707222e-39 336 246
0.022861714 0.76700002 -0.00806884 8.2785252e-39 337 246
0.024206521 0.76700002 -0.00806884 7.9129867e-39 338 246
0.025617953 0.76899999 -0.0080898795 8.1892134e-39 339 246
0.027036399 0.77100003 -0.0081109209 8.0077005e-39 340 246
0.028388219 0.77100003 -0.0081109209 7.1779384e-39 341 246
0.029740039 0.77100003 -0.0081109209 1.170021e-38 342 246
-0.02307036 0.77399999 -0.0094995592 7.5560788e-39 303 247
-0.021713279 0.77399999 -0.0094995592 6.9092618e-39 304 247
-0.0203299 0.773 -0.0094872871 6.0795012e-39 305 247
-0.018974574 0.773 -0.0094872871 5.3430151e-39 306 247
-0.017619247 0.773 -0.0094872871 4.9738725e-39 307 247
-0.016221842 0.77100003 -0.0094627403 4.9720774e-39 308 247
-0.014831445 0.76899999 -0.0094381925 4.6954905e-39 309 247
-0.013483133 0.76899999 -0.0094381925 4.7866099e-39 310 247
-0.01210326 0.76700002 -0.0094136465 4.5103832e-39 311 247
-0.010758453 0.76700002 -0.0094136465 4.7837429e-39 312 247
-0.0094136465 0.76700002 -0.0094136465 4.7837429e-39 313 247
-0.00806884 0.76700002 -0.0094136465 4.7837429e-39 314 247
-0.0067152665 0.76599997 -0.0094013726 4.8759385e-39 315 247
-0.0053722127 0.76599997 -0.0094013726 5.0596067e-39 316 247
-0.0040291594 0.76599997 -0.0094013726 5.1518023e-39 317 247
-0.0026896133 0.76700002 -0.0094136465 5.4269473e-39 318 247
-0.0013430532 0.76599997 -0.0094013726 5.4269473e-39 319 247
0 0.764 -0.0093768267 6.0690769e-39 320 247
0.0013395466 0.764 -0.0093768267 6.253108e-39 321 247
0.0026790933 0.764 -0.0093768267 6.2541884e-39 322 247
0.0040186401 0.764 -0.0093768267 6.6229695e-39 323 247
0.0053581866 0.764 -0.0093768267 7.358015e-39 324 247
0.0066801999 0.76200002 -0.0093522798 7.5424063e-39 325 247
0.0080162399 0.76200002 -0.0093522798 8.0015824e-39 326 247
0.0093522798 0.76200002 -0.0093522798 8.278528e-39 327 247
0.010716373 0.764 -0.0093768267 8.2796014e-39 328 247
0.01205592 0.764 -0.0093768267 8.2796014e-39 329 247
0.013395466 0.764 -0.0093768267 8.2788783e-39 330 247
0.014735013 0.764 -0.0093768267 8.2788783e-39 331 247
0.016074561 0.764 -0.0093768267 8.7369824e-39 332 247
0.017459691 0.76599997 -0.0094013726 8.7369824e-39 333 247
0.018802745 0.76599997 -0.0094013726 8.5543932e-39 334 247
0.020145798 0.76599997 -0.0094013726 8.5543932e-39 335 247
0.021516906 0.76700002 -0.0094136465 8.1866953e-39 336 247
0.022861714 0.76700002 -0.0094136465 8.2788923e-39 337 247
0.024269639 0.76899999 -0.0094381925 7.6374914e-39 338 247
0.025617953 0.76899999 -0.0094381925 8.0062725e-39 339 247
0.027036399 0.77100003 -0.0094627403 6.6323246e-39 340 247
0.028388219 0.77100003 -0.0094627403 8.6606285e-39 341 247
-0.02307036 0.77399999 -0.01085664 7.9255802e-39 303 248
-0.021713279 0.77399999 -0.01085664 7.8304951e-39 304 248
-0.0203299 0.773 -0.010842613 7.0007344e-39 305 248
-0.018974574 0.773 -0.010842613 5.1629371e-39 306 248
-0.01764204 0.77399999 -0.01085664 4.333175e-39 307 248
-0.016221842 0.77100003 -0.01081456 4.6976485e-39 308 248
-0.01487002 0.77100003 -0.01081456 4.4207015e-39 309 248
-0.013483133 0.76899999 -0.010786506 4.7858939e-39 310 248
-0.01210326 0.76700002 -0.010758453 4.6936983e-39 311 248
-0.010758453 0.76700002 -0.010758453 4.6926235e-39 312 248
-0.0094136465 0.76700002 -0.010758453 4.6004278e-39 313 248
-0.00806884 0.76700002 -0.010758453 4.8759357e-39 314 248
-0.006724033 0.76700002 -0.010758453 4.8759357e-39 315 248
-0.0053722127 0.76599997 -0.010744425 5.0596039e-39 316 248
-0.0040291594 0.76599997 -0.010744425 5.1517995e-39 317 248
-0.0026896133 0.76700002 -0.010758453 5.5184213e-39 318 248
-0.0013430532 0.76599997 -0.010744425 5.7024524e-39 319 248
0 0.764 -0.010716373 6.0690741e-39 320 248
0.0013395466 0.764 -0.010716373 6.2531052e-39 321 248
0.0026790933 0.764 -0.010716373 6.4378538e-39 322 248
0.0040186401 0.764 -0.010716373 6.6222451e-39 323 248
0.0053581866 0.764 -0.010716373 7.4494834e-39 324 248
0.0066801999 0.76200002 -0.01068832 7.6338761e-39 325 248
0.0080162399 0.76200002 -0.01068832 8.0019383e-39 326 248
0.0093768267 0.764 -0.010716373 8.1863296e-39 327 248
0.010716373 0.764 -0.010716373 8.3710782e-39 328 248
0.012087479 0.76599997 -0.010744425 8.3710782e-39 329 248
0.013430533 0.76599997 -0.010744425 8.2795958e-39 330 248
0.014735013 0.764 -0.010716373 8.1873988e-39 331 248
0.016074561 0.764 -0.010716373 8.4625465e-39 332 248
0.017459691 0.76599997 -0.010744425 8.4625465e-39 333 248
0.018802745 0.76599997 -0.010744425 8.5543876e-39 334 248
0.020145798 0.76599997 -0.010744425 8.4621906e-39 335 248
0.021516906 0.76700002 -0.010758453 8.0033803e-39 336 248
0.022861714 0.76700002 -0.010758453 8.0033803e-39 337 248
0.024269639 0.76899999 -0.010786506 7.4545267e-39 338 248
0.02568458 0.77100003 -0.01081456 7.270134e-39 339 248
0.027106533 0.773 -0.010842613 7.3666498e-39 340 248
0.028461859 0.773 -0.010842613 1.1699843e-38 341 248
-0.023129974 0.77600002 -0.01224528 8.3872814e-39 303 249
-0.021769386 0.77600002 -0.01224528 8.1085211e-39 304 249
-0.020356199 0.77399999 -0.01221372 7.4631517e-39 305 249
-0.018999118 0.77399999 -0.01221372 6.7227056e-39 306 249
-0.01764204 0.77399999 -0.01221372 6.0773362e-39 307 249
-0.016263919 0.773 -0.012197939 4.8813139e-39 308 249
-0.01487002 0.77100003 -0.01216638 4.6043669e-39 309 249
-0.013483133 0.76899999 -0.012134819 4.7858939e-39 310 249
-0.012134819 0.76899999 -0.012134819 4.6936983e-39 311 249
-0.010758453 0.76700002 -0.01210326 4.6011467e-39 312 249
-0.0094136465 0.76700002 -0.01210326 4.6011467e-39 313 249
-0.00806884 0.76700002 -0.01210326 4.8759357e-39 314 249
-0.006724033 0.76700002 -0.01210326 4.8759357e-39 315 249
-0.0053792265 0.76700002 -0.01210326 5.3343929e-39 316 249
-0.00403442 0.76700002 -0.01210326 5.4269473e-39 317 249
-0.0026896133 0.76700002 -0.01210326 5.7017335e-39 318 249
-0.0013430532 0.76599997 -0.012087479 5.7017335e-39 319 249
0 0.76599997 -0.012087479 6.0690741e-39 320 249
0.0013395466 0.764 -0.01205592 6.0690741e-39 321 249
0.0026790933 0.764 -0.01205592 6.3456596e-39 322 249
0.0040186401 0.764 -0.01205592 6.5300522e-39 323 249
0.0053581866 0.764 -0.01205592 7.2650992e-39 324 249
0.006697733 0.764 -0.01205592 7.5413273e-39 325 249
0.0080372803 0.764 -0.01205592 8.0008635e-39 326 249
0.0093768267 0.764 -0.01205592 8.277449e-39 327 249
0.010716373 0.764 -0.01205592 8.4621934e-39 328 249
0.012087479 0.76599997 -0.012087479 8.5543904e-39 329 249
0.013430533 0.76599997 -0.012087479 8.5547436e-39 330 249
0.014773586 0.76599997 -0.012087479 8.5547436e-39 331 249
0.016116638 0.76599997 -0.012087479 8.2788755e-39 332 249
0.017482487 0.76700002 -0.01210326 8.2788755e-39 333 249
0.018827293 0.76700002 -0.01210326 8.1870456e-39 334 249
0.020172099 0.76700002 -0.01210326 8.09485e-39 335 249
0.021573013 0.76899999 -0.012134819 7.5442e-39 336 249
0.022921326 0.76899999 -0.012134819 7.7285912e-39 337 249
0.02433276 0.77100003 -0.01216638 7.4556015e-39 338 249
0.025751207 0.773 -0.012197939 7.1786544e-39 339 249
0.027106533 0.773 -0.012197939 8.1946127e-39 340 249
-0.023129974 0.77600002 -0.013605867 9.5865504e-39 303 250
-0.021769386 0.77600002 -0.013605867 8.3869184e-39 304 250
-0.0204088 0.77600002 -0.013605867 7.9255802e-39 305 250
-0.018999118 0.77399999 -0.013570799 6.8167005e-39 306 250
-0.01764204 0.77399999 -0.013570799 5.9869384e-39 307 250
-0.016263919 0.773 -0.013553266 5.1571749e-39 308 250
-0.01487002 0.77100003 -0.013518199 4.7883924e-39 309 250
-0.013483133 0.76899999 -0.013483133 4.6025788e-39 310 250
-0.012134819 0.76899999 -0.013483133 4.5103832e-39 311 250
-0.010786506 0.76899999 -0.013483133 4.6936983e-39 312 250
-0.0094381925 0.76899999 -0.013483133 4.6936983e-39 313 250
-0.00806884 0.76700002 -0.013448066 4.785175e-39 314 250
-0.006724033 0.76700002 -0.013448066 4.785175e-39 315 250
-0.0053792265 0.76700002 -0.013448066 5.2436322e-39 316 250
-0.00403442 0.76700002 -0.013448066 5.2436322e-39 317 250
-0.0026896133 0.76700002 -0.013448066 5.7017335e-39 318 250
-0.0013430532 0.76599997 -0.013430533 5.7017335e-39 319 250
0 0.76599997 -0.013430533 5.7020894e-39 320 250
0.0013430532 0.76599997 -0.013430533 5.7020894e-39 321 250
0.0026790933 0.764 -0.013395466 6.0690769e-39 322 250
0.0040186401 0.764 -0.013395466 6.4375007e-39 323 250
0.0053581866 0.764 -0.013395466 6.8055629e-39 324 250
0.006697733 0.764 -0.013395466 7.0821498e-39 325 250
0.0080372803 0.764 -0.013395466 7.3580108e-39 326 250
0.0093768267 0.764 -0.013395466 7.7267934e-39 327 250
0.010716373 0.764 -0.013395466 8.1863296e-39 328 250
0.012087479 0.76599997 -0.013430533 8.2785252e-39 329 250
0.013430533 0.76599997 -0.013430533 8.2795986e-39 330 250
0.014792874 0.76700002 -0.013448066 8.1874016e-39 331 250
0.01613768 0.76700002 -0.013448066 8.0952031e-39 332 250
0.017482487 0.76700002 -0.013448066 8.0952031e-39 333 250
0.018876385 0.76899999 -0.013483133 7.8193421e-39 334 250
0.0202247 0.76899999 -0.013483133 7.8193421e-39 335 250
0.021573013 0.76899999 -0.013483133 7.3616066e-39 336 250
0.022921326 0.76899999 -0.013483133 7.6381949e-39 337 250
0.02433276 0.77100003 -0.013518199 7.273371e-39 338 250
0.02568458 0.77100003 -0.013518199 7.550318e-39 339 250
0.027106533 0.773 -0.013553266 9.1187354e-39 340 250
-0.021825492 0.778 -0.015005025 9.1223297e-39 304 251
-0.020461399 0.778 -0.015005025 8.1081764e-39 305 251
-0.019097306 0.778 -0.015005025 6.6369909e-39 306 251
-0.017687626 0.77600002 -0.014966453 5.4384477e-39 307 251
-0.016284959 0.77399999 -0.014927879 4.8838306e-39 308 251
-0.014908593 0.773 -0.014908593 4.3306583e-39 309 251
-0.013553266 0.773 -0.014908593 4.7866127e-39 310 251
-0.01216638 0.77100003 -0.01487002 4.6025816e-39 311 251
-0.010786506 0.76899999 -0.014831445 4.6029446e-39 312 251
-0.0094381925 0.76899999 -0.014831445 4.6029446e-39 313 251
-0.0080898795 0.76899999 -0.014831445 4.7858939e-39 314 251
