# .PCD v.7 - Point Cloud Data file format
FIELDS x y z rgb imX imY
SIZE 4 4 4 4 4 4
TYPE F F F F F F
COUNT 1 1 1 1 1 1
WIDTH 846
HEIGHT 1
VIEWPOINT 0 0 0 1 0 0 0
POINTS 846
DATA ascii
0.029470026 0.764 0.0026790933 1.0781747e-38 342 238
0.030890226 0.76599997 0.0026861064 9.4910085e-39 343 238
0.032359518 0.76899999 0.0026966266 9.5835839e-39 344 238
0.033795502 0.77100003 0.0027036399 1.0136758e-38 345 238
0.035238493 0.773 0.0027106532 1.0872874e-38 346 238
0.036593821 0.773 0.0027106532 1.1426048e-38 347 238
0.038096428 0.77600002 0.0027211732 1.1059437e-38 348 238
0.039457016 0.77600002 0.0027211732 1.2995544e-38 349 238
0.0408176 0.77600002 0.0027211732 1.5578498e-38 350 238
-0.026017714 0.78100002 0.0013693533 1.4843126e-38 301 239
-0.024616797 0.77999997 0.0013675999 1.3650326e-38 302 239
-0.023249198 0.77999997 0.0013675999 1.3004956e-38 303 239
-0.021769386 0.77600002 0.0013605866 1.2815834e-38 304 239
-0.020356199 0.77399999 0.0013570799 1.2262662e-38 305 239
-0.018876385 0.76899999 0.0013483133 1.2173668e-38 306 239
-0.017528072 0.76899999 0.0013483133 1.1805245e-38 307 239
-0.01613768 0.76700002 0.0013448066 1.1986393e-38 308 239
-0.014773586 0.76599997 0.0013430532 1.1709446e-38 309 239
-0.0133604 0.76200002 0.00133604 1.2076434e-38 310 239
-0.012008579 0.76099998 0.0013342865 1.2076434e-38 311 239
-0.01064624 0.759 0.00133078 1.1986037e-38 312 239
-0.0092909131 0.75700003 0.0013272733 1.2354818e-38 313 239
-0.0079425992 0.755 0.0013237667 1.2172219e-38 314 239
-0.0066188332 0.755 0.0013237667 1.2264415e-38 315 239
-0.0052880533 0.75400001 0.0013220133 1.2172219e-38 316 239
-0.00396604 0.75400001 0.0013220133 1.1711601e-38 317 239
-0.0026440267 0.75400001 0.0013220133 1.1893119e-38 318 239
-0.0013220133 0.75400001 0.0013220133 1.143214e-38 319 239
0 0.75199997 0.0013185065 1.1709083e-38 320 239
0.0013185065 0.75199997 0.0013185065 1.1893474e-38 321 239
0.00263 0.75 0.001315 1.2260452e-38 322 239
0.003945 0.75 0.001315 1.2352648e-38 323 239
0.00526 0.75 0.001315 1.1801273e-38 324 239
0.006575 0.75 0.001315 1.1616882e-38 325 239
0.00789 0.75 0.001315 1.1797326e-38 326 239
0.0092295464 0.75199997 0.0013185065 1.1797326e-38 327 239
0.010548052 0.75199997 0.0013185065 1.1706209e-38 328 239
0.011866559 0.75199997 0.0013185065 1.1706209e-38 329 239
0.013185065 0.75199997 0.0013185065 1.1521815e-38 330 239
0.014503572 0.75199997 0.0013185065 1.1337424e-38 331 239
0.01586416 0.75400001 0.0013220133 1.1244855e-38 332 239
0.017186172 0.75400001 0.0013220133 1.1429607e-38 333 239
0.018532733 0.755 0.0013237667 1.1154809e-38 334 239
0.0198565 0.755 0.0013237667 1.1339559e-38 335 239
0.021236373 0.75700003 0.0013272733 1.1522516e-38 336 239
0.02262326 0.759 0.00133078 1.1338124e-38 337 239
0.023954039 0.759 0.00133078 1.1428877e-38 338 239
0.025351444 0.76099998 0.0013342865 1.1521072e-38 339 239
0.0267208 0.76200002 0.00133604 1.1154092e-38 340 239
0.028056841 0.76200002 0.00133604 1.1061896e-38 341 239
0.029547172 0.76599997 0.0013430532 1.068883e-38 342 239
0.030930554 0.76700002 0.0013448066 9.3980912e-39 343 239
0.032359518 0.76899999 0.0013483133 9.6721796e-39 344 239
0.033795502 0.77100003 0.00135182 1.0040962e-38 345 239
0.035238493 0.773 0.0013553266 1.0322574e-38 346 239
0.036593821 0.773 0.0013553266 1.0967943e-38 347 239
0.038096428 0.77600002 0.0013605866 1.1426417e-38 348 239
0.039457016 0.77600002 0.0013605866 1.327033e-38 349 239
0.0408176 0.77600002 0.0013605866 1.5210076e-38 350 239
-0.026017714 0.78100002 -0 1.4659458e-38 301 240
-0.024648361 0.78100002 -0 1.3651773e-38 302 240
-0.023249198 0.77999997 -0 1.374397e-38 303 240
-0.021769386 0.77600002 -0 1.3277903e-38 304 240
-0.020356199 0.77399999 -0 1.2171914e-38 305 240
-0.018925481 0.77100003 -0 1.2632479e-38 306 240
-0.017528072 0.76899999 -0 1.2263696e-38 307 240
-0.01613768 0.76700002 -0 1.2354447e-38 308 240
-0.014773586 0.76599997 -0 1.2170056e-38 309 240
-0.013395466 0.764 -0 1.1893119e-38 310 240
-0.01202436 0.76200002 -0 1.1893119e-38 311 240
-0.010674292 0.76099998 -0 1.1710895e-38 312 240
-0.00931546 0.759 -0 1.1895286e-38 313 240
-0.0079636406 0.75700003 -0 1.171232e-38 314 240
-0.0066188332 0.755 -0 1.171232e-38 315 240
-0.0052950666 0.755 -0 1.1986393e-38 316 240
-0.0039712996 0.755 -0 1.1709446e-38 317 240
-0.0026440267 0.75400001 -0 1.0970809e-38 318 240
-0.0013220133 0.75400001 -0 1.0048851e-38 319 240
0 0.75400001 -0 1.1339941e-38 320 240
0.0013220133 0.75400001 -0 1.1616529e-38 321 240
0.0026440267 0.75400001 -0 1.1799491e-38 322 240
0.0039555198 0.75199997 -0 1.1892045e-38 323 240
0.0052740262 0.75199997 -0 1.161546e-38 324 240
0.0065925326 0.75199997 -0 1.1246676e-38 325 240
0.0079110395 0.75199997 -0 1.1245601e-38 326 240
0.0092295464 0.75199997 -0 1.106121e-38 327 240
0.010548052 0.75199997 -0 1.096974e-38 328 240
0.011866559 0.75199997 -0 1.1153771e-38 329 240
0.013185065 0.75199997 -0 1.1061207e-38 330 240
0.014542146 0.75400001 -0 1.1061207e-38 331 240
0.01586416 0.75400001 -0 1.1154462e-38 332 240
0.017208965 0.755 -0 1.1154462e-38 333 240
0.018532733 0.755 -0 1.1339557e-38 334 240
0.019909101 0.75700003 -0 1.1339557e-38 335 240
0.02129248 0.759 -0 1.1799086e-38 336 240
0.022682872 0.76099998 -0 1.15225e-38 337 240
0.024017159 0.76099998 -0 1.1705451e-38 338 240
0.025351444 0.76099998 -0 1.1612897e-38 339 240
0.0267208 0.76200002 -0 1.1154092e-38 340 240
0.028130481 0.764 -0 1.0692755e-38 341 240
0.029547172 0.76599997 -0 1.0871414e-38 342 240
0.030930554 0.76700002 -0 1.013349e-38 343 240
0.032359518 0.76899999 -0 9.5792679e-39 344 240
0.033795502 0.77100003 -0 9.5792679e-39 345 240
0.035238493 0.773 -0 1.0412987e-38 346 240
0.036641158 0.77399999 -0 1.1150552e-38 347 240
0.038096428 0.77600002 -0 1.1429659e-38 348 240
0.039558705 0.778 -0 1.2720396e-38 349 240
0.040922798 0.778 -0 1.5024606e-38 350 240
-0.026017714 0.78100002 -0.0013693533 1.4843847e-38 301 241
-0.024648361 0.78100002 -0.0013693533 1.3559588e-38 302 241
-0.023279008 0.78100002 -0.0013693533 1.3836535e-38 303 241
-0.021769386 0.77600002 -0.0013605866 1.3464111e-38 304 241
-0.020356199 0.77399999 -0.0013570799 1.2173731e-38 305 241
-0.018925481 0.77100003 -0.00135182 1.2723971e-38 306 241
-0.017528072 0.76899999 -0.0013483133 1.253958e-38 307 241
-0.016179759 0.76899999 -0.0013483133 1.2264415e-38 308 241
-0.014792874 0.76700002 -0.0013448066 1.1895993e-38 309 241
-0.013430533 0.76599997 -0.0013430532 1.1984238e-38 310 241
-0.01202436 0.76200002 -0.00133604 1.1892042e-38 311 241
-0.01068832 0.76200002 -0.00133604 1.1525428e-38 312 241
-0.00931546 0.759 -0.00133078 1.1525428e-38 313 241
-0.0079636406 0.75700003 -0.0013272733 1.1523986e-38 314 241
-0.0066363667 0.75700003 -0.0013272733 1.0878616e-38 315 241
-0.0052950666 0.755 -0.0013237667 1.1243802e-38 316 241
-0.0039712996 0.755 -0.0013237667 1.1335999e-38 317 241
-0.0026475333 0.755 -0.0013237667 1.0599878e-38 318 241
-0.0013237667 0.755 -0.0013237667 1.0599878e-38 319 241
0 0.755 -0.0013237667 1.1063008e-38 320 241
0.0013220133 0.75400001 -0.0013220133 1.1339234e-38 321 241
0.0026440267 0.75400001 -0.0013220133 1.1798053e-38 322 241
0.00396604 0.75400001 -0.0013220133 1.1798053e-38 323 241
0.0052880533 0.75400001 -0.0013220133 1.1614014e-38 324 241
0.0066100666 0.75400001 -0.0013220133 1.0968644e-38 325 241
0.00793208 0.75400001 -0.0013220133 1.1151956e-38 326 241
0.0092540924 0.75400001 -0.0013220133 1.0783534e-38 327 241
0.010576107 0.75400001 -0.0013220133 1.0322922e-38 328 241
0.01189812 0.75400001 -0.0013220133 1.0415117e-38 329 241
0.013220133 0.75400001 -0.0013220133 1.0873942e-38 330 241
0.014542146 0.75400001 -0.0013220133 1.1150887e-38 331 241
0.015885198 0.755 -0.0013237667 1.106084e-38 332 241
0.017208965 0.755 -0.0013237667 1.1521818e-38 333 241
0.018581826 0.75700003 -0.0013272733 1.1339206e-38 334 241
0.019909101 0.75700003 -0.0013272733 1.1615433e-38 335 241
0.021348584 0.76099998 -0.0013342865 1.1707619e-38 336 241
0.022682872 0.76099998 -0.0013342865 1.1615064e-38 337 241
0.024017159 0.76099998 -0.0013342865 1.1522872e-38 338 241
0.02538476 0.76200002 -0.00133604 1.133848e-38 339 241
0.0267208 0.76200002 -0.00133604 1.1426736e-38 340 241
0.028204117 0.76599997 -0.0013430532 1.1149789e-38 341 241
0.029585747 0.76700002 -0.0013448066 1.0504073e-38 342 241
0.031011207 0.76899999 -0.0013483133 9.9508993e-39 343 241
0.032443684 0.77100003 -0.00135182 9.3977255e-39 344 241
0.033795502 0.77100003 -0.00135182 9.2133342e-39 345 241
0.035238493 0.773 -0.0013553266 1.0505515e-38 346 241
0.036641158 0.77399999 -0.0013570799 1.1243439e-38 347 241
0.038096428 0.77600002 -0.0013605866 1.1152352e-38 348 241
0.039457016 0.77600002 -0.0013605866 1.2904067e-38 349 241
0.0408176 0.77600002 -0.0013605866 1.5025326e-38 350 241
-0.026150968 0.78500003 -0.0027527334 1.456726e-38 301 242
-0.024648361 0.78100002 -0.0027387065 1.3465957e-38 302 242
-0.023279008 0.78100002 -0.0027387065 1.4019131e-38 303 242
-0.021881599 0.77999997 -0.0027351999 1.3373366e-38 304 242
-0.020461399 0.778 -0.0027281865 1.2082627e-38 305 242
-0.019048214 0.77600002 -0.0027211732 1.2448113e-38 306 242
-0.01764204 0.77399999 -0.0027141599 1.2448113e-38 307 242
-0.016179759 0.76899999 -0.0026966266 1.2632832e-38 308 242
-0.014792874 0.76700002 -0.0026896133 1.2264049e-38 309 242
-0.013430533 0.76599997 -0.0026861064 1.1800926e-38 310 242
-0.01205592 0.764 -0.0026790933 1.1616534e-38 311 242
-0.01068832 0.76200002 -0.00267208 1.1616547e-38 312 242
-0.0093400059 0.76099998 -0.0026685731 1.1432516e-38 313 242
-0.0080057196 0.76099998 -0.0026685731 1.1614029e-38 314 242
-0.0066538998 0.759 -0.00266156 1.096866e-38 315 242
-0.0053090933 0.75700003 -0.0026545466 1.1243098e-38 316 242
-0.0039818203 0.75700003 -0.0026545466 1.1150903e-38 317 242
-0.0026545466 0.75700003 -0.0026545466 1.0875395e-38 318 242
-0.0013237667 0.755 -0.0026475333 1.1059786e-38 319 242
0 0.755 -0.0026475333 1.1245969e-38 320 242
0.0013237667 0.755 -0.0026475333 1.1338165e-38 321 242
0.0026475333 0.755 -0.0026475333 1.1614382e-38 322 242
0.00396604 0.75400001 -0.0026440267 1.1614382e-38 323 242
0.0052880533 0.75400001 -0.0026440267 1.1338506e-38 324 242
0.0066100666 0.75400001 -0.0026440267 1.1153756e-38 325 242
0.00793208 0.75400001 -0.0026440267 1.0786051e-38 326 242
0.0092663663 0.755 -0.0026475333 9.4031163e-39 327 242
0.010576107 0.75400001 -0.0026440267 1.0136381e-38 328 242
0.01189812 0.75400001 -0.0026440267 1.0228578e-38 329 242
0.013237666 0.755 -0.0026475333 1.0230022e-38 330 242
0.014561433 0.755 -0.0026475333 1.0691001e-38 331 242
0.015885198 0.755 -0.0026475333 1.0969013e-38 332 242
0.017254554 0.75700003 -0.0026545466 1.1245601e-38 333 242
0.01863092 0.759 -0.00266156 1.1522884e-38 334 242
0.0199617 0.759 -0.00266156 1.161508e-38 335 242
0.021348584 0.76099998 -0.0026685731 1.1890931e-38 336 242
0.022682872 0.76099998 -0.0026685731 1.1798735e-38 337 242
0.02404872 0.76200002 -0.00267208 1.1797663e-38 338 242
0.02538476 0.76200002 -0.00267208 1.124449e-38 339 242
0.026790932 0.764 -0.0026790933 1.1515697e-38 340 242
0.028204117 0.76599997 -0.0026861064 1.1331666e-38 341 242
0.029585747 0.76700002 -0.0026896133 1.0689171e-38 342 242
0.031011207 0.76899999 -0.0026966266 1.0504421e-38 343 242
0.032443684 0.77100003 -0.0027036399 1.0136716e-38 344 242
0.033883166 0.773 -0.0027106532 1.0228911e-38 345 242
0.035238493 0.773 -0.0027106532 1.0875023e-38 346 242
0.036641158 0.77399999 -0.0027141599 1.1243804e-38 347 242
0.038096428 0.77600002 -0.0027211732 1.0875407e-38 348 242
0.039457016 0.77600002 -0.0027211732 1.2995908e-38 349 242
0.0408176 0.77600002 -0.0027211732 1.5302272e-38 350 242
-0.026084339 0.78299999 -0.0041185799 1.4568335e-38 301 243
-0.024648361 0.78100002 -0.0041080597 1.3832937e-38 302 243
-0.023279008 0.78100002 -0.0041080597 1.4109524e-38 303 243
-0.021881599 0.77999997 -0.0041027996 1.3648521e-38 304 243
-0.020461399 0.778 -0.0040922803 1.2450338e-38 305 243
-0.018999118 0.77399999 -0.0040712398 1.2170096e-38 306 243
-0.01764204 0.77399999 -0.0040712398 1.272327e-38 307 243
-0.016179759 0.76899999 -0.0040449398 1.2541362e-38 308 243
-0.014831445 0.76899999 -0.0040449398 1.2264415e-38 309 243
-0.013448066 0.76700002 -0.00403442 1.2352297e-38 310 243
-0.012087479 0.76599997 -0.0040291594 1.1983875e-38 311 243
-0.010716373 0.764 -0.0040186401 1.1891689e-38 312 243
-0.0093522798 0.76200002 -0.0040081199 1.1983885e-38 313 243
-0.0080057196 0.76099998 -0.0040028598 1.1798772e-38 314 243
-0.0066714329 0.76099998 -0.0040028598 1.1245957e-38 315 243
-0.0053231199 0.759 -0.0039923396 1.1336355e-38 316 243
-0.0039923396 0.759 -0.0039923396 1.1059408e-38 317 243
-0.0026545466 0.75700003 -0.0039818203 1.0967941e-38 318 243
-0.0013272733 0.75700003 -0.0039818203 1.1428919e-38 319 243
0 0.75700003 -0.0039818203 1.1521468e-38 320 243
0.0013237667 0.755 -0.0039712996 1.1613663e-38 321 243
0.0026475333 0.755 -0.0039712996 1.1614014e-38 322 243
0.0039712996 0.755 -0.0039712996 1.1614014e-38 323 243
0.0052950666 0.755 -0.0039712996 1.1338856e-38 324 243
0.0066188332 0.755 -0.0039712996 1.1154106e-38 325 243
0.0079425992 0.755 -0.0039712996 1.0695275e-38 326 243
0.0092663663 0.755 -0.0039712996 9.128309e-39 327 243
0.010590133 0.755 -0.0039712996 1.0503703e-38 328 243
0.011913899 0.755 -0.0039712996 1.0779931e-38 329 243
0.013272733 0.75700003 -0.0039818203 1.0506237e-38 330 243
0.014600007 0.75700003 -0.0039818203 1.0782825e-38 331 243
0.015969358 0.759 -0.0039923396 1.0969007e-38 332 243
0.017300138 0.759 -0.0039923396 1.1245954e-38 333 243
0.018680012 0.76099998 -0.0040028598 1.1522887e-38 334 243
0.020014299 0.76099998 -0.0040028598 1.1615083e-38 335 243
0.02137664 0.76200002 -0.0040081199 1.1523237e-38 336 243
0.02271268 0.76200002 -0.0040081199 1.1339206e-38 337 243
0.02404872 0.76200002 -0.0040081199 1.1612196e-38 338 243
0.025451386 0.764 -0.0040186401 1.0966827e-38 339 243
0.026861066 0.76599997 -0.0040291594 1.0411507e-38 340 243
0.02824094 0.76700002 -0.00403442 1.1056877e-38 341 243
0.02966289 0.76899999 -0.0040449398 1.0782798e-38 342 243
0.031011207 0.76899999 -0.0040449398 1.0782798e-38 343 243
0.032527838 0.773 -0.0040659797 1.0599486e-38 344 243
0.033883166 0.773 -0.0040659797 1.0784237e-38 345 243
0.03528408 0.77399999 -0.0040712398 1.1060492e-38 346 243
0.036735836 0.77600002 -0.0040817601 1.1060492e-38 347 243
0.038096428 0.77600002 -0.0040817601 1.0782493e-38 348 243
0.039457016 0.77600002 -0.0040817601 1.3271775e-38 349 243
-0.026017714 0.78100002 -0.0054774131 1.5028594e-38 301 244
-0.024648361 0.78100002 -0.0054774131 1.4292474e-38 302 244
-0.023279008 0.78100002 -0.0054774131 1.4292474e-38 303 244
-0.021909652 0.78100002 -0.0054774131 1.4108427e-38 304 244
-0.020513998 0.77999997 -0.0054703997 1.3094634e-38 305 244
-0.018999118 0.77399999 -0.0054283198 1.2353056e-38 306 244
-0.01764204 0.77399999 -0.0054283198 1.2998425e-38 307 244
-0.016221842 0.77100003 -0.0054072798 1.2816873e-38 308 244
-0.014831445 0.76899999 -0.0053932532 1.2632481e-38 309 244
-0.013483133 0.76899999 -0.0053932532 1.2629607e-38 310 244
-0.01210326 0.76700002 -0.0053792265 1.2445216e-38 311 244
-0.010744425 0.76599997 -0.0053722127 1.2537415e-38 312 244
-0.0093768267 0.764 -0.0053581866 1.262961e-38 313 244
-0.0080162399 0.76200002 -0.0053441599 1.1984238e-38 314 244
-0.0066714329 0.76099998 -0.0053371461 1.1338869e-38 315 244
-0.0053371461 0.76099998 -0.0053371461 1.1518947e-38 316 244
-0.0039923396 0.759 -0.0053231199 1.1703339e-38 317 244
-0.00266156 0.759 -0.0053231199 1.1615462e-38 318 244
-0.00133078 0.759 -0.0053231199 1.1799494e-38 319 244
0 0.75700003 -0.0053090933 1.1615813e-38 320 244
0.0013272733 0.75700003 -0.0053090933 1.1615813e-38 321 244
0.0026545466 0.75700003 -0.0053090933 1.1707281e-38 322 244
0.0039818203 0.75700003 -0.0053090933 1.1615086e-38 323 244
0.0053090933 0.75700003 -0.0053090933 1.13385e-38 324 244
0.0066363667 0.75700003 -0.0053090933 1.1246304e-38 325 244
0.0079636406 0.75700003 -0.0053090933 1.1154462e-38 326 244
0.0092909131 0.75700003 -0.0053090933 1.0693484e-38 327 244
0.010618187 0.75700003 -0.0053090933 1.0967197e-38 328 244
0.01194546 0.75700003 -0.0053090933 1.0875e-38 329 244
0.0133078 0.759 -0.0053231199 1.0416191e-38 330 244
0.014638579 0.759 -0.0053231199 1.0600582e-38 331 244
0.015969358 0.759 -0.0053231199 1.0969363e-38 332 244
0.017345725 0.76099998 -0.0053371461 1.1245951e-38 333 244
0.018680012 0.76099998 -0.0053371461 1.13385e-38 334 244
0.0200406 0.76200002 -0.0053441599 1.13385e-38 335 244
0.02137664 0.76200002 -0.0053441599 1.1429973e-38 336 244
0.02271268 0.76200002 -0.0053441599 1.0876799e-38 337 244
0.024111839 0.764 -0.0053581866 1.0598417e-38 338 244
0.025518013 0.76599997 -0.0053722127 1.0506221e-38 339 244
0.026896132 0.76700002 -0.0053792265 1.0138515e-38 340 244
0.028314579 0.76899999 -0.0053932532 1.0783884e-38 341 244
0.029740039 0.77100003 -0.0054072798 1.0876786e-38 342 244
0.031091858 0.77100003 -0.0054072798 1.1153013e-38 343 244
0.032527838 0.773 -0.0054213065 1.115266e-38 344 244
0.033927001 0.77399999 -0.0054283198 1.115266e-38 345 244
0.03528408 0.77399999 -0.0054283198 1.07857e-38 346 244
0.036735836 0.77600002 -0.0054423464 1.0508755e-38 347 244
0.038096428 0.77600002 -0.0054423464 1.1150196e-38 348 244
0.039457016 0.77600002 -0.0054423464 1.4008621e-38 349 244
-0.024648361 0.78100002 -0.0068467669 1.4660534e-38 302 245
-0.023279008 0.78100002 -0.0068467669 1.4383587e-38 303 245
-0.021909652 0.78100002 -0.0068467669 1.4293187e-38 304 245
-0.020513998 0.77999997 -0.0068379994 1.3647817e-38 305 245
-0.019048214 0.77600002 -0.0068029333 1.2537807e-38 306 245
-0.01764204 0.77399999 -0.0067853997 1.3090979e-38 307 245
-0.016221842 0.77100003 -0.0067590997 1.3092012e-38 308 245
-0.014831445 0.76899999 -0.0067415666 1.2999816e-38 309 245
-0.013483133 0.76899999 -0.0067415666 1.2906549e-38 310 245
-0.01210326 0.76700002 -0.006724033 1.2906549e-38 311 245
-0.010758453 0.76700002 -0.006724033 1.3091286e-38 312 245
-0.0094013726 0.76599997 -0.0067152665 1.2907255e-38 313 245
-0.0080372803 0.764 -0.006697733 1.2535594e-38 314 245
-0.0066801999 0.76200002 -0.0066801999 1.1337051e-38 315 245
-0.0053441599 0.76200002 -0.0066801999 1.1151593e-38 316 245
-0.0040028598 0.76099998 -0.0066714329 1.1889158e-38 317 245
-0.0026685731 0.76099998 -0.0066714329 1.2076784e-38 318 245
-0.00133078 0.759 -0.0066538998 1.2169338e-38 319 245
0 0.759 -0.0066538998 1.207749e-38 320 245
0.0013272733 0.75700003 -0.0066363667 1.1893099e-38 321 245
0.0026545466 0.75700003 -0.0066363667 1.207569e-38 322 245
0.0039818203 0.75700003 -0.0066363667 1.1799461e-38 323 245
0.0053090933 0.75700003 -0.0066363667 1.1705478e-38 324 245
0.0066363667 0.75700003 -0.0066363667 1.1798032e-38 325 245
0.0079846792 0.759 -0.0066538998 1.1522153e-38 326 245
0.00931546 0.759 -0.0066538998 1.1522153e-38 327 245
0.01064624 0.759 -0.0066538998 1.1429224e-38 328 245
0.01197702 0.759 -0.0066538998 1.1245193e-38 329 245
0.013342866 0.76099998 -0.0066714329 1.1060817e-38 330 245
0.014677152 0.76099998 -0.0066714329 1.1245209e-38 331 245
0.016011439 0.76099998 -0.0066714329 1.1153388e-38 332 245
0.017345725 0.76099998 -0.0066714329 1.1337421e-38 333 245
0.018680012 0.76099998 -0.0066714329 1.1428903e-38 334 245
0.0200406 0.76200002 -0.0066801999 1.1428903e-38 335 245
0.02137664 0.76200002 -0.0066801999 1.1427464e-38 336 245
0.022772292 0.764 -0.006697733 1.0782095e-38 337 245
0.024111839 0.764 -0.006697733 1.0596619e-38 338 245
0.025551327 0.76700002 -0.006724033 1.1057596e-38 339 245
0.026966266 0.76899999 -0.0067415666 1.0875703e-38 340 245
0.028314579 0.76899999 -0.0067415666 1.1244487e-38 341 245
0.029817186 0.773 -0.0067766332 1.1337757e-38 342 245
0.03117251 0.773 -0.0067766332 1.1429954e-38 343 245
0.032569919 0.77399999 -0.0067853997 1.1429251e-38 344 245
0.033927001 0.77399999 -0.0067853997 1.1337054e-38 345 245
0.03528408 0.77399999 -0.0067853997 1.0876814e-38 346 245
0.036735836 0.77600002 -0.0068029333 1.0600587e-38 347 245
0.038096428 0.77600002 -0.0068029333 1.2164711e-38 348 245
-0.021909652 0.78100002 -0.0082161194 1.3926562e-38 304 246
-0.020540299 0.78100002 -0.0082161194 1.3649975e-38 305 246
-0.019048214 0.77600002 -0.0081635201 1.2814762e-38 306 246
-0.01764204 0.77399999 -0.0081424797 1.2630371e-38 307 246
-0.016263919 0.773 -0.0081319595 1.3091665e-38 308 246
-0.01487002 0.77100003 -0.0081109209 1.2999469e-38 309 246
-0.013483133 0.76899999 -0.0080898795 1.2999466e-38 310 246
-0.012134819 0.76899999 -0.0080898795 1.3091662e-38 311 246
-0.010758453 0.76700002 -0.00806884 1.2817589e-38 312 246
-0.0094136465 0.76700002 -0.00806884 1.2541362e-38 313 246
-0.0080583189 0.76599997 -0.0080583189 1.2629958e-38 314 246
-0.006697733 0.764 -0.0080372803 1.1616166e-38 315 246
-0.0053581866 0.764 -0.0080372803 1.1891677e-38 316 246
-0.0040081199 0.76200002 -0.0080162399 1.1983872e-38 317 246
-0.00267208 0.76200002 -0.0080162399 1.1894191e-38 318 246
-0.00133604 0.76200002 -0.0080162399 1.1986388e-38 319 246
0 0.76099998 -0.0080057196 1.2077856e-38 320 246
0.0013342865 0.76099998 -0.0080057196 1.1893825e-38 321 246
0.00266156 0.759 -0.0079846792 1.2168254e-38 322 246
0.0039923396 0.759 -0.0079846792 1.1984223e-38 323 246
0.0053231199 0.759 -0.0079846792 1.1983146e-38 324 246
0.0066538998 0.759 -0.0079846792 1.1983146e-38 325 246
0.0080057196 0.76099998 -0.0080057196 1.1800194e-38 326 246
0.0093400059 0.76099998 -0.0080057196 1.1523966e-38 327 246
0.010674292 0.76099998 -0.0080057196 1.1339925e-38 328 246
0.012008579 0.76099998 -0.0080057196 1.124773e-38 329 246
0.013342866 0.76099998 -0.0080057196 1.1246655e-38 330 246
0.01469644 0.76200002 -0.0080162399 1.1246655e-38 331 246
0.01603248 0.76200002 -0.0080162399 1.1154825e-38 332 246
0.01736852 0.76200002 -0.0080162399 1.0786401e-38 333 246
0.01870456 0.76200002 -0.0080162399 1.142782e-38 334 246
0.020093199 0.764 -0.0080372803 1.1520017e-38 335 246
0.021432746 0.764 -0.0080372803 1.1244502e-38 336 246
0.022831906 0.76599997 -0.0080583189 1.087608e-38 337 246
0.024206521 0.76700002 -0.00806884 1.1059026e-38 338 246
0.025617953 0.76899999 -0.0080898795 1.1427449e-38 339 246
0.027036399 0.77100003 -0.0081109209 1.1154445e-38 340 246
0.028461859 0.773 -0.0081319595 1.1154445e-38 341 246
0.029817186 0.773 -0.0081319595 1.143067e-38 342 246
0.031212838 0.77399999 -0.0081424797 1.1523225e-38 343 246
0.032569919 0.77399999 -0.0081424797 1.1246655e-38 344 246
0.033927001 0.77399999 -0.0081424797 1.1062262e-38 345 246
0.03528408 0.77399999 -0.0081424797 1.0508023e-38 346 246
0.036641158 0.77399999 -0.0081424797 1.0323272e-38 347 246
-0.018999118 0.77399999 -0.0094995592 1.2999874e-38 306 247
-0.01764204 0.77399999 -0.0094995592 1.2447059e-38 307 247
-0.016263919 0.773 -0.0094872871 1.3182784e-38 308 247
-0.014908593 0.773 -0.0094872871 1.3182784e-38 309 247
-0.013518199 0.77100003 -0.0094627403 1.3092018e-38 310 247
-0.01216638 0.77100003 -0.0094627403 1.3184213e-38 311 247
-0.010786506 0.76899999 -0.0094381925 1.3184566e-38 312 247
-0.0094136465 0.76700002 -0.0094136465 1.3092012e-38 313 247
-0.00806884 0.76700002 -0.0094136465 1.2907252e-38 314 247
-0.006724033 0.76700002 -0.0094136465 1.2538468e-38 315 247
-0.0053722127 0.76599997 -0.0094013726 1.2812536e-38 316 247
-0.0040186401 0.764 -0.0093768267 1.2812536e-38 317 247
-0.0026790933 0.764 -0.0093768267 1.2537749e-38 318 247
-0.00133604 0.76200002 -0.0093522798 1.2445554e-38 319 247
0 0.76200002 -0.0093522798 1.2811461e-38 320 247
0.0013342865 0.76099998 -0.0093400059 1.2627071e-38 321 247
0.0026685731 0.76099998 -0.0093400059 1.2443396e-38 322 247
0.0040028598 0.76099998 -0.0093400059 1.2443396e-38 323 247
0.0053371461 0.76099998 -0.0093400059 1.1984573e-38 324 247
0.0066714329 0.76099998 -0.0093400059 1.2168604e-38 325 247
0.0080057196 0.76099998 -0.0093400059 1.2261153e-38 326 247
0.0093400059 0.76099998 -0.0093400059 1.1984926e-38 327 247
0.010674292 0.76099998 -0.0093400059 1.1983124e-38 328 247
0.01202436 0.76200002 -0.0093522798 1.1798733e-38 329 247
0.0133604 0.76200002 -0.0093522798 1.179838e-38 330 247
0.01469644 0.76200002 -0.0093522798 1.1706184e-38 331 247
0.01603248 0.76200002 -0.0093522798 1.1429607e-38 332 247
0.01736852 0.76200002 -0.0093522798 1.1337051e-38 333 247
0.018753653 0.764 -0.0093768267 1.1428171e-38 334 247
0.020093199 0.764 -0.0093768267 1.1520366e-38 335 247
0.021488851 0.76599997 -0.0094013726 1.1337407e-38 336 247
0.022861714 0.76700002 -0.0094136465 1.1152657e-38 337 247
0.024269639 0.76899999 -0.0094381925 1.1245206e-38 338 247
0.02568458 0.77100003 -0.0094627403 1.133776e-38 339 247
0.027106533 0.773 -0.0094872871 1.152107e-38 340 247
0.028461859 0.773 -0.0094872871 1.1705462e-38 341 247
0.029855758 0.77399999 -0.0094995592 1.1522153e-38 342 247
0.031212838 0.77399999 -0.0094995592 1.1706184e-38 343 247
0.032654081 0.77600002 -0.009524107 1.1246658e-38 344 247
0.033927001 0.77399999 -0.0094995592 1.1154462e-38 345 247
0.03528408 0.77399999 -0.0094995592 1.0231079e-38 346 247
0.036641158 0.77399999 -0.0094995592 1.0968644e-38 347 247
-0.018999118 0.77399999 -0.01085664 1.3092776e-38 306 248
-0.01764204 0.77399999 -0.01085664 1.2816187e-38 307 248
-0.016263919 0.773 -0.010842613 1.3091662e-38 308 248
-0.014908593 0.773 -0.010842613 1.2999466e-38 309 248
-0.013553266 0.773 -0.010842613 1.3274974e-38 310 248
-0.01216638 0.77100003 -0.01081456 1.3274974e-38 311 248
-0.010786506 0.76899999 -0.010786506 1.3001267e-38 312 248
-0.0094381925 0.76899999 -0.010786506 1.3001267e-38 313 248
-0.0080898795 0.76899999 -0.010786506 1.2999822e-38 314 248
-0.006724033 0.76700002 -0.010758453 1.2722875e-38 315 248
-0.0053792265 0.76700002 -0.010758453 1.2539197e-38 316 248
-0.0040291594 0.76599997 -0.010744425 1.2446643e-38 317 248
-0.0026861064 0.76599997 -0.010744425 1.2446996e-38 318 248
-0.0013395466 0.764 -0.010716373 1.23548e-38 319 248
0 0.764 -0.010716373 1.2721062e-38 320 248
0.00133604 0.76200002 -0.01068832 1.2444834e-38 321 248
0.00267208 0.76200002 -0.01068832 1.2352282e-38 322 248
0.0040081199 0.76200002 -0.01068832 1.2352282e-38 323 248
0.0053441599 0.76200002 -0.01068832 1.2260805e-38 324 248
0.0066801999 0.76200002 -0.01068832 1.2353001e-38 325 248
0.0080162399 0.76200002 -0.01068832 1.2260802e-38 326 248
0.0093522798 0.76200002 -0.01068832 1.2168607e-38 327 248
0.01068832 0.76200002 -0.01068832 1.1983497e-38 328 248
0.01202436 0.76200002 -0.01068832 1.170691e-38 329 248
0.013395466 0.764 -0.010716373 1.1705478e-38 330 248
0.014735013 0.764 -0.010716373 1.1521447e-38 331 248
0.016074561 0.764 -0.010716373 1.1428898e-38 332 248
0.017414106 0.764 -0.010716373 1.1244505e-38 333 248
0.018802745 0.76599997 -0.010744425 1.1520369e-38 334 248
0.020145798 0.76599997 -0.010744425 1.1612566e-38 335 248
0.021516906 0.76700002 -0.010758453 1.1521447e-38 336 248
0.022921326 0.76899999 -0.010786506 1.1429251e-38 337 248
0.024395877 0.773 -0.010842613 1.1337054e-38 338 248
0.025751207 0.773 -0.010842613 1.1337054e-38 339 248
0.027141599 0.77399999 -0.01085664 1.1521802e-38 340 248
0.028498679 0.77399999 -0.01085664 1.1705834e-38 341 248
0.029855758 0.77399999 -0.01085664 1.1522884e-38 342 248
0.031293493 0.77600002 -0.010884693 1.1522884e-38 343 248
0.032654081 0.77600002 -0.010884693 1.1245954e-38 344 248
0.034014668 0.77600002 -0.010884693 1.1061563e-38 345 248
0.035375252 0.77600002 -0.010884693 1.1059789e-38 346 248
-0.01764204 0.77399999 -0.01221372 1.2817268e-38 307 249
-0.016284959 0.77399999 -0.01221372 1.3368247e-38 308 249
-0.014927879 0.77399999 -0.01221372 1.3091662e-38 309 249
-0.013570799 0.77399999 -0.01221372 1.2999822e-38 310 249
-0.012197939 0.773 -0.012197939 1.2999822e-38 311 249
-0.010842613 0.773 -0.012197939 1.3183857e-38 312 249
-0.0094627403 0.77100003 -0.01216638 1.3091662e-38 313 249
-0.0080898795 0.76899999 -0.012134819 1.2906549e-38 314 249
-0.0067415666 0.76899999 -0.012134819 1.2814352e-38 315 249
-0.0053792265 0.76700002 -0.01210326 1.2722509e-38 316 249
-0.00403442 0.76700002 -0.01210326 1.2537759e-38 317 249
-0.0026896133 0.76700002 -0.01210326 1.2538115e-38 318 249
-0.0013448066 0.76700002 -0.01210326 1.2630311e-38 319 249
0 0.76599997 -0.012087479 1.2813257e-38 320 249
0.0013395466 0.764 -0.01205592 1.2721062e-38 321 249
0.00267208 0.76200002 -0.01202436 1.2628866e-38 322 249
0.0040081199 0.76200002 -0.01202436 1.2444834e-38 323 249
0.0053441599 0.76200002 -0.01202436 1.2535597e-38 324 249
0.006697733 0.764 -0.01205592 1.2535597e-38 325 249
0.0080162399 0.76200002 -0.01202436 1.2352279e-38 326 249
0.0093522798 0.76200002 -0.01202436 1.2167888e-38 327 249
0.010716373 0.764 -0.01205592 1.2166091e-38 328 249
0.01205592 0.764 -0.01205592 1.179731e-38 329 249
0.013430533 0.76599997 -0.012087479 1.1704046e-38 330 249
0.014773586 0.76599997 -0.012087479 1.1611849e-38 331 249
0.016116638 0.76599997 -0.012087479 1.1611849e-38 332 249
0.017459691 0.76599997 -0.012087479 1.1704046e-38 333 249
0.018802745 0.76599997 -0.012087479 1.1612563e-38 334 249
0.020172099 0.76700002 -0.01210326 1.1612563e-38 335 249
0.021573013 0.76899999 -0.012134819 1.1612563e-38 336 249
0.02298094 0.77100003 -0.01216638 1.1520366e-38 337 249
0.02442744 0.77399999 -0.01221372 1.1337057e-38 338 249
0.025784519 0.77399999 -0.01221372 1.1521449e-38 339 249
0.027141599 0.77399999 -0.01221372 1.1522168e-38 340 249
0.028572321 0.77600002 -0.01224528 1.1522168e-38 341 249
0.029932907 0.77600002 -0.01224528 1.1614011e-38 342 249
0.031293493 0.77600002 -0.01224528 1.1614011e-38 343 249
0.032654081 0.77600002 -0.01224528 1.1428913e-38 344 249
0.034014668 0.77600002 -0.01224528 1.1428913e-38 345 249
0.035375252 0.77600002 -0.01224528 1.2535652e-38 346 249
-0.017687626 0.77600002 -0.013605867 1.2818002e-38 307 250
-0.01632704 0.77600002 -0.013605867 1.3000911e-38 308 250
-0.014927879 0.77399999 -0.013570799 1.281652e-38 309 250
-0.013570799 0.77399999 -0.013570799 1.3183131e-38 310 250
-0.012197939 0.773 -0.013553266 1.3183131e-38 311 250
-0.010842613 0.773 -0.013553266 1.3274974e-38 312 250
-0.0094627403 0.77100003 -0.013518199 1.3090583e-38 313 250
-0.0081109209 0.77100003 -0.013518199 1.2905471e-38 314 250
-0.0067415666 0.76899999 -0.013483133 1.2813276e-38 315 250
-0.0053932532 0.76899999 -0.013483133 1.2629244e-38 316 250
-0.00403442 0.76700002 -0.013448066 1.2260102e-38 317 250
-0.0026896133 0.76700002 -0.013448066 1.2351946e-38 318 250
-0.0013448066 0.76700002 -0.013448066 1.2812922e-38 319 250
0 0.76700002 -0.013448066 1.2905468e-38 320 250
0.0013430532 0.76599997 -0.013430533 1.2813273e-38 321 250
0.0026861064 0.76599997 -0.013430533 1.2629589e-38 322 250
0.0040186401 0.764 -0.013395466 1.2537394e-38 323 250
0.0053581866 0.764 -0.013395466 1.262851e-38 324 250
0.006697733 0.764 -0.013395466 1.2444478e-38 325 250
0.0080372803 0.764 -0.013395466 1.2535594e-38 326 250
0.0093768267 0.764 -0.013395466 1.2167172e-38 327 250
0.010744425 0.76599997 -0.013430533 1.2257568e-38 328 250
0.012087479 0.76599997 -0.013430533 1.1980623e-38 329 250
0.013430533 0.76599997 -0.013430533 1.1704046e-38 330 250
0.014773586 0.76599997 -0.013430533 1.1611849e-38 331 250
0.016116638 0.76599997 -0.013430533 1.1794806e-38 332 250
0.017459691 0.76599997 -0.013430533 1.1887361e-38 333 250
0.018827293 0.76700002 -0.013448066 1.1521447e-38 334 250
0.0202247 0.76899999 -0.013483133 1.1521447e-38 335 250
0.021685226 0.773 -0.013553266 1.1612563e-38 336 250
0.02307036 0.77399999 -0.013570799 1.1520366e-38 337 250
0.02442744 0.77399999 -0.013570799 1.1612566e-38 338 250
0.025851147 0.77600002 -0.013605867 1.1704762e-38 339 250
0.027211733 0.77600002 -0.013605867 1.13385e-38 340 250
0.028572321 0.77600002 -0.013605867 1.1522531e-38 341 250
0.03001005 0.778 -0.013640933 1.1522181e-38 342 250
0.031374145 0.778 -0.013640933 1.1522181e-38 343 250
0.032738242 0.778 -0.013640933 1.152148e-38 344 250
0.034102332 0.778 -0.013640933 1.1890623e-38 345 250
-0.016284959 0.77399999 -0.014927879 1.2817618e-38 308 251
-0.014927879 0.77399999 -0.014927879 1.2633226e-38 309 251
-0.013570799 0.77399999 -0.014927879 1.3000182e-38 310 251
-0.01221372 0.77399999 -0.014927879 1.3000182e-38 311 251
-0.010842613 0.773 -0.014908593 1.3090939e-38 312 251
-0.0094872871 0.773 -0.014908593 1.2906549e-38 313 251
-0.0081319595 0.773 -0.014908593 1.2629961e-38 314 251
-0.0067590997 0.77100003 -0.01487002 1.2629961e-38 315 251
-0.0053932532 0.76899999 -0.014831445 1.262781e-38 316 251
-0.0040449398 0.76899999 -0.014831445 1.2074636e-38 317 251
-0.0026966266 0.76899999 -0.014831445 1.2442345e-38 318 251
-0.0013483133 0.76899999 -0.014831445 1.2811488e-38 319 251
0 0.76899999 -0.014831445 1.2812554e-38 320 251
0.0013448066 0.76700002 -0.014792874 1.290475e-38 321 251
0.0026896133 0.76700002 -0.014792874 1.2629592e-38 322 251
0.0040291594 0.76599997 -0.014773586 1.2813623e-38 323 251
0.0053722127 0.76599997 -0.014773586 1.2537394e-38 324 251
0.006724033 0.76700002 -0.014792874 1.2445198e-38 325 251
0.0080583189 0.76599997 -0.014773586 1.2444834e-38 326 251
0.0094013726 0.76599997 -0.014773586 1.2167888e-38 327 251
0.010744425 0.76599997 -0.014773586 1.2165736e-38 328 251
0.01210326 0.76700002 -0.014792874 1.1889509e-38 329 251
0.013448066 0.76700002 -0.014792874 1.1704411e-38 330 251
0.014792874 0.76700002 -0.014792874 1.1612216e-38 331 251
0.01613768 0.76700002 -0.014792874 1.1612216e-38 332 251
0.017528072 0.76899999 -0.014831445 1.1612216e-38 333 251
0.018925481 0.77100003 -0.01487002 1.1704764e-38 334 251
0.0203299 0.773 -0.014908593 1.179696e-38 335 251
0.021713279 0.77399999 -0.014927879 1.1704762e-38 336 251
0.02307036 0.77399999 -0.014927879 1.1612566e-38 337 251
0.024490559 0.77600002 -0.014966453 1.1521449e-38 338 251
0.025851147 0.77600002 -0.014966453 1.1521449e-38 339 251
0.027211733 0.77600002 -0.014966453 1.1522171e-38 340 251
0.028645959 0.778 -0.015005025 1.1522171e-38 341 251
0.03001005 0.778 -0.015005025 1.1338153e-38 342 251
0.031374145 0.778 -0.015005025 1.1338153e-38 343 251
0.032864477 0.78100002 -0.015062887 1.1614406e-38 344 251
-0.014966453 0.77600002 -0.01632704 1.2541773e-38 309 252
-0.013605867 0.77600002 -0.01632704 1.3092383e-38 310 252
-0.01221372 0.77399999 -0.016284959 1.2907992e-38 311 252
-0.01085664 0.77399999 -0.016284959 1.3183485e-38 312 252
-0.0094995592 0.77399999 -0.016284959 1.2907258e-38 313 252
-0.0081319595 0.773 -0.016263919 1.2906175e-38 314 252
-0.0067766332 0.773 -0.016263919 1.2629589e-38 315 252
-0.0054072798 0.77100003 -0.016221842 1.2627793e-38 316 252
-0.0040554604 0.77100003 -0.016221842 1.2166816e-38 317 252
-0.0027036399 0.77100003 -0.016221842 1.2442698e-38 318 252
-0.00135182 0.77100003 -0.016221842 1.2719286e-38 319 252
0 0.76899999 -0.016179759 1.253669e-38 320 252
0.0013483133 0.76899999 -0.016179759 1.2813276e-38 321 252
0.0026966266 0.76899999 -0.016179759 1.29051e-38 322 252
0.0040449398 0.76899999 -0.016179759 1.29051e-38 323 252
0.0053932532 0.76899999 -0.016179759 1.281361e-38 324 252
0.006724033 0.76700002 -0.01613768 1.2721415e-38 325 252
0.00806884 0.76700002 -0.01613768 1.2720693e-38 326 252
0.0094136465 0.76700002 -0.01613768 1.2444105e-38 327 252
0.010758453 0.76700002 -0.01613768 1.2533078e-38 328 252
0.01210326 0.76700002 -0.01613768 1.2348685e-38 329 252
0.013448066 0.76700002 -0.01613768 1.2071752e-38 330 252
0.014792874 0.76700002 -0.01613768 1.1979556e-38 331 252
0.016179759 0.76899999 -0.016179759 1.1611141e-38 332 252
0.017528072 0.76899999 -0.016179759 1.1703695e-38 333 252
0.018925481 0.77100003 -0.016221842 1.1612216e-38 334 252
0.0203299 0.773 -0.016263919 1.152002e-38 335 252
0.021713279 0.77399999 -0.016284959 1.1429254e-38 336 252
0.023129974 0.77600002 -0.01632704 1.1521449e-38 337 252
0.024490559 0.77600002 -0.01632704 1.1521447e-38 338 252
0.025917772 0.778 -0.016369121 1.1705478e-38 339 252
0.027281865 0.778 -0.016369121 1.1429619e-38 340 252
0.028645959 0.778 -0.016369121 1.1521815e-38 341 252
0.03001005 0.778 -0.016369121 1.1522184e-38 342 252
0.031495128 0.78100002 -0.016432239 1.1614379e-38 343 252
0.032864477 0.78100002 -0.016432239 1.207575e-38 344 252
-0.01221372 0.77399999 -0.01764204 1.2816912e-38 311 253
-0.01085664 0.77399999 -0.01764204 1.2999837e-38 312 253
-0.0094995592 0.77399999 -0.01764204 1.2907283e-38 313 253
-0.0081424797 0.77399999 -0.01764204 1.2814719e-38 314 253
-0.0067766332 0.773 -0.017619247 1.2538491e-38 315 253
-0.0054072798 0.77100003 -0.01757366 1.2444494e-38 316 253
-0.0040554604 0.77100003 -0.01757366 1.2352297e-38 317 253
-0.0027106532 0.773 -0.017619247 1.2628516e-38 318 253
-0.0013553266 0.773 -0.017619247 1.2905103e-38 319 253
0 0.77100003 -0.01757366 1.2447352e-38 320 253
0.00135182 0.77100003 -0.01757366 1.2354797e-38 321 253
0.0026966266 0.76899999 -0.017528072 1.2813973e-38 322 253
0.0040449398 0.76899999 -0.017528072 1.2813973e-38 323 253
0.0053932532 0.76899999 -0.017528072 1.2814329e-38 324 253
0.0067415666 0.76899999 -0.017528072 1.2906525e-38 325 253
0.0080898795 0.76899999 -0.017528072 1.2720709e-38 326 253
0.0094381925 0.76899999 -0.017528072 1.244448e-38 327 253
0.010786506 0.76899999 -0.017528072 1.2349778e-38 328 253
0.012134819 0.76899999 -0.017528072 1.2165385e-38 329 253
0.013518199 0.77100003 -0.01757366 1.1797326e-38 330 253
0.01487002 0.77100003 -0.01757366 1.1521099e-38 331 253
0.016221842 0.77100003 -0.01757366 1.1520743e-38 332 253
0.01757366 0.77100003 -0.01757366 1.1244155e-38 333 253
0.018999118 0.77399999 -0.01764204 1.1702609e-38 334 253
0.020356199 0.77399999 -0.01764204 1.1794806e-38 335 253
0.021769386 0.77600002 -0.017687626 1.1612563e-38 336 253
0.023129974 0.77600002 -0.017687626 1.1797313e-38 337 253
0.024553679 0.778 -0.017733213 1.1614361e-38 338 253
0.025917772 0.778 -0.017733213 1.1522165e-38 339 253
0.027281865 0.778 -0.017733213 1.1614014e-38 340 253
0.028719598 0.77999997 -0.017778799 1.1706209e-38 341 253
0.030087199 0.77999997 -0.017778799 1.1706229e-38 342 253
0.031575777 0.78299999 -0.017847179 1.2166847e-38 343 253
-0.010912746 0.778 -0.019097306 1.2632501e-38 312 254
-0.0095486529 0.778 -0.019097306 1.2540305e-38 313 254
-0.0081635201 0.77600002 -0.019048214 1.2906552e-38 314 254
-0.0068029333 0.77600002 -0.019048214 1.2814355e-38 315 254
-0.0054283198 0.77399999 -0.018999118 1.29051e-38 316 254
-0.0040659797 0.773 -0.018974574 1.2720709e-38 317 254
-0.0027106532 0.773 -0.018974574 1.2629945e-38 318 254
-0.0013553266 0.773 -0.018974574 1.2998367e-38 319 254
0 0.773 -0.018974574 1.2722857e-38 320 254
0.0013553266 0.773 -0.018974574 1.2630661e-38 321 254
0.0027106532 0.773 -0.018974574 1.2814329e-38 322 254
0.0040659797 0.773 -0.018974574 1.2814329e-38 323 254
0.0054213065 0.773 -0.018974574 1.2813973e-38 324 254
0.0067766332 0.773 -0.018974574 1.2629942e-38 325 254
0.0081319595 0.773 -0.018974574 1.2996207e-38 326 254
0.0094627403 0.77100003 -0.018925481 1.2811455e-38 327 254
0.01081456 0.77100003 -0.018925481 1.2718541e-38 328 254
0.01216638 0.77100003 -0.018925481 1.253415e-38 329 254
0.013518199 0.77100003 -0.018925481 1.2257919e-38 330 254
0.014908593 0.773 -0.018974574 1.2257919e-38 331 254
0.016263919 0.773 -0.018974574 1.2163569e-38 332 254
0.01764204 0.77399999 -0.018999118 1.1887341e-38 333 254
0.019048214 0.77600002 -0.019048214 1.1610764e-38 334 254
0.0204088 0.77600002 -0.019048214 1.1610764e-38 335 254
0.021769386 0.77600002 -0.019048214 1.1430326e-38 336 254
0.023189586 0.778 -0.019097306 1.1614717e-38 337 254
0.024553679 0.778 -0.019097306 1.1798032e-38 338 254
0.025984399 0.77999997 -0.0191464 1.1798032e-38 339 254
0.027351998 0.77999997 -0.0191464 1.1798053e-38 340 254
0.028756421 0.78100002 -0.019170946 1.1982443e-38 341 254
0.03020292 0.78299999 -0.019220039 1.1708042e-38 342 254
-0.0095854728 0.78100002 -0.020540299 1.2448858e-38 313 255
-0.0082055992 0.77999997 -0.020513998 1.2907289e-38 314 255
-0.0068204664 0.778 -0.020461399 1.2722899e-38 315 255
-0.0054423464 0.77600002 -0.0204088 1.2722875e-38 316 255
-0.0040712398 0.77399999 -0.020356199 1.2446648e-38 317 255
-0.0027141599 0.77399999 -0.020356199 1.2630314e-38 318 255
-0.0013570799 0.77399999 -0.020356199 1.2814705e-38 319 255
0 0.77399999 -0.020356199 1.2722862e-38 320 255
0.0013570799 0.77399999 -0.020356199 1.2538112e-38 321 255
0.0027141599 0.77399999 -0.020356199 1.2537749e-38 322 255
0.0040712398 0.77399999 -0.020356199 1.2537749e-38 323 255
0.0054283198 0.77399999 -0.020356199 1.2720706e-38 324 255
0.0067853997 0.77399999 -0.020356199 1.2720706e-38 325 255
0.0081424797 0.77399999 -0.020356199 1.2812185e-38 326 255
0.0094872871 0.773 -0.0203299 1.271999e-38 327 255
0.010842613 0.773 -0.0203299 1.2628146e-38 328 255
0.012197939 0.773 -0.0203299 1.253595e-38 329 255
0.013553266 0.773 -0.0203299 1.2443749e-38 330 255
0.014927879 0.77399999 -0.020356199 1.2351553e-38 331 255
0.01632704 0.77600002 -0.0204088 1.2257193e-38 332 255
0.017687626 0.77600002 -0.0204088 1.1796215e-38 333 255
0.019097306 0.778 -0.020461399 1.1335959e-38 334 255
0.020461399 0.778 -0.020461399 1.1520351e-38 335 255
0.021825492 0.778 -0.020461399 1.1706187e-38 336 255
0.023249198 0.77999997 -0.020513998 1.1982774e-38 337 255
0.024616797 0.77999997 -0.020513998 1.198279e-38 338 255
0.025984399 0.77999997 -0.020513998 1.198279e-38 339 255
0.027387068 0.78100002 -0.020540299 1.1615122e-38 340 255
0.028830061 0.78299999 -0.0205929 1.2260491e-38 341 255
-0.0095854728 0.78100002 -0.021909652 1.2448874e-38 313 256
-0.0082055992 0.77999997 -0.021881599 1.2816538e-38 314 256
-0.0068379994 0.77999997 -0.021881599 1.2539952e-38 315 256
-0.0054563731 0.778 -0.021825492 1.2814719e-38 316 256
-0.0040922803 0.778 -0.021825492 1.2538491e-38 317 256
-0.0027281865 0.778 -0.021825492 1.2722156e-38 318 256
-0.0013640933 0.778 -0.021825492 1.2722156e-38 319 256
0 0.77600002 -0.021769386 1.2629595e-38 320 256
0.0013605866 0.77600002 -0.021769386 1.2537399e-38 321 256
0.0027211732 0.77600002 -0.021769386 1.2261888e-38 322 256
0.0040712398 0.77399999 -0.021713279 1.2261888e-38 323 256
0.0054283198 0.77399999 -0.021713279 1.2537396e-38 324 256
0.0067853997 0.77399999 -0.021713279 1.2537396e-38 325 256
0.0081635201 0.77600002 -0.021769386 1.2721062e-38 326 256
0.0094995592 0.77399999 -0.021713279 1.2721062e-38 327 256
0.01085664 0.77399999 -0.021713279 1.2811455e-38 328 256
0.01221372 0.77399999 -0.021713279 1.2811455e-38 329 256
0.013570799 0.77399999 -0.021713279 1.2627777e-38 330 256
0.014966453 0.77600002 -0.021769386 1.2535582e-38 331 256
0.01632704 0.77600002 -0.021769386 1.2534497e-38 332 256
0.017733213 0.778 -0.021825492 1.2166073e-38 333 256
0.019097306 0.778 -0.021825492 1.1613623e-38 334 256
0.020461399 0.778 -0.021825492 1.1798014e-38 335 256
0.021825492 0.778 -0.021825492 1.1983497e-38 336 256
0.023279008 0.78100002 -0.021909652 1.2167888e-38 337 256
0.024648361 0.78100002 -0.021909652 1.2259749e-38 338 256
0.026017714 0.78100002 -0.021909652 1.2444141e-38 339 256
0.027387068 0.78100002 -0.021909652 1.1802055e-38 340 256
-0.0082371598 0.78299999 -0.02333862 1.2816918e-38 314 257
-0.0068467669 0.78100002 -0.023279008 1.2632168e-38 315 257
-0.0054703997 0.77999997 -0.023249198 1.2907283e-38 316 257
-0.0041027996 0.77999997 -0.023249198 1.2538861e-38 317 257
-0.0027351999 0.77999997 -0.023249198 1.2905468e-38 318 257
-0.0013675999 0.77999997 -0.023249198 1.2813273e-38 319 257
0 0.778 -0.023189586 1.2629595e-38 320 257
0.0013605866 0.77600002 -0.023129974 1.2352648e-38 321 257
0.0027211732 0.77600002 -0.023129974 1.2261888e-38 322 257
0.0040817601 0.77600002 -0.023129974 1.2261888e-38 323 257
0.0054423464 0.77600002 -0.023129974 1.262851e-38 324 257
0.0068029333 0.77600002 -0.023129974 1.2720706e-38 325 257
0.0081635201 0.77600002 -0.023129974 1.2721062e-38 326 257
0.009524107 0.77600002 -0.023129974 1.2628866e-38 327 257
0.010884693 0.77600002 -0.023129974 1.2720346e-38 328 257
0.01224528 0.77600002 -0.023129974 1.2720346e-38 329 257
0.013605867 0.77600002 -0.023129974 1.262779e-38 330 257
0.015005025 0.778 -0.023189586 1.2535594e-38 331 257
0.016411198 0.77999997 -0.023249198 1.2535226e-38 332 257
0.017778799 0.77999997 -0.023249198 1.2350834e-38 333 257
0.0191464 0.77999997 -0.023249198 1.2075324e-38 334 257
0.020513998 0.77999997 -0.023249198 1.2167519e-38 335 257
0.021909652 0.78100002 -0.023279008 1.2260449e-38 336 257
0.023279008 0.78100002 -0.023279008 1.2445201e-38 337 257
0.024648361 0.78100002 -0.023279008 1.207862e-38 338 257
0.026017714 0.78100002 -0.023279008 1.2539958e-38 339 257
-0.0068467669 0.78100002 -0.024648361 1.2724384e-38 315 258
-0.0054774131 0.78100002 -0.024648361 1.2908385e-38 316 258
-0.0041080597 0.78100002 -0.024648361 1.2539602e-38 317 258
-0.0027387065 0.78100002 -0.024648361 1.281365e-38 318 258
-0.0013693533 0.78100002 -0.024648361 1.281365e-38 319 258
0 0.77999997 -0.024616797 1.2629607e-38 320 258
0.0013605866 0.77600002 -0.024490559 1.2261185e-38 321 258
0.0027211732 0.77600002 -0.024490559 1.2169705e-38 322 258
0.0040817601 0.77600002 -0.024490559 1.2261901e-38 323 258
0.0054423464 0.77600002 -0.024490559 1.2537043e-38 324 258
0.0068029333 0.77600002 -0.024490559 1.281327e-38 325 258
0.0081845606 0.778 -0.024553679 1.2629592e-38 326 258
0.009524107 0.77600002 -0.024490559 1.2537396e-38 327 258
0.010884693 0.77600002 -0.024490559 1.2811108e-38 328 258
0.012276839 0.778 -0.024553679 1.2811108e-38 329 258
0.013675999 0.77999997 -0.024616797 1.2810752e-38 330 258
0.0150436 0.77999997 -0.024616797 1.2810752e-38 331 258
0.016411198 0.77999997 -0.024616797 1.2444125e-38 332 258
0.017778799 0.77999997 -0.024616797 1.2628516e-38 333 258
0.0191464 0.77999997 -0.024616797 1.2444141e-38 334 258
0.020513998 0.77999997 -0.024616797 1.2628891e-38 335 258
0.021965759 0.78299999 -0.024711479 1.2354495e-38 336 258
0.02333862 0.78299999 -0.024711479 1.2722917e-38 337 258
-0.0054914397 0.78299999 -0.026084339 1.2818026e-38 316 259
-0.0041080597 0.78100002 -0.026017714 1.2448883e-38 317 259
-0.0027387065 0.78100002 -0.026017714 1.2539955e-38 318 259
-0.0013693533 0.78100002 -0.026017714 1.2263368e-38 319 259
0 0.77999997 -0.025984399 1.2354447e-38 320 259
0.0013605866 0.77600002 -0.025851147 1.2262251e-38 321 259
0.0027211732 0.77600002 -0.025851147 1.2630311e-38 322 259
0.0040817601 0.77600002 -0.025851147 1.2630311e-38 323 259
0.0054423464 0.77600002 -0.025851147 1.2813623e-38 324 259
0.0068029333 0.77600002 -0.025851147 1.2813623e-38 325 259
0.0081635201 0.77600002 -0.025851147 1.2996216e-38 326 259
0.009524107 0.77600002 -0.025851147 1.2812185e-38 327 259
0.010884693 0.77600002 -0.025851147 1.2719637e-38 328 259
0.01224528 0.77600002 -0.025851147 1.262744e-38 329 259
0.013640933 0.778 -0.025917772 1.2720711e-38 330 259
0.015005025 0.778 -0.025917772 1.2720711e-38 331 259
0.016432239 0.78100002 -0.026017714 1.235445e-38 332 259
0.017801592 0.78100002 -0.026017714 1.235445e-38 333 259
0.019170946 0.78100002 -0.026017714 1.2354492e-38 334 259
0.020540299 0.78100002 -0.026017714 1.2630719e-38 335 259
-0.0027387065 0.78100002 -0.027387068 1.2266293e-38 318 260
-0.0013693533 0.78100002 -0.027387068 1.2266293e-38 319 260
0 0.77999997 -0.027351998 1.2631817e-38 320 260
0.0013640933 0.778 -0.027281865 1.2631817e-38 321 260
0.0027211732 0.77600002 -0.027211733 1.2540677e-38 322 260
0.0040817601 0.77600002 -0.027211733 1.2355927e-38 323 260
0.0054423464 0.77600002 -0.027211733 1.2631059e-38 324 260
0.0068029333 0.77600002 -0.027211733 1.2538505e-38 325 260
0.0081635201 0.77600002 -0.027211733 1.2812216e-38 326 260
0.009524107 0.77600002 -0.027211733 1.2628185e-38 327 260
0.010884693 0.77600002 -0.027211733 1.2536355e-38 328 260
0.01224528 0.77600002 -0.027211733 1.2628551e-38 329 260
0.013605867 0.77600002 -0.027211733 1.2537807e-38 330 260
0.015005025 0.778 -0.027281865 1.2630003e-38 331 260
0.0027211732 0.77600002 -0.028572321 1.2448502e-38 322 261
0.0040817601 0.77600002 -0.028572321 1.2356305e-38 323 261
0.0054423464 0.77600002 -0.028572321 1.2355927e-38 324 261
0.0068029333 0.77600002 -0.028572321 1.2171896e-38 325 261
0.0081635201 0.77600002 -0.028572321 1.2538523e-38 326 261
0.009524107 0.77600002 -0.028572321 1.2354492e-38 327 261
0.010884693 0.77600002 -0.028572321 1.2262662e-38 328 261
0.01224528 0.77600002 -0.028572321 1.2447053e-38 329 261
0.013605867 0.77600002 -0.028572321 1.2263759e-38 330 261
