# .PCD v.7 - Point Cloud Data file format
FIELDS x y z rgb imX imY
SIZE 4 4 4 4 4 4
TYPE F F F F F F
COUNT 1 1 1 1 1 1
WIDTH 838
HEIGHT 1
VIEWPOINT 0 0 0 1 0 0 0
POINTS 838
DATA ascii
0.0188308 0.71600002 -0.025107734 1.8249302e-38 335 260
0.020086186 0.71600002 -0.025107734 2.0366204e-38 336 260
-0.042742759 0.71700001 -0.02639994 1.3267146e-38 286 261
-0.041485619 0.71700001 -0.02639994 1.4742278e-38 287 261
-0.040228479 0.71700001 -0.02639994 1.2164769e-38 288 261
-0.038916986 0.71600002 -0.026363119 5.9873013e-39 289 261
-0.037661601 0.71600002 -0.026363119 4.790563e-39 290 261
-0.036406212 0.71600002 -0.026363119 5.528128e-39 291 261
-0.035150826 0.71600002 -0.026363119 5.1600714e-39 292 261
-0.032047424 0.70300001 -0.025884461 5.1597155e-39 294 261
-0.030814834 0.70300001 -0.025884461 5.0675198e-39 295 261
-0.029582238 0.70300001 -0.025884461 4.8831286e-39 296 261
-0.028349647 0.70300001 -0.025884461 4.5143461e-39 297 261
-0.027117053 0.70300001 -0.025884461 4.6058186e-39 298 261
-0.025773998 0.69999999 -0.025773998 4.6980143e-39 299 261
-0.024546666 0.69999999 -0.025773998 4.5154209e-39 300 261
-0.023319334 0.69999999 -0.025773998 4.5154209e-39 301 261
-0.022091998 0.69999999 -0.025773998 4.5150677e-39 302 261
-0.020894472 0.70099998 -0.025810819 4.6072634e-39 303 261
-0.019665385 0.70099998 -0.025810819 4.882058e-39 304 261
-0.018436298 0.70099998 -0.025810819 5.1582861e-39 305 261
-0.017182667 0.69999999 -0.025773998 5.0678884e-39 306 261
-0.015955333 0.69999999 -0.025773998 5.3444767e-39 307 261
-0.014727999 0.69999999 -0.025773998 5.8954854e-39 308 261
-0.013500666 0.69999999 -0.025773998 5.8032898e-39 309 261
-0.012273333 0.69999999 -0.025773998 6.0766271e-39 310 261
-0.011061779 0.70099998 -0.025810819 6.0766271e-39 311 261
-0.0098186666 0.69999999 -0.025773998 6.0766327e-39 312 261
-0.0085913334 0.69999999 -0.025773998 5.6156546e-39 313 261
-0.0073639993 0.69999999 -0.025773998 3.962617e-39 314 261
-0.0061366665 0.69999999 -0.025773998 4.8845733e-39 315 261
-0.0049303733 0.70300001 -0.025884461 1.1060589e-38 316 261
-0.0037030398 0.704 -0.02592128 1.5762206e-38 317 261
-0.0024686933 0.704 -0.02592128 1.5944431e-38 318 261
-0.0012343467 0.704 -0.02592128 1.5760038e-38 319 261
0 0.704 -0.02592128 1.5760038e-38 320 261
0.0012378532 0.70599997 -0.025994917 1.5760038e-38 321 261
0.0024757064 0.70599997 -0.025994917 1.5576726e-38 322 261
0.0037135598 0.70599997 -0.025994917 1.5668923e-38 323 261
0.0049514128 0.70599997 -0.025994917 1.5668923e-38 324 261
0.0061980332 0.70700002 -0.02603174 1.5668923e-38 325 261
0.0074691991 0.70999998 -0.026142199 1.5852591e-38 326 261
0.0087140659 0.70999998 -0.026142199 1.5852591e-38 327 261
0.0099729598 0.71100003 -0.026179021 1.5852588e-38 328 261
0.011251139 0.713 -0.026252659 1.5852588e-38 329 261
0.012501267 0.713 -0.026252659 1.5483811e-38 330 261
0.013751393 0.713 -0.026252659 1.5022473e-38 331 261
0.015022559 0.71399999 -0.026289478 1.1888175e-38 332 261
0.016274439 0.71399999 -0.026289478 9.2145015e-39 333 261
0.017526319 0.71399999 -0.026289478 1.5575631e-38 334 261
0.018778199 0.71399999 -0.026289478 1.83415e-38 335 261
0.020030079 0.71399999 -0.026289478 2.04584e-38 336 261
-0.043938532 0.71600002 -0.027618507 1.3546609e-38 285 262
-0.042683143 0.71600002 -0.027618507 1.4097262e-38 286 262
-0.041485619 0.71700001 -0.027657079 1.4189457e-38 287 262
-0.040228479 0.71700001 -0.027657079 1.078398e-38 288 262
-0.038916986 0.71600002 -0.027618507 6.3582292e-39 289 262
-0.037556399 0.71399999 -0.02754136 5.5288469e-39 290 262
-0.036304519 0.71399999 -0.02754136 4.9756745e-39 291 262
-0.035052639 0.71399999 -0.02754136 4.7902225e-39 292 262
-0.033753417 0.713 -0.027502786 4.7902225e-39 293 262
-0.030858666 0.704 -0.027155625 5.4348758e-39 295 262
-0.029624319 0.704 -0.027155625 4.8834943e-39 296 262
-0.028389972 0.704 -0.027155625 4.6072662e-39 297 262
-0.027155625 0.704 -0.027155625 4.6983772e-39 298 262
-0.02592128 0.704 -0.027155625 4.7909315e-39 299 262
-0.024686933 0.704 -0.027155625 4.5157838e-39 300 262
-0.023419274 0.70300001 -0.027117053 4.5157838e-39 301 262
-0.02218668 0.70300001 -0.027117053 4.5157866e-39 302 262
-0.020954086 0.70300001 -0.027117053 4.6079836e-39 303 262
-0.019721493 0.70300001 -0.027117053 5.1597155e-39 304 262
-0.018436298 0.70099998 -0.027039904 6.266063e-39 305 262
-0.017182667 0.69999999 -0.027001332 7.3742057e-39 306 262
-0.015955333 0.69999999 -0.027001332 8.7571401e-39 307 262
-0.014727999 0.69999999 -0.027001332 9.1233989e-39 308 262
-0.013500666 0.69999999 -0.027001332 8.8471707e-39 309 262
-0.012290866 0.70099998 -0.027039904 9.2116344e-39 310 262
-0.011061779 0.70099998 -0.027039904 8.0130913e-39 311 262
-0.0098326923 0.70099998 -0.027039904 6.7237972e-39 312 262
-0.0085913334 0.69999999 -0.027001332 5.8018409e-39 313 262
-0.0073639993 0.69999999 -0.027001332 3.962617e-39 314 262
-0.0061366665 0.69999999 -0.027001332 4.9767689e-39 315 262
-0.0049303733 0.70300001 -0.027117053 1.1060236e-38 316 262
-0.0037030398 0.704 -0.027155625 1.5854048e-38 317 262
-0.0024686933 0.704 -0.027155625 1.6222098e-38 318 262
-0.0012343467 0.704 -0.027155625 1.5761121e-38 319 262
0 0.704 -0.027155625 1.5669642e-38 320 262
0.0012378532 0.70599997 -0.027232772 1.5669642e-38 321 262
0.0024757064 0.70599997 -0.027232772 1.5761474e-38 322 262
0.0037135598 0.70599997 -0.027232772 1.5945506e-38 323 262
0.0049584266 0.70700002 -0.027271347 1.5944787e-38 324 262
0.0062067998 0.708 -0.027309919 1.5944787e-38 325 262
0.0074691991 0.70999998 -0.027387066 1.5944787e-38 326 262
0.0087263398 0.71100003 -0.027425639 1.5852591e-38 327 262
0.010001013 0.713 -0.027502786 1.5852235e-38 328 262
0.011251139 0.713 -0.027502786 1.5760038e-38 329 262
0.012518799 0.71399999 -0.02754136 1.5391616e-38 330 262
0.01377068 0.71399999 -0.02754136 1.5114669e-38 331 262
0.015022559 0.71399999 -0.02754136 1.2163684e-38 332 262
0.016320027 0.71600002 -0.027618507 9.6747608e-39 333 262
0.017526319 0.71399999 -0.02754136 1.5667108e-38 334 262
0.018778199 0.71399999 -0.02754136 1.8617008e-38 335 262
0.020030079 0.71399999 -0.02754136 2.0550956e-38 336 262
-0.043938532 0.71600002 -0.028873893 1.4465687e-38 285 263
-0.042683143 0.71600002 -0.028873893 1.4006508e-38 286 263
-0.041485619 0.71700001 -0.028914221 1.2808323e-38 287 263
-0.040172372 0.71600002 -0.028873893 1.1334635e-38 288 263
-0.038808275 0.71399999 -0.028793238 9.398527e-39 289 263
-0.037556399 0.71399999 -0.028793238 9.121587e-39 290 263
-0.036253672 0.713 -0.028752912 8.5684132e-39 291 263
-0.035003547 0.713 -0.028752912 8.1056526e-39 292 263
-0.033753417 0.713 -0.028752912 7.4602832e-39 293 263
-0.032412119 0.71100003 -0.028672259 7.0000281e-39 294 263
-0.031121666 0.70999998 -0.028631933 6.3546587e-39 295 263
-0.029876797 0.70999998 -0.028631933 5.2504664e-39 296 263
-0.028389972 0.704 -0.028389972 4.9738781e-39 297 263
-0.027155625 0.704 -0.028389972 4.8824055e-39 298 263
-0.02592128 0.704 -0.028389972 5.066438e-39 299 263
-0.024686933 0.704 -0.028389972 4.6072634e-39 300 263
-0.023452586 0.704 -0.028389972 4.6072634e-39 301 263
-0.022218239 0.704 -0.028389972 4.6072606e-39 302 263
-0.020983893 0.704 -0.028389972 4.8838474e-39 303 263
-0.019749546 0.704 -0.028389972 6.8167131e-39 304 263
-0.018515198 0.704 -0.028389972 7.6468325e-39 305 263
-0.017280852 0.704 -0.028389972 8.2000006e-39 306 263
-0.016023712 0.70300001 -0.028349647 9.3063482e-39 307 263
-0.014791119 0.70300001 -0.028349647 9.1241051e-39 308 263
-0.013558527 0.70300001 -0.028349647 9.2163008e-39 309 263
-0.012325933 0.70300001 -0.028349647 9.5825623e-39 310 263
-0.01109334 0.70300001 -0.028349647 8.6609648e-39 311 263
-0.0098326923 0.70099998 -0.028268991 7.5521159e-39 312 263
-0.0086036054 0.70099998 -0.028268991 6.2613771e-39 313 263
-0.0073639993 0.69999999 -0.028228667 4.0537407e-39 314 263
-0.0061366665 0.69999999 -0.028228667 4.8831412e-39 315 263
-0.0049373866 0.704 -0.028389972 1.1426863e-38 316 263
-0.0037030398 0.704 -0.028389972 1.6221395e-38 317 263
-0.0024686933 0.704 -0.028389972 1.6129181e-38 318 263
-0.0012343467 0.704 -0.028389972 1.6036985e-38 319 263
0 0.70599997 -0.028470624 1.5945506e-38 320 263
0.0012378532 0.70599997 -0.028470624 1.5945506e-38 321 263
0.0024757064 0.70599997 -0.028470624 1.6036982e-38 322 263
0.0037188199 0.70700002 -0.028510952 1.6036982e-38 323 263
0.0049584266 0.70700002 -0.028510952 1.6128099e-38 324 263
0.0062067998 0.708 -0.02855128 1.6128099e-38 325 263
0.0074797203 0.71100003 -0.028672259 1.6128102e-38 326 263
0.0087508867 0.713 -0.028752912 1.5943712e-38 327 263
0.010001013 0.713 -0.028752912 1.5852235e-38 328 263
0.011266919 0.71399999 -0.028793238 1.5760038e-38 329 263
0.012553867 0.71600002 -0.028873893 1.5759675e-38 330 263
0.013809253 0.71600002 -0.028873893 1.5298698e-38 331 263
0.01506464 0.71600002 -0.028873893 1.2346629e-38 332 263
0.016320027 0.71600002 -0.028873893 9.8577073e-39 333 263
0.017575413 0.71600002 -0.028873893 1.5850774e-38 334 263
0.0188308 0.71600002 -0.028873893 1.8432251e-38 335 263
0.020086186 0.71600002 -0.028873893 2.0549154e-38 336 263
-0.045193922 0.71600002 -0.03012928 1.6862777e-38 284 264
-0.043938532 0.71600002 -0.03012928 1.4557885e-38 285 264
-0.042683143 0.71600002 -0.03012928 1.3087068e-38 286 264
-0.041485619 0.71700001 -0.030171359 1.0966929e-38 287 264
-0.040172372 0.71600002 -0.03012928 1.1426105e-38 288 264
-0.038808275 0.71399999 -0.030045118 1.114952e-38 289 264
-0.037556399 0.71399999 -0.030045118 1.1610854e-38 290 264
-0.036253672 0.713 -0.030003037 1.1979276e-38 291 264
-0.034905359 0.71100003 -0.029918881 1.1425033e-38 292 264
-0.033658739 0.71100003 -0.029918881 1.0779664e-38 293 264
-0.032412119 0.71100003 -0.029918881 9.5818421e-39 294 264
-0.031121666 0.70999998 -0.029876797 8.4754959e-39 295 264
-0.029876797 0.70999998 -0.029876797 7.6446619e-39 296 264
-0.028510952 0.70700002 -0.029750559 6.8149012e-39 297 264
-0.027232772 0.70599997 -0.029708479 5.7096424e-39 298 264
-0.02592128 0.704 -0.029624319 5.4334157e-39 299 264
-0.024686933 0.704 -0.029624319 4.6072606e-39 300 264
-0.023452586 0.704 -0.029624319 4.6072606e-39 301 264
-0.022218239 0.704 -0.029624319 4.6079836e-39 302 264
-0.020983893 0.704 -0.029624319 4.7923749e-39 303 264
-0.019749546 0.704 -0.029624319 6.9092674e-39 304 264
-0.018515198 0.704 -0.029624319 7.6468325e-39 305 264
-0.017280852 0.704 -0.029624319 8.3833031e-39 306 264
-0.016046507 0.704 -0.029624319 8.7517255e-39 307 264
-0.014812159 0.704 -0.029624319 1.0132494e-38 308 264
-0.013558527 0.70300001 -0.029582238 1.0132494e-38 309 264
-0.012325933 0.70300001 -0.029582238 9.6718685e-39 310 264
-0.01109334 0.70300001 -0.029582238 8.7499108e-39 311 264
-0.0098326923 0.70099998 -0.029498078 7.0911307e-39 312 264
-0.0086036054 0.70099998 -0.029498078 6.1691759e-39 313 264
-0.0073639993 0.69999999 -0.029455997 4.2366886e-39 314 264
-0.0061366665 0.69999999 -0.029455997 4.7895036e-39 315 264
-0.0049373866 0.704 -0.029624319 1.124427e-38 316 264
-0.0037030398 0.704 -0.029624319 1.6130998e-38 317 264
-0.0024757064 0.70599997 -0.029708479 1.6221023e-38 318 264
-0.0012378532 0.70599997 -0.029708479 1.5944436e-38 319 264
0 0.70599997 -0.029708479 1.5945152e-38 320 264
0.0012396066 0.70700002 -0.029750559 1.5945152e-38 321 264
0.0024792133 0.70700002 -0.029750559 1.5761118e-38 322 264
0.0037188199 0.70700002 -0.029750559 1.5761118e-38 323 264
0.0049654399 0.708 -0.02979264 1.5943715e-38 324 264
0.0062243328 0.70999998 -0.029876797 1.5943715e-38 325 264
0.0074797203 0.71100003 -0.029918881 1.5943715e-38 326 264
0.0087508867 0.713 -0.030003037 1.5943715e-38 327 264
0.010001013 0.713 -0.030003037 1.5852235e-38 328 264
0.011266919 0.71399999 -0.030045118 1.5852235e-38 329 264
0.012553867 0.71600002 -0.03012928 1.5944065e-38 330 264
0.013809253 0.71600002 -0.03012928 1.5298696e-38 331 264
0.01506464 0.71600002 -0.03012928 1.2348419e-38 332 264
0.016320027 0.71600002 -0.03012928 9.5821896e-39 333 264
0.017599959 0.71700001 -0.030171359 1.5483419e-38 334 264
0.018857099 0.71700001 -0.030171359 1.7972342e-38 335 264
0.020114239 0.71700001 -0.030171359 2.036512e-38 336 264
-0.045446403 0.72000003 -0.03156 1.6955695e-38 284 265
-0.043999899 0.71700001 -0.031428497 1.4466414e-38 285 265
-0.042742759 0.71700001 -0.031428497 1.2350935e-38 286 265
-0.041485619 0.71700001 -0.031428497 9.4925121e-39 287 265
-0.040172372 0.71600002 -0.031384666 1.0597774e-38 288 265
-0.038808275 0.71399999 -0.031296998 1.1150947e-38 289 265
-0.037556399 0.71399999 -0.031296998 1.1703046e-38 290 265
-0.036253672 0.713 -0.031253166 1.2440611e-38 291 265
-0.034905359 0.71100003 -0.031165501 1.2806876e-38 292 265
-0.033611398 0.70999998 -0.031121666 1.2899071e-38 293 265
-0.032366529 0.70999998 -0.031121666 1.2622855e-38 294 265
-0.031121666 0.70999998 -0.031121666 1.2530659e-38 295 265
-0.029876797 0.70999998 -0.031121666 1.1610863e-38 296 265
-0.028510952 0.70700002 -0.030990168 9.9517008e-39 297 265
-0.027232772 0.70599997 -0.030946331 8.1953189e-39 298 265
-0.02592128 0.704 -0.030858666 6.074818e-39 299 265
-0.024686933 0.704 -0.030858666 4.2395542e-39 300 265
-0.023452586 0.704 -0.030858666 4.5161397e-39 301 265
-0.022218239 0.704 -0.030858666 4.5161397e-39 302 265
-0.020983893 0.704 -0.030858666 4.5161397e-39 303 265
-0.019749546 0.704 -0.030858666 5.6210439e-39 304 265
-0.018515198 0.704 -0.030858666 6.7273901e-39 305 265
-0.017280852 0.704 -0.030858666 9.3038147e-39 306 265
-0.016046507 0.704 -0.030858666 1.0502356e-38 307 265
-0.014812159 0.704 -0.030858666 1.2799683e-38 308 265
-0.013558527 0.70300001 -0.030814834 1.2707487e-38 309 265
-0.012325933 0.70300001 -0.030814834 1.1235953e-38 310 265
-0.01109334 0.70300001 -0.030814834 8.7466724e-39 311 265
-0.0098326923 0.70099998 -0.030727165 5.9876573e-39 312 265
-0.0086036054 0.70099998 -0.030727165 5.6188761e-39 313 265
-0.0073639993 0.69999999 -0.030683333 4.0530134e-39 314 265
-0.0061366665 0.69999999 -0.030683333 4.6983828e-39 315 265
-0.0049373866 0.704 -0.030858666 1.0693251e-38 316 265
-0.0037030398 0.704 -0.030858666 1.5763652e-38 317 265
-0.0024757064 0.70599997 -0.030946331 1.6037348e-38 318 265
-0.0012378532 0.70599997 -0.030946331 1.5761121e-38 319 265
0 0.70700002 -0.030990168 1.5944431e-38 320 265
0.0012396066 0.70700002 -0.030990168 1.5944431e-38 321 265
0.0024792133 0.70700002 -0.030990168 1.5944431e-38 322 265
0.00372408 0.708 -0.031034 1.5944431e-38 323 265
0.0049794666 0.70999998 -0.031121666 1.5852238e-38 324 265
0.0062330998 0.71100003 -0.031165501 1.5852238e-38 325 265
0.0075007593 0.713 -0.031253166 1.5852235e-38 326 265
0.0087508867 0.713 -0.031253166 1.5852235e-38 327 265
0.010001013 0.713 -0.031253166 1.5852591e-38 328 265
0.011266919 0.71399999 -0.031296998 1.5852591e-38 329 265
0.012553867 0.71600002 -0.031384666 1.5944068e-38 330 265
0.013828539 0.71700001 -0.031428497 1.5574925e-38 331 265
0.015085679 0.71700001 -0.031428497 1.3271097e-38 332 265
0.016342819 0.71700001 -0.031428497 1.0965847e-38 333 265
0.017599959 0.71700001 -0.031428497 1.511536e-38 334 265
0.0191464 0.72799999 -0.031910665 1.7604283e-38 335 265
0.020422826 0.72799999 -0.031910665 2.0273643e-38 336 265
-0.045446403 0.72000003 -0.0328224 1.6957497e-38 284 266
-0.044122629 0.71899998 -0.032776814 1.4006876e-38 285 266
-0.042861983 0.71899998 -0.032776814 1.2350935e-38 286 266
-0.041485619 0.71700001 -0.032685637 1.0691055e-38 287 266
-0.040172372 0.71600002 -0.032640055 1.0963314e-38 288 266
-0.038808275 0.71399999 -0.032548878 1.1608683e-38 289 266
-0.037556399 0.71399999 -0.032548878 1.1517579e-38 290 266
-0.036253672 0.713 -0.032503292 1.1886361e-38 291 266
-0.034905359 0.71100003 -0.032412119 1.1980355e-38 292 266
-0.033611398 0.70999998 -0.032366529 1.2809757e-38 293 266
-0.032366529 0.70999998 -0.032366529 1.2534245e-38 294 266
-0.031121666 0.70999998 -0.032366529 1.2903387e-38 295 266
-0.029876797 0.70999998 -0.032366529 1.2808674e-38 296 266
-0.028510952 0.70700002 -0.032229774 1.1794163e-38 297 266
-0.027232772 0.70599997 -0.032184184 9.0286697e-39 298 266
-0.025994917 0.70599997 -0.032184184 5.61743e-39 299 266
-0.024757065 0.70599997 -0.032184184 4.1477117e-39 300 266
-0.023519212 0.70599997 -0.032184184 4.5161341e-39 301 266
-0.022281358 0.70599997 -0.032184184 4.5157838e-39 302 266
-0.021043506 0.70599997 -0.032184184 4.5157838e-39 303 266
-0.019805651 0.70599997 -0.032184184 5.4384506e-39 304 266
-0.018567799 0.70599997 -0.032184184 6.6369937e-39 305 266
-0.017329946 0.70599997 -0.032184184 1.0132849e-38 306 266
-0.016092092 0.70599997 -0.032184184 1.1700175e-38 307 266
-0.014791119 0.70300001 -0.032047424 1.3350336e-38 308 266
-0.013558527 0.70300001 -0.032047424 1.3350336e-38 309 266
-0.012325933 0.70300001 -0.032047424 1.1606898e-38 310 266
-0.01109334 0.70300001 -0.032047424 9.3945613e-39 311 266
-0.0098607466 0.70300001 -0.032047424 6.7241503e-39 312 266
-0.0086036054 0.70099998 -0.031956252 5.7096396e-39 313 266
-0.0073745195 0.70099998 -0.031956252 4.3296045e-39 314 266
-0.0061454331 0.70099998 -0.031956252 4.4218001e-39 315 266
-0.0049373866 0.704 -0.032093015 1.0508857e-38 316 266
-0.0037030398 0.704 -0.032093015 1.5487421e-38 317 266
-0.0024757064 0.70599997 -0.032184184 1.5945152e-38 318 266
-0.0012396066 0.70700002 -0.032229774 1.5761121e-38 319 266
0 0.708 -0.03227536 1.5944431e-38 320 266
0.00124136 0.708 -0.03227536 1.5944431e-38 321 266
0.0024897333 0.70999998 -0.032366529 1.5944787e-38 322 266
0.0037345996 0.70999998 -0.032366529 1.6036982e-38 323 266
0.0049794666 0.70999998 -0.032366529 1.6128099e-38 324 266
0.0062330998 0.71100003 -0.032412119 1.6128099e-38 325 266
0.0075007593 0.713 -0.032503292 1.5943712e-38 326 266
0.0087508867 0.713 -0.032503292 1.5943712e-38 327 266
0.010001013 0.713 -0.032503292 1.5943712e-38 328 266
0.011266919 0.71399999 -0.032548878 1.5943712e-38 329 266
0.012553867 0.71600002 -0.032640055 1.5851518e-38 330 266
0.013828539 0.71700001 -0.032685637 1.5574572e-38 331 266
0.015085679 0.71700001 -0.032685637 1.4191988e-38 332 266
0.016388407 0.71899998 -0.032776814 1.2809053e-38 333 266
0.017673599 0.72000003 -0.0328224 1.5665662e-38 334 266
0.019120099 0.727 -0.033141505 1.806239e-38 335 266
0.020394772 0.727 -0.033141505 2.0272924e-38 336 266
-0.044183999 0.72000003 -0.034084801 1.3452984e-38 285 267
-0.042921603 0.72000003 -0.034084801 1.1796327e-38 286 267
-0.041659199 0.72000003 -0.034084801 1.2257665e-38 287 267
-0.040228479 0.71700001 -0.033942781 1.1889229e-38 288 267
-0.038916986 0.71600002 -0.03389544 1.1428252e-38 289 267
-0.037556399 0.71399999 -0.033800758 1.1333894e-38 290 267
-0.036253672 0.713 -0.033753417 1.0227546e-38 291 267
-0.034905359 0.71100003 -0.033658739 1.0226114e-38 292 267
-0.033611398 0.70999998 -0.033611398 1.0595257e-38 293 267
-0.032366529 0.70999998 -0.033611398 1.1426102e-38 294 267
-0.031121666 0.70999998 -0.033611398 1.1703049e-38 295 267
-0.029876797 0.70999998 -0.033611398 1.2346629e-38 296 267
-0.028510952 0.70700002 -0.033469379 1.2162598e-38 297 267
-0.027232772 0.70599997 -0.033422034 9.4889402e-39 298 267
-0.025994917 0.70599997 -0.033422034 5.6167237e-39 299 267
-0.024757065 0.70599997 -0.033422034 4.0558818e-39 300 267
-0.023552528 0.70700002 -0.033469379 4.4250245e-39 301 267
-0.022281358 0.70599997 -0.033422034 4.5150649e-39 302 267
-0.021043506 0.70599997 -0.033422034 4.8838474e-39 303 267
-0.019805651 0.70599997 -0.033422034 6.2664134e-39 304 267
-0.018515198 0.704 -0.03332736 7.5571522e-39 305 267
-0.017280852 0.704 -0.03332736 1.0409808e-38 306 267
-0.016092092 0.70599997 -0.033422034 1.1423601e-38 307 267
-0.014854239 0.70599997 -0.033422034 1.3169194e-38 308 267
-0.013577812 0.704 -0.03332736 1.2984443e-38 309 267
-0.012343466 0.704 -0.03332736 1.1145922e-38 310 267
-0.011109119 0.704 -0.03332736 9.9473792e-39 311 267
-0.0098747732 0.704 -0.03332736 7.9212431e-39 312 267
-0.0086404262 0.704 -0.03332736 5.3397655e-39 313 267
-0.0074060797 0.704 -0.03332736 5.0603298e-39 314 267
-0.0061717331 0.704 -0.03332736 5.6135036e-39 315 267
-0.0049514128 0.70599997 -0.033422034 1.0508507e-38 316 267
-0.0037135598 0.70599997 -0.033422034 1.5487071e-38 317 267
-0.0024792133 0.70700002 -0.033469379 1.5946231e-38 318 267
-0.00124136 0.708 -0.033516716 1.576184e-38 319 267
0 0.70999998 -0.033611398 1.5945506e-38 320 267
0.0012448666 0.70999998 -0.033611398 1.5945506e-38 321 267
0.0024897333 0.70999998 -0.033611398 1.5945506e-38 322 267
0.0037345996 0.70999998 -0.033611398 1.6037701e-38 323 267
0.0049864799 0.71100003 -0.033658739 1.6220297e-38 324 267
0.0062506334 0.713 -0.033753417 1.6128102e-38 325 267
0.0075007593 0.713 -0.033753417 1.6128102e-38 326 267
0.0087631596 0.71399999 -0.033800758 1.5943712e-38 327 267
0.010043093 0.71600002 -0.03389544 1.5943712e-38 328 267
0.01129848 0.71600002 -0.03389544 1.5943712e-38 329 267
0.0125714 0.71700001 -0.033942781 1.5483455e-38 330 267
0.013867113 0.71899998 -0.03403746 1.5206869e-38 331 267
0.01512776 0.71899998 -0.03403746 1.446858e-38 332 267
0.016388407 0.71899998 -0.03403746 1.3823211e-38 333 267
0.017722692 0.722 -0.034179479 1.6125212e-38 334 267
0.019120099 0.727 -0.03441618 1.8153516e-38 335 267
-0.043040827 0.722 -0.035445385 1.0690336e-38 286 268
-0.041774917 0.722 -0.035445385 1.1520097e-38 287 268
-0.040396802 0.72000003 -0.035347197 1.2073621e-38 288 268
-0.038916986 0.71600002 -0.035150826 1.2073621e-38 289 268
-0.037661601 0.71600002 -0.035150826 1.1333538e-38 290 268
-0.036253672 0.713 -0.035003547 9.7662109e-39 291 268
-0.034905359 0.71100003 -0.034905359 9.8580548e-39 292 268
-0.033611398 0.70999998 -0.034856264 9.7658578e-39 293 268
-0.032366529 0.70999998 -0.034856264 1.0962976e-38 294 268
-0.031121666 0.70999998 -0.034856264 1.1055171e-38 295 268
-0.029876797 0.70999998 -0.034856264 1.0413772e-38 296 268
-0.02855128 0.708 -0.034758076 9.6762055e-39 297 268
-0.027271347 0.70700002 -0.034708988 7.4667572e-39 298 268
-0.025994917 0.70599997 -0.034659892 4.3321058e-39 299 268
-0.024757065 0.70599997 -0.034659892 4.7905784e-39 300 268
-0.023552528 0.70700002 -0.034708988 4.6983828e-39 301 268
-0.022281358 0.70599997 -0.034659892 4.7905756e-39 302 268
-0.021043506 0.70599997 -0.034659892 5.3437494e-39 303 268
-0.019805651 0.70599997 -0.034659892 7.6475513e-39 304 268
-0.018515198 0.704 -0.034561705 9.0304858e-39 305 268
-0.017280852 0.704 -0.034561705 9.4892961e-39 306 268
-0.016092092 0.70599997 -0.034659892 9.4892961e-39 307 268
-0.014854239 0.70599997 -0.034659892 1.0131776e-38 308 268
-0.013577812 0.704 -0.034561705 1.0408004e-38 309 268
-0.012343466 0.704 -0.034561705 9.5814735e-39 310 268
-0.011109119 0.704 -0.034561705 9.4892779e-39 311 268
-0.0098747732 0.704 -0.034561705 9.1172682e-39 312 268
-0.0086404262 0.704 -0.034561705 6.6279862e-39 313 268
-0.0074271196 0.70599997 -0.034659892 3.5931058e-39 314 268
-0.0061892662 0.70599997 -0.034659892 4.0544441e-39 315 268
-0.0049514128 0.70599997 -0.034659892 1.0415585e-38 316 268
-0.0037188199 0.70700002 -0.034708988 1.5670736e-38 317 268
-0.00248272 0.708 -0.034758076 1.6405054e-38 318 268
-0.0012448666 0.70999998 -0.034856264 1.6128828e-38 319 268
0 0.70999998 -0.034856264 1.6221376e-38 320 268
0.0012448666 0.70999998 -0.034856264 1.6129181e-38 321 268
0.0024932399 0.71100003 -0.034905359 1.6311771e-38 322 268
0.0037398601 0.71100003 -0.034905359 1.6496161e-38 323 268
0.0049864799 0.71100003 -0.034905359 1.6311774e-38 324 268
0.0062506334 0.713 -0.035003547 1.6219579e-38 325 268
0.0075007593 0.713 -0.035003547 1.6219579e-38 326 268
0.0087631596 0.71399999 -0.035052639 1.6127383e-38 327 268
0.010043093 0.71600002 -0.035150826 1.5852235e-38 328 268
0.01129848 0.71600002 -0.035150826 1.5760038e-38 329 268
0.0125714 0.71700001 -0.035199918 1.5482732e-38 330 268
0.013867113 0.71899998 -0.035298105 1.5021754e-38 331 268
0.01512776 0.71899998 -0.035298105 1.3364754e-38 332 268
0.016388407 0.71899998 -0.035298105 1.2627189e-38 333 268
0.017722692 0.722 -0.035445385 1.5481644e-38 334 268
-0.043040827 0.722 -0.03671129 1.087473e-38 286 269
-0.041774917 0.722 -0.03671129 1.0229361e-38 287 269
-0.040396802 0.72000003 -0.036609601 1.0689972e-38 288 269
-0.039080046 0.71899998 -0.036558751 1.1795961e-38 289 269
-0.037661601 0.71600002 -0.036406212 1.1518303e-38 290 269
-0.036304519 0.71399999 -0.036304519 1.0504153e-38 291 269
-0.035052639 0.71399999 -0.036304519 1.0872931e-38 292 269
-0.033658739 0.71100003 -0.036151983 1.1333909e-38 293 269
-0.032366529 0.70999998 -0.036101133 1.1058396e-38 294 269
-0.031121666 0.70999998 -0.036101133 1.0413026e-38 295 269
-0.029876797 0.70999998 -0.036101133 9.3995976e-39 296 269
-0.028631933 0.70999998 -0.036101133 8.1088588e-39 297 269
-0.027309919 0.708 -0.03599944 6.1745666e-39 298 269
-0.02603174 0.70700002 -0.035948593 4.2384584e-39 299 269
-0.024792133 0.70700002 -0.035948593 4.69838e-39 300 269
-0.023519212 0.70599997 -0.035897743 4.5143489e-39 301 269
-0.022281358 0.70599997 -0.035897743 4.6983828e-39 302 269
-0.021043506 0.70599997 -0.035897743 5.0671667e-39 303 269
-0.019805651 0.70599997 -0.035897743 8.0152591e-39 304 269
-0.016092092 0.70599997 -0.035897743 7.9230564e-39 307 269
-0.014854239 0.70599997 -0.035897743 7.2769681e-39 308 269
-0.013577812 0.704 -0.035796054 7.9223376e-39 309 269
-0.012343466 0.704 -0.035796054 8.3854667e-39 310 269
-0.011109119 0.704 -0.035796054 8.9386405e-39 311 269
-0.0098747732 0.704 -0.035796054 9.7637292e-39 312 269
-0.0086404262 0.704 -0.035796054 6.9056647e-39 313 269
-0.0074376399 0.70700002 -0.035948593 3.869327e-39 314 269
-0.0061980332 0.70700002 -0.035948593 4.1459125e-39 315 269
-0.0049654399 0.708 -0.03599944 1.0230825e-38 316 269
-0.0037345996 0.70999998 -0.036101133 1.5854757e-38 317 269
-0.0024897333 0.70999998 -0.036101133 1.6221742e-38 318 269
-0.00124662 0.71100003 -0.036151983 1.6037351e-38 319 269
0 0.71100003 -0.036151983 1.6404691e-38 320 269
0.00124662 0.71100003 -0.036151983 1.6404691e-38 321 269
0.0024932399 0.71100003 -0.036151983 1.6312496e-38 322 269
0.0037398601 0.71100003 -0.036151983 1.6312496e-38 323 269
0.0049864799 0.71100003 -0.036151983 1.6219941e-38 324 269
0.0062506334 0.713 -0.036253672 1.6219941e-38 325 269
0.0075007593 0.713 -0.036253672 1.5943712e-38 326 269
0.0087631596 0.71399999 -0.036304519 1.5943712e-38 327 269
0.010043093 0.71600002 -0.036406212 1.5852235e-38 328 269
0.01131426 0.71700001 -0.036457058 1.5760038e-38 329 269
0.012606465 0.71899998 -0.036558751 1.539126e-38 330 269
0.013924973 0.722 -0.03671129 1.5022476e-38 331 269
0.015190879 0.722 -0.03671129 1.2720106e-38 332 269
0.01647958 0.72299999 -0.036762137 1.1521564e-38 333 269
-0.041774917 0.722 -0.0379772 1.1149172e-38 287 270
-0.040509012 0.722 -0.0379772 1.0871859e-38 288 270
-0.039080046 0.71899998 -0.037819397 1.1425033e-38 289 270
-0.037714198 0.71700001 -0.037714198 1.059527e-38 290 270
-0.036304519 0.71399999 -0.037556399 1.0042096e-38 291 270
-0.035052639 0.71399999 -0.037556399 1.0782535e-38 292 270
-0.033658739 0.71100003 -0.037398599 1.1981078e-38 293 270
-0.032412119 0.71100003 -0.037398599 1.1796317e-38 294 270
-0.031121666 0.70999998 -0.037345998 1.1796317e-38 295 270
-0.029876797 0.70999998 -0.037345998 1.225262e-38 296 270
-0.028631933 0.70999998 -0.037345998 1.1146273e-38 297 270
-0.027309919 0.708 -0.0372408 8.7484913e-39 298 270
-0.02603174 0.70700002 -0.037188202 5.890068e-39 299 270
-0.024792133 0.70700002 -0.037188202 3.8714976e-39 300 270
-0.023519212 0.70599997 -0.037135597 4.23992e-39 301 270
-0.022281358 0.70599997 -0.037135597 4.4225162e-39 302 270
-0.021043506 0.70599997 -0.037135597 4.5147118e-39 303 270
-0.019805651 0.70599997 -0.037135597 4.9756899e-39 304 270
-0.014854239 0.70599997 -0.037135597 8.0138101e-39 308 270
-0.013577812 0.704 -0.037030395 8.2903984e-39 309 270
-0.012343466 0.704 -0.037030395 8.2925522e-39 310 270
-0.0074481601 0.708 -0.0372408 4.5107517e-39 314 270
-0.0062067998 0.708 -0.0372408 4.5107517e-39 315 270
-0.0049794666 0.70999998 -0.037345998 1.0322671e-38 316 270
-0.0037345996 0.70999998 -0.037345998 1.5854048e-38 317 270
-0.0024932399 0.71100003 -0.037398599 1.603843e-38 318 270
-0.00124662 0.71100003 -0.037398599 1.5854039e-38 319 270
0 0.71100003 -0.037398599 1.6128828e-38 320 270
0.00124662 0.71100003 -0.037398599 1.6128828e-38 321 270
0.0024932399 0.71100003 -0.037398599 1.6219944e-38 322 270
0.0037398601 0.71100003 -0.037398599 1.631214e-38 323 270
0.0050005065 0.713 -0.037503798 1.6127749e-38 324 270
0.0062506334 0.713 -0.037503798 1.6127749e-38 325 270
0.0075112795 0.71399999 -0.037556399 1.5943715e-38 326 270
0.0087877065 0.71600002 -0.037661601 1.5943715e-38 327 270
0.010043093 0.71600002 -0.037661601 1.5760038e-38 328 270
0.01131426 0.71700001 -0.037714198 1.5760038e-38 329 270
0.012624 0.72000003 -0.037871998 1.5483455e-38 330 270
0.013924973 0.722 -0.0379772 1.5022476e-38 331 270
0.015211919 0.72299999 -0.038029801 1.3087448e-38 332 270
0.01647958 0.72299999 -0.038029801 1.1519762e-38 333 270
-0.039134402 0.72000003 -0.039134402 1.0872225e-38 289 271
-0.037714198 0.71700001 -0.038971342 1.0135016e-38 290 271
-0.036457058 0.71700001 -0.038971342 9.9502659e-39 291 271
-0.035150826 0.71600002 -0.038916986 1.0597436e-38 292 271
-0.033800758 0.71399999 -0.038808275 1.2072567e-38 293 271
-0.032503292 0.713 -0.038753927 1.2165469e-38 294 271
-0.031165501 0.71100003 -0.038645219 1.2441696e-38 295 271
-0.029918881 0.71100003 -0.038645219 1.2992702e-38 296 271
-0.028631933 0.70999998 -0.038590867 1.2347333e-38 297 271
-0.027309919 0.708 -0.038482159 9.6754867e-39 298 271
-0.026068559 0.708 -0.038482159 5.4341289e-39 299 271
-0.024827199 0.708 -0.038482159 3.5023577e-39 300 271
-0.023585839 0.708 -0.038482159 4.1477271e-39 301 271
-0.022344479 0.708 -0.038482159 4.3303233e-39 302 271
-0.0074691991 0.70999998 -0.038590867 4.2366886e-39 314 271
-0.0062243328 0.70999998 -0.038590867 3.959743e-39 315 271
-0.0049794666 0.70999998 -0.038590867 1.0138998e-38 316 271
-0.0037398601 0.71100003 -0.038645219 1.5670736e-38 317 271
-0.0024932399 0.71100003 -0.038645219 1.603843e-38 318 271
-0.00124662 0.71100003 -0.038645219 1.5761484e-38 319 271
0 0.71100003 -0.038645219 1.6128828e-38 320 271
0.00124662 0.71100003 -0.038645219 1.6036632e-38 321 271
0.0024932399 0.71100003 -0.038645219 1.6219944e-38 322 271
0.0037503797 0.713 -0.038753927 1.6127749e-38 323 271
0.0050005065 0.713 -0.038753927 1.6127749e-38 324 271
0.0062506334 0.713 -0.038753927 1.5943717e-38 325 271
0.0075112795 0.71399999 -0.038808275 1.5760041e-38 326 271
0.0087877065 0.71600002 -0.038916986 1.5760041e-38 327 271
0.01005712 0.71700001 -0.038971342 1.5760038e-38 328 271
0.01134582 0.71899998 -0.039080046 1.5760038e-38 329 271
0.012624 0.72000003 -0.039134402 1.5483455e-38 330 271
0.013924973 0.722 -0.039243106 1.4838086e-38 331 271
0.015211919 0.72299999 -0.039297458 1.3178563e-38 332 271
0.01647958 0.72299999 -0.039297458 1.1887824e-38 333 271
-0.039134402 0.72000003 -0.040396802 1.022866e-38 289 272
-0.037819397 0.71899998 -0.040340692 1.0321209e-38 290 272
-0.036558751 0.71899998 -0.040340692 9.9520665e-39 291 272
-0.035150826 0.71600002 -0.040172372 8.5716502e-39 292 272
-0.033800758 0.71399999 -0.040060159 9.5861623e-39 293 272
-0.032503292 0.713 -0.040004052 9.954935e-39 294 272
-0.031165501 0.71100003 -0.039891839 1.0416273e-38 295 272
-0.029918881 0.71100003 -0.039891839 1.179381e-38 296 272
-0.028672259 0.71100003 -0.039891839 1.1701613e-38 297 272
-0.027387066 0.70999998 -0.039835732 1.0226154e-38 298 272
-0.026142199 0.70999998 -0.039835732 5.8933176e-39 299 272
-0.024897331 0.70999998 -0.039835732 3.5020018e-39 300 272
-0.023585839 0.708 -0.039723519 4.2399256e-39 301 272
-0.022344479 0.708 -0.039723519 4.3303233e-39 302 272
-0.0074797203 0.71100003 -0.039891839 3.685677e-39 314 272
-0.0062330998 0.71100003 -0.039891839 3.2246975e-39 315 272
-0.0049864799 0.71100003 -0.039891839 9.7709375e-39 316 272
-0.0037398601 0.71100003 -0.039891839 1.5395231e-38 317 272
-0.0024932399 0.71100003 -0.039891839 1.6038427e-38 318 272
-0.00124662 0.71100003 -0.039891839 1.5854036e-38 319 272
0 0.71100003 -0.039891839 1.6128825e-38 320 272
0.00124662 0.71100003 -0.039891839 1.6036629e-38 321 272
0.0024932399 0.71100003 -0.039891839 1.6036629e-38 322 272
0.0037503797 0.713 -0.040004052 1.5944434e-38 323 272
0.0050005065 0.713 -0.040004052 1.5852241e-38 324 272
0.0062593995 0.71399999 -0.040060159 1.5852241e-38 325 272
0.00753232 0.71600002 -0.040172372 1.5759685e-38 326 272
0.0087877065 0.71600002 -0.040172372 1.5759685e-38 327 272
0.01005712 0.71700001 -0.040228479 1.5760041e-38 328 272
0.01134582 0.71899998 -0.040340692 1.5852238e-38 329 272
0.012624 0.72000003 -0.040396802 1.5484174e-38 330 272
0.013924973 0.722 -0.040509012 1.4838805e-38 331 272
0.015211919 0.72299999 -0.040565118 1.3270037e-38 332 272
0.01647958 0.72299999 -0.040565118 1.1979298e-38 333 272
0.017796334 0.72500002 -0.040677335 1.4836274e-38 334 272
-0.039134402 0.72000003 -0.041659199 9.1226954e-39 289 273
-0.037819397 0.71899998 -0.041601337 9.8609541e-39 290 273
-0.036558751 0.71899998 -0.041601337 9.7683997e-39 291 273
-0.035199918 0.71700001 -0.041485619 9.0329857e-39 292 273
-0.03389544 0.71600002 -0.041427758 9.3095712e-39 293 273
-0.032548878 0.71399999 -0.041312039 1.0320834e-38 294 273
-0.031253166 0.713 -0.041254178 1.0413029e-38 295 273
-0.030003037 0.713 -0.041254178 1.123992e-38 296 273
-0.028672259 0.71100003 -0.041138459 1.0502354e-38 297 273
-0.027387066 0.70999998 -0.041080594 8.7538961e-39 298 273
-0.026142199 0.70999998 -0.041080594 5.2504636e-39 299 273
-0.024897331 0.70999998 -0.041080594 4.2381249e-39 300 273
-0.0074797203 0.71100003 -0.041138459 4.0533875e-39 314 273
-0.0062330998 0.71100003 -0.041138459 3.6846036e-39 315 273
-0.0049864799 0.71100003 -0.041138459 9.8624171e-39 316 273
-0.0037398601 0.71100003 -0.041138459 1.5578187e-38 317 273
-0.0024932399 0.71100003 -0.041138459 1.5946234e-38 318 273
-0.00124662 0.71100003 -0.041138459 1.5761484e-38 319 273
0 0.71100003 -0.041138459 1.6037348e-38 320 273
0.00124662 0.71100003 -0.041138459 1.6037348e-38 321 273
0.0025002533 0.713 -0.041254178 1.5944434e-38 322 273
0.0037503797 0.713 -0.041254178 1.5944434e-38 323 273
0.0050005065 0.713 -0.041254178 1.5852238e-38 324 273
0.0062593995 0.71399999 -0.041312039 1.5760041e-38 325 273
0.00753232 0.71600002 -0.041427758 1.5760041e-38 326 273
0.0087877065 0.71600002 -0.041427758 1.5760041e-38 327 273
0.01005712 0.71700001 -0.041485619 1.5668923e-38 328 273
0.01134582 0.71899998 -0.041601337 1.5576726e-38 329 273
0.012659066 0.722 -0.041774917 1.5392335e-38 330 273
0.013924973 0.722 -0.041774917 1.4839161e-38 331 273
0.015211919 0.72299999 -0.041832779 1.3271113e-38 332 273
0.016525166 0.72500002 -0.041948501 1.1795623e-38 333 273
0.017796334 0.72500002 -0.041948501 1.4376372e-38 334 273
0.0190675 0.72500002 -0.041948501 1.7050045e-38 335 273
-0.039134402 0.72000003 -0.042921603 7.1822572e-39 289 274
-0.037871998 0.72000003 -0.042921603 6.5415555e-39 290 274
-0.036558751 0.71899998 -0.042861983 7.2791205e-39 291 274
-0.035199918 0.71700001 -0.042742759 9.0301172e-39 292 274
-0.03389544 0.71600002 -0.042683143 1.022866e-38 293 274
-0.032548878 0.71399999 -0.042563915 1.1980722e-38 294 274
-0.031253166 0.713 -0.042504307 1.1888525e-38 295 274
-0.030003037 0.713 -0.042504307 1.197857e-38 296 274
-0.028672259 0.71100003 -0.042385083 1.0042461e-38 297 274
-0.027425639 0.71100003 -0.042385083 6.6391601e-39 298 274
-0.026179021 0.71100003 -0.042385083 4.0576825e-39 299 274
-0.0074797203 0.71100003 -0.042385083 4.8777392e-39 314 274
-0.0062330998 0.71100003 -0.042385083 4.2323698e-39 315 274
-0.0049864799 0.71100003 -0.042385083 9.952812e-39 316 274
-0.0037398601 0.71100003 -0.042385083 1.5853332e-38 317 274
-0.0024932399 0.71100003 -0.042385083 1.603843e-38 318 274
-0.00124662 0.71100003 -0.042385083 1.5761484e-38 319 274
0 0.713 -0.042504307 1.5945152e-38 320 274
0.0012501266 0.713 -0.042504307 1.5945152e-38 321 274
0.0025002533 0.713 -0.042504307 1.5944434e-38 322 274
0.0037503797 0.713 -0.042504307 1.5944434e-38 323 274
0.0050075199 0.71399999 -0.042563915 1.5761121e-38 324 274
0.0062769335 0.71600002 -0.042683143 1.5761121e-38 325 274
0.00753232 0.71600002 -0.042683143 1.5760038e-38 326 274
0.0087999795 0.71700001 -0.042742759 1.5852235e-38 327 274
0.01005712 0.71700001 -0.042742759 1.5577449e-38 328 274
0.01134582 0.71899998 -0.042861983 1.5393058e-38 329 274
0.012659066 0.722 -0.043040827 1.5209385e-38 330 274
0.01394426 0.72299999 -0.043100435 1.4840963e-38 331 274
0.015211919 0.72299999 -0.043100435 1.3455502e-38 332 274
0.016525166 0.72500002 -0.043219667 1.1888175e-38 333 274
0.017796334 0.72500002 -0.043219667 1.4008663e-38 334 274
0.0190675 0.72500002 -0.043219667 1.6866367e-38 335 274
-0.0379772 0.722 -0.044306733 6.5408549e-39 290 275
-0.036609601 0.72000003 -0.044183999 6.1717122e-39 291 275
-0.035199918 0.71700001 -0.043999899 6.6323246e-39 292 275
-0.03389544 0.71600002 -0.043938532 7.5542809e-39 293 275
-0.032640055 0.71600002 -0.043938532 8.663127e-39 294 275
-0.031253166 0.713 -0.043754432 9.4932464e-39 295 275
-0.030003037 0.713 -0.043754432 1.022866e-38 296 275
-0.0062506334 0.713 -0.043754432 4.6929738e-39 315 275
-0.0050005065 0.713 -0.043754432 9.8602479e-39 316 275
-0.0037503797 0.713 -0.043754432 1.5944799e-38 317 275
-0.0025002533 0.713 -0.043754432 1.6129549e-38 318 275
-0.0012501266 0.713 -0.043754432 1.5760768e-38 319 275
0 0.713 -0.043754432 1.5945155e-38 320 275
0.0012501266 0.713 -0.043754432 1.5945155e-38 321 275
0.0025037599 0.71399999 -0.043815799 1.6036629e-38 322 275
0.0037556398 0.71399999 -0.043815799 1.6036629e-38 323 275
0.0050075199 0.71399999 -0.043815799 1.5944434e-38 324 275
0.0062769335 0.71600002 -0.043938532 1.5852238e-38 325 275
0.0075428397 0.71700001 -0.043999899 1.5668926e-38 326 275
0.0087999795 0.71700001 -0.043999899 1.5576729e-38 327 275
0.010085173 0.71899998 -0.044122629 1.5576729e-38 328 275
0.011361601 0.72000003 -0.044183999 1.5576729e-38 329 275
0.012659066 0.722 -0.044306733 1.5392335e-38 330 275
0.01394426 0.72299999 -0.044368099 1.5392335e-38 331 275
0.015211919 0.72299999 -0.044368099 1.4193426e-38 332 275
0.016525166 0.72500002 -0.044490833 1.2810132e-38 333 275
0.017796334 0.72500002 -0.044490833 1.4652233e-38 334 275
0.019014901 0.72299999 -0.044368099 1.7048961e-38 335 275
-0.0379772 0.722 -0.045572639 7.2791261e-39 290 276
-0.036609601 0.72000003 -0.045446403 7.0943748e-39 291 276
-0.035347197 0.72000003 -0.045446403 5.8947554e-39 292 276
-0.034084801 0.72000003 -0.045446403 5.0653548e-39 293 276
-0.0062593995 0.71399999 -0.045067675 6.0748292e-39 315 276
-0.0050075199 0.71399999 -0.045067675 9.585456e-39 316 276
-0.0037556398 0.71399999 -0.045067675 1.5485976e-38 317 276
-0.0025037599 0.71399999 -0.045067675 1.6038427e-38 318 276
-0.00125188 0.71399999 -0.045067675 1.5669645e-38 319 276
0 0.71399999 -0.045067675 1.6036629e-38 320 276
0.00125188 0.71399999 -0.045067675 1.6036629e-38 321 276
0.0025037599 0.71399999 -0.045067675 1.5945152e-38 322 276
0.0037556398 0.71399999 -0.045067675 1.5761121e-38 323 276
0.0050215465 0.71600002 -0.045193922 1.566857e-38 324 276
0.0062857 0.71700001 -0.045257039 1.5576373e-38 325 276
0.0075428397 0.71700001 -0.045257039 1.5576373e-38 326 276
0.0087999795 0.71700001 -0.045257039 1.5576373e-38 327 276
0.010085173 0.71899998 -0.045383278 1.5576729e-38 328 276
0.01139316 0.722 -0.045572639 1.5484174e-38 329 276
0.012676599 0.72299999 -0.04563576 1.5484174e-38 330 276
0.01394426 0.72299999 -0.04563576 1.5484174e-38 331 276
0.015211919 0.72299999 -0.04563576 1.4379259e-38 332 276
0.01647958 0.72299999 -0.04563576 1.3641335e-38 333 276
0.017747238 0.72299999 -0.04563576 1.5297247e-38 334 276
0.019014901 0.72299999 -0.04563576 1.7141159e-38 335 276
-0.0062593995 0.71399999 -0.046319555 6.0755369e-39 315 277
-0.0050075199 0.71399999 -0.046319555 9.4010606e-39 316 277
-0.0037556398 0.71399999 -0.046319555 1.5578528e-38 317 277
-0.0025037599 0.71399999 -0.046319555 1.6039147e-38 318 277
-0.00125188 0.71399999 -0.046319555 1.5578528e-38 319 277
0 0.71399999 -0.046319555 1.6036985e-38 320 277
0.00125188 0.71399999 -0.046319555 1.5944431e-38 321 277
0.0025107733 0.71600002 -0.046449307 1.5944434e-38 322 277
0.00376616 0.71600002 -0.046449307 1.5944434e-38 323 277
0.0050215465 0.71600002 -0.046449307 1.5852241e-38 324 277
0.0062857 0.71700001 -0.046514176 1.5852241e-38 325 277
0.0075428397 0.71700001 -0.046514176 1.5668926e-38 326 277
0.0088245263 0.71899998 -0.046643924 1.5668926e-38 327 277
0.010099201 0.72000003 -0.0467088 1.5393058e-38 328 277
0.01139316 0.722 -0.046838548 1.5300862e-38 329 277
0.012659066 0.722 -0.046838548 1.5300862e-38 330 277
0.013924973 0.722 -0.046838548 1.5208666e-38 331 277
0.015211919 0.72299999 -0.046903417 1.3181435e-38 332 277
0.01647958 0.72299999 -0.046903417 1.225948e-38 333 277
0.017747238 0.72299999 -0.046903417 1.6311394e-38 334 277
0.019014901 0.72299999 -0.046903417 1.769433e-38 335 277
-0.0062593995 0.71399999 -0.047571439 5.5191275e-39 315 278
-0.0050075199 0.71399999 -0.047571439 9.4918143e-39 316 278
-0.0037556398 0.71399999 -0.047571439 1.594515e-38 317 278
-0.0025037599 0.71399999 -0.047571439 1.603915e-38 318 278
-0.00125188 0.71399999 -0.047571439 1.5578172e-38 319 278
0 0.71399999 -0.047571439 1.5945152e-38 320 278
0.00125188 0.71399999 -0.047571439 1.5761121e-38 321 278
0.0025107733 0.71600002 -0.047704693 1.5760765e-38 322 278
0.00376616 0.71600002 -0.047704693 1.5760765e-38 323 278
0.0050215465 0.71600002 -0.047704693 1.5761121e-38 324 278
0.0062857 0.71700001 -0.04777132 1.5668926e-38 325 278
0.0075428397 0.71700001 -0.04777132 1.5577446e-38 326 278
0.0088245263 0.71899998 -0.04790457 1.5393414e-38 327 278
0.010099201 0.72000003 -0.0479712 1.5393414e-38 328 278
0.01139316 0.722 -0.048104454 1.5301218e-38 329 278
0.012659066 0.722 -0.048104454 1.5300865e-38 330 278
0.013924973 0.722 -0.048104454 1.5023919e-38 331 278
0.015211919 0.72299999 -0.048171077 1.2258752e-38 332 278
0.01647958 0.72299999 -0.048171077 1.1152406e-38 333 278
0.017747238 0.72299999 -0.048171077 1.7049314e-38 334 278
0.019014901 0.72299999 -0.048171077 1.8432248e-38 335 278
-0.0062769335 0.71600002 -0.048960082 6.2520206e-39 315 279
-0.0050075199 0.71399999 -0.048823316 9.4910954e-39 316 279
-0.0037556398 0.71399999 -0.048823316 1.5944431e-38 317 279
-0.0025037599 0.71399999 -0.048823316 1.5946953e-38 318 279
-0.00125188 0.71399999 -0.048823316 1.5578172e-38 319 279
0 0.71600002 -0.048960082 1.5945155e-38 320 279
0.0012553866 0.71600002 -0.048960082 1.566857e-38 321 279
0.0025107733 0.71600002 -0.048960082 1.5852241e-38 322 279
0.00376616 0.71600002 -0.048960082 1.5944436e-38 323 279
0.0050215465 0.71600002 -0.048960082 1.5668926e-38 324 279
0.0062857 0.71700001 -0.04902846 1.5668926e-38 325 279
0.0075638802 0.71899998 -0.049165215 1.5577446e-38 326 279
0.0088245263 0.71899998 -0.049165215 1.5577446e-38 327 279
0.010099201 0.72000003 -0.0492336 1.5668926e-38 328 279
0.01139316 0.722 -0.04937036 1.5761121e-38 329 279
0.012659066 0.722 -0.04937036 1.4564019e-38 330 279
0.013924973 0.722 -0.04937036 1.2904499e-38 331 279
0.015190879 0.722 -0.04937036 1.1150607e-38 332 279
0.016456785 0.722 -0.04937036 1.2441346e-38 333 279
0.017722692 0.722 -0.04937036 1.7695409e-38 334 279
-0.00753232 0.71600002 -0.050215468 9.0124945e-39 314 280
-0.0062769335 0.71600002 -0.050215468 6.7079625e-39 315 280
-0.0050215465 0.71600002 -0.050215468 9.0297641e-39 316 280
-0.00376616 0.71600002 -0.050215468 1.5852241e-38 317 280
-0.0025107733 0.71600002 -0.050215468 1.6038433e-38 318 280
-0.0012553866 0.71600002 -0.050215468 1.5761487e-38 319 280
0 0.71600002 -0.050215468 1.5576376e-38 320 280
0.0012553866 0.71600002 -0.050215468 1.5576376e-38 321 280
0.0025107733 0.71600002 -0.050215468 1.5393063e-38 322 280
0.00376616 0.71600002 -0.050215468 1.5577096e-38 323 280
0.0050285598 0.71700001 -0.0502856 1.5576729e-38 324 280
0.0062857 0.71700001 -0.0502856 1.5576729e-38 325 280
0.0075638802 0.71899998 -0.050425861 1.5577449e-38 326 280
0.0088245263 0.71899998 -0.050425861 1.5300862e-38 327 280
0.010127253 0.722 -0.050636265 1.529978e-38 328 280
0.01139316 0.722 -0.050636265 1.4746965e-38 329 280
0.012659066 0.722 -0.050636265 1.2537864e-38 330 280
0.013924973 0.722 -0.050636265 1.0417363e-38 331 280
0.015190879 0.722 -0.050636265 1.2074721e-38 332 280
0.016456785 0.722 -0.050636265 1.3918634e-38 333 280
0.017722692 0.722 -0.050636265 1.7603938e-38 334 280
-0.0087877065 0.71600002 -0.051470853 1.2137422e-38 313 281
-0.00753232 0.71600002 -0.051470853 9.2869164e-39 314 281
-0.0062769335 0.71600002 -0.051470853 7.0742213e-39 315 281
-0.0050215465 0.71600002 -0.051470853 8.7531716e-39 316 281
-0.00376616 0.71600002 -0.051470853 1.5852235e-38 317 281
-0.0025107733 0.71600002 -0.051470853 1.5946597e-38 318 281
-0.0012553866 0.71600002 -0.051470853 1.5578175e-38 319 281
0 0.71600002 -0.051470853 1.5577096e-38 320 281
0.0012553866 0.71600002 -0.051470853 1.5300509e-38 321 281
0.0025107733 0.71600002 -0.051470853 1.5393063e-38 322 281
0.00376616 0.71600002 -0.051470853 1.5669291e-38 323 281
0.0050285598 0.71700001 -0.051542737 1.5669289e-38 324 281
0.0062857 0.71700001 -0.051542737 1.5577093e-38 325 281
0.0075638802 0.71899998 -0.05168651 1.5115749e-38 326 281
0.0088367993 0.72000003 -0.051758397 1.4101596e-38 327 281
0.010127253 0.722 -0.051902171 1.2623226e-38 328 281
0.01140894 0.72299999 -0.051974058 1.0502368e-38 329 281
0.012659066 0.722 -0.051902171 8.667443e-39 330 281
0.013924973 0.722 -0.051902171 1.0603551e-38 331 281
0.015190879 0.722 -0.051902171 1.4381054e-38 332 281
0.016456785 0.722 -0.051902171 1.5394847e-38 333 281
-0.01001504 0.71399999 -0.052578956 1.0305387e-38 312 282
-0.0087631596 0.71399999 -0.052578956 9.1068439e-39 313 282
-0.00753232 0.71600002 -0.052726239 6.8084328e-39 314 282
-0.0062769335 0.71600002 -0.052726239 4.3191522e-39 315 282
-0.0050215465 0.71600002 -0.052726239 8.4780323e-39 316 282
-0.00376616 0.71600002 -0.052726239 1.5669291e-38 317 282
-0.0025107733 0.71600002 -0.052726239 1.59466e-38 318 282
-0.0012553866 0.71600002 -0.052726239 1.5578178e-38 319 282
0 0.71600002 -0.052726239 1.5577096e-38 320 282
0.0012553866 0.71600002 -0.052726239 1.5208313e-38 321 282
0.0025107733 0.71600002 -0.052726239 1.4841329e-38 322 282
0.00376616 0.71600002 -0.052726239 1.4564743e-38 323 282
0.0050285598 0.71700001 -0.052799881 1.4561502e-38 324 282
0.0063032326 0.71899998 -0.05294716 1.3455154e-38 325 282
0.0075638802 0.71899998 -0.05294716 1.2810138e-38 326 282
0.0088367993 0.72000003 -0.053020801 1.1611595e-38 327 282
0.010127253 0.722 -0.053168077 1.0053254e-38 328 282
0.01140894 0.72299999 -0.053241719 1.0421677e-38 329 282
0.012676599 0.72299999 -0.053241719 1.2259482e-38 330 282
0.01394426 0.72299999 -0.053241719 1.3550221e-38 331 282
0.015211919 0.72299999 -0.053241719 1.548453e-38 332 282
-0.01001504 0.71399999 -0.053830836 8.5641098e-39 312 283
-0.0087631596 0.71399999 -0.053830836 7.273371e-39 313 283
-0.0075112795 0.71399999 -0.053830836 5.6156546e-39 314 283
-0.0062593995 0.71399999 -0.053830836 3.4029594e-39 315 283
-0.0050075199 0.71399999 -0.053830836 8.3862094e-39 316 283
-0.0037556398 0.71399999 -0.053830836 1.530088e-38 317 283
-0.0025037599 0.71399999 -0.053830836 1.60388e-38 318 283
-0.00125188 0.71399999 -0.053830836 1.5946603e-38 319 283
0 0.71399999 -0.053830836 1.5577449e-38 320 283
0.0012553866 0.71600002 -0.053981625 1.4932079e-38 321 283
0.0025107733 0.71600002 -0.053981625 1.3918997e-38 322 283
0.00376616 0.71600002 -0.053981625 1.2720454e-38 323 283
0.0050285598 0.71700001 -0.054057021 1.124138e-38 324 283
0.0063032326 0.71899998 -0.054207806 9.6740545e-39 325 283
0.0075743999 0.72000003 -0.054283202 9.2127261e-39 326 283
0.0088367993 0.72000003 -0.054283202 9.9502911e-39 327 283
0.010127253 0.722 -0.054433983 1.0238378e-38 328 283
0.01140894 0.72299999 -0.054509375 1.2266682e-38 329 283
-0.0087631596 0.71399999 -0.05508272 7.3691694e-39 313 284
-0.0075112795 0.71399999 -0.05508272 6.2635421e-39 314 284
-0.0062593995 0.71399999 -0.05508272 3.4054776e-39 315 284
-0.0050075199 0.71399999 -0.05508272 7.0940216e-39 316 284
-0.0037556398 0.71399999 -0.05508272 1.2902346e-38 317 284
