# .PCD v.7 - Point Cloud Data file format
FIELDS x y z rgb imX imY
SIZE 4 4 4 4 4 4
TYPE F F F F F F
COUNT 1 1 1 1 1 1
WIDTH 834
HEIGHT 1
VIEWPOINT 0 0 0 1 0 0 0
POINTS 834
DATA ascii
-0.013153506 0.68199998 0.021523919 2.396013e-39 309 222
-0.011957732 0.68199998 0.021523919 2.6733201e-39 310 222
-0.010761959 0.68199998 0.021523919 3.0421027e-39 311 222
-0.0095381327 0.68000001 0.0214608 3.2243415e-39 312 222
-0.0083704125 0.68199998 0.021523919 2.394941e-39 313 222
-0.0071535995 0.68000001 0.0214608 2.3949438e-39 314 222
-0.0059525664 0.67900002 0.021429239 2.7633676e-39 315 222
-0.0047620535 0.67900002 0.021429239 4.4257658e-39 316 222
-0.0035767998 0.68000001 0.0214608 6.361874e-39 317 222
-0.0023845332 0.68000001 0.0214608 4.1448559e-39 318 222
-0.0011922666 0.68000001 0.0214608 2.0243564e-39 319 222
0 0.68000001 0.0214608 7.2611461e-39 320 222
0.0011922666 0.68000001 0.0214608 7.9065155e-39 321 222
0.0023845332 0.68000001 0.0214608 9.1936446e-39 322 222
0.0035767998 0.68000001 0.0214608 9.1936446e-39 323 222
0.0047690663 0.68000001 0.0214608 6.8999138e-39 324 222
0.0059613334 0.68000001 0.0214608 6.4385755e-39 325 222
0.0071535995 0.68000001 0.0214608 3.2250478e-39 326 222
0.0083458666 0.68000001 0.0214608 3.9626142e-39 327 222
0.009566186 0.68199998 0.021523919 6.7148148e-39 328 222
0.010761959 0.68199998 0.021523919 7.1754343e-39 329 222
0.011957732 0.68199998 0.021523919 8.8270271e-39 330 222
0.013153506 0.68199998 0.021523919 8.9195814e-39 331 222
0.014370319 0.68300003 0.02155548 1.0111285e-38 332 222
0.01559064 0.68400002 0.02158704 1.0295678e-38 333 222
0.016789921 0.68400002 0.02158704 1.0299269e-38 334 222
0.0179892 0.68400002 0.02158704 1.0575857e-38 335 222
0.01918848 0.68400002 0.02158704 8.834573e-39 336 222
0.020387759 0.68400002 0.02158704 8.7420187e-39 337 222
0.02158704 0.68400002 0.02158704 8.7402222e-39 338 222
-0.038210396 0.70300001 0.020954086 1.9181383e-38 289 223
-0.036977798 0.70300001 0.020954086 1.9642354e-38 290 223
-0.035643511 0.70099998 0.020894472 1.9642354e-38 291 223
-0.034365334 0.69999999 0.020864666 1.6414415e-38 292 223
-0.03299598 0.69700003 0.020775247 1.3648548e-38 293 223
-0.031637147 0.69400001 0.020685827 9.9542189e-39 294 223
-0.030420333 0.69400001 0.020685827 9.7698277e-39 295 223
-0.029203519 0.69400001 0.020685827 9.4943128e-39 296 223
-0.027946379 0.69300002 0.020656019 7.4660089e-39 297 223
-0.026654173 0.69099998 0.020596405 5.8994217e-39 298 223
-0.025405798 0.69 0.020566599 5.9916187e-39 299 223
-0.024125867 0.68800002 0.020506985 5.9005021e-39 300 223
-0.022919573 0.68800002 0.020506985 6.2692832e-39 301 223
-0.021681719 0.68699998 0.020477179 7.0050504e-39 302 223
-0.020447372 0.68599999 0.020447372 5.8065072e-39 303 223
-0.019244585 0.68599999 0.020447372 3.4123131e-39 304 223
-0.0179892 0.68400002 0.020387759 2.3981626e-39 305 223
-0.016765373 0.68300003 0.020357953 1.8453573e-39 306 223
-0.015567848 0.68300003 0.020357953 1.937553e-39 307 223
-0.014370319 0.68300003 0.020357953 3.0399348e-39 308 223
-0.013153506 0.68199998 0.020328145 3.6853043e-39 309 223
-0.011957732 0.68199998 0.020328145 3.4123131e-39 310 223
-0.0107304 0.68000001 0.020268533 3.043532e-39 311 223
-0.0095381327 0.68000001 0.020268533 2.7637179e-39 312 223
-0.0083704125 0.68199998 0.020328145 2.3952941e-39 313 223
-0.0071535995 0.68000001 0.020268533 2.1205163e-39 314 223
-0.0059525664 0.67900002 0.020238725 2.3974619e-39 315 223
-0.0047620535 0.67900002 0.020238725 3.0457026e-39 316 223
-0.0035715401 0.67900002 0.020238725 3.7832676e-39 317 223
-0.0023845332 0.68000001 0.020268533 4.7855408e-39 318 223
-0.0011957732 0.68199998 0.020328145 4.232367e-39 319 223
0 0.68000001 0.020268533 8.1816605e-39 320 223
0.0011922666 0.68000001 0.020268533 8.6426386e-39 321 223
0.0023845332 0.68000001 0.020268533 8.547922e-39 322 223
0.0035767998 0.68000001 0.020268533 8.3638909e-39 323 223
0.004783093 0.68199998 0.020328145 5.3387145e-39 324 223
0.005978866 0.68199998 0.020328145 5.1539645e-39 325 223
0.0071535995 0.68000001 0.020268533 3.8686263e-39 326 223
0.0083458666 0.68000001 0.020268533 4.0526575e-39 327 223
0.009566186 0.68199998 0.020328145 5.0628507e-39 328 223
0.010761959 0.68199998 0.020328145 5.5238275e-39 329 223
0.011957732 0.68199998 0.020328145 7.6335229e-39 330 223
0.013153506 0.68199998 0.020328145 7.8182729e-39 331 223
0.014370319 0.68300003 0.020357953 9.5602663e-39 332 223
0.01559064 0.68400002 0.020387759 1.0020886e-38 333 223
0.016789921 0.68400002 0.020387759 1.0388226e-38 334 223
0.0179892 0.68400002 0.020387759 1.09414e-38 335 223
0.01918848 0.68400002 0.020387759 1.0669128e-38 336 223
0.020447372 0.68599999 0.020447372 1.085352e-38 337 223
0.021650158 0.68599999 0.020447372 1.0943917e-38 338 223
-0.038210396 0.70300001 0.019721493 1.9272499e-38 289 224
-0.036977798 0.70300001 0.019721493 1.9549802e-38 290 224
-0.035643511 0.70099998 0.019665385 1.9549802e-38 291 224
-0.034365334 0.69999999 0.019637333 1.6598809e-38 292 224
-0.03299598 0.69700003 0.019553173 1.3832581e-38 293 224
-0.031728316 0.69599998 0.019525118 1.004678e-38 294 224
-0.030420333 0.69400001 0.019469013 9.9545847e-39 295 224
-0.029203519 0.69400001 0.019469013 9.6772747e-39 296 224
-0.027946379 0.69300002 0.01944096 7.8333635e-39 297 224
-0.026654173 0.69099998 0.019384852 6.0838172e-39 298 224
-0.025405798 0.69 0.019356798 6.1760128e-39 299 224
-0.024125867 0.68800002 0.019300694 6.1763687e-39 300 224
-0.022919573 0.68800002 0.019300694 6.4525955e-39 301 224
-0.021681719 0.68699998 0.019272638 6.7284677e-39 302 224
-0.020447372 0.68599999 0.019244585 5.7143144e-39 303 224
-0.019244585 0.68599999 0.019244585 2.9517021e-39 304 224
-0.0179892 0.68400002 0.01918848 1.8457133e-39 305 224
-0.016765373 0.68300003 0.019160427 2.0286724e-39 306 224
-0.015567848 0.68300003 0.019160427 2.2130651e-39 307 224
-0.014370319 0.68300003 0.019160427 3.4097908e-39 308 224
-0.013153506 0.68199998 0.019132372 4.7005296e-39 309 224
-0.011957732 0.68199998 0.019132372 4.7952321e-39 310 224
-0.0107304 0.68000001 0.019076265 3.2275477e-39 311 224
-0.0095381327 0.68000001 0.019076265 2.3970864e-39 312 224
-0.0083458666 0.68000001 0.019076265 2.0283039e-39 313 224
-0.0071535995 0.68000001 0.019076265 2.0286752e-39 314 224
-0.0059525664 0.67900002 0.019048214 2.3052635e-39 315 224
-0.0047620535 0.67900002 0.019048214 2.3077802e-39 316 224
-0.0035715401 0.67900002 0.019048214 2.4921729e-39 317 224
-0.0023845332 0.68000001 0.019076265 4.5086007e-39 318 224
-0.0011957732 0.68199998 0.019132372 4.692992e-39 319 224
0 0.68199998 0.019132372 8.1816633e-39 320 224
0.0011957732 0.68199998 0.019132372 8.4582515e-39 321 224
0.0023915465 0.68199998 0.019132372 6.8026889e-39 322 224
0.00358732 0.68199998 0.019132372 6.6182976e-39 323 224
0.004783093 0.68199998 0.019132372 4.6951458e-39 324 224
0.005978866 0.68199998 0.019132372 4.6025914e-39 325 224
0.00717464 0.68199998 0.019132372 3.6849511e-39 326 224
0.0083704125 0.68199998 0.019132372 3.6849511e-39 327 224
0.0095802136 0.68300003 0.019160427 4.1448531e-39 328 224
0.010761959 0.68199998 0.019132372 4.4218001e-39 329 224
0.011957732 0.68199998 0.019132372 5.7067712e-39 330 224
0.013172794 0.68300003 0.019160427 5.8911638e-39 331 224
0.014370319 0.68300003 0.019160427 7.9090238e-39 332 224
0.01559064 0.68400002 0.01918848 8.3696418e-39 333 224
0.016789921 0.68400002 0.01918848 9.6528277e-39 334 224
0.0179892 0.68400002 0.01918848 1.0206001e-38 335 224
0.01918848 0.68400002 0.01918848 1.1218706e-38 336 224
0.020447372 0.68599999 0.019244585 1.1587488e-38 337 224
0.021681719 0.68699998 0.019272638 1.1677882e-38 338 224
-0.036977798 0.70300001 0.018488899 1.9365771e-38 290 225
-0.035643511 0.70099998 0.018436298 1.9549802e-38 291 225
-0.034365334 0.69999999 0.018409999 1.7059066e-38 292 225
-0.033043321 0.69800001 0.0183574 1.4292837e-38 293 225
-0.03177391 0.69700003 0.018331099 1.0414121e-38 294 225
-0.030507999 0.69599998 0.018304799 1.022973e-38 295 225
-0.029287677 0.69599998 0.018304799 9.8627422e-39 296 225
-0.027986705 0.69400001 0.0182522 7.4656558e-39 297 225
-0.02673132 0.69300002 0.018225901 5.9909013e-39 298 225
-0.025442619 0.69099998 0.0181733 6.4518794e-39 299 225
-0.024195999 0.69 0.018146999 6.085615e-39 300 225
-0.022919573 0.68800002 0.0180944 6.085615e-39 301 225
-0.021681719 0.68699998 0.018068098 5.7157563e-39 302 225
-0.020447372 0.68599999 0.018041799 4.7938e-39 303 225
-0.019244585 0.68599999 0.018041799 2.3056138e-39 304 225
-0.017962901 0.68300003 0.017962901 1.6602444e-39 305 225
-0.016765373 0.68300003 0.017962901 2.3034642e-39 306 225
-0.015567848 0.68300003 0.017962901 2.3956613e-39 307 225
-0.014370319 0.68300003 0.017962901 3.8689767e-39 308 225
-0.013172794 0.68300003 0.017962901 5.3437466e-39 309 225
-0.011957732 0.68199998 0.017936599 5.1633056e-39 310 225
-0.0107304 0.68000001 0.017883999 3.319393e-39 311 225
-0.0095381327 0.68000001 0.017883999 3.1299823e-39 312 225
-0.0083458666 0.68000001 0.017883999 2.8533954e-39 313 225
-0.0071535995 0.68000001 0.017883999 2.2109127e-39 314 225
-0.0059613334 0.68000001 0.017883999 2.4878597e-39 315 225
-0.0047690663 0.68000001 0.017883999 2.3059824e-39 316 225
-0.0035767998 0.68000001 0.017883999 2.5825692e-39 317 225
-0.0023915465 0.68199998 0.017936599 4.7837429e-39 318 225
-0.0011957732 0.68199998 0.017936599 5.1528841e-39 319 225
0 0.68199998 0.017936599 7.9965503e-39 320 225
0.0011957732 0.68199998 0.017936599 8.088746e-39 321 225
0.0023915465 0.68199998 0.017936599 4.8741364e-39 322 225
0.00358732 0.68199998 0.017936599 4.8741364e-39 323 225
0.004783093 0.68199998 0.017936599 4.0519386e-39 324 225
0.005978866 0.68199998 0.017936599 3.959743e-39 325 225
0.00717464 0.68199998 0.017936599 3.6842351e-39 326 225
0.0083704125 0.68199998 0.017936599 3.5920394e-39 327 225
0.0095802136 0.68300003 0.017962901 3.7771496e-39 328 225
0.010761959 0.68199998 0.017936599 3.9615408e-39 329 225
0.011957732 0.68199998 0.017936599 4.5125454e-39 330 225
0.013172794 0.68300003 0.017962901 4.6050998e-39 331 225
0.014370319 0.68300003 0.017962901 5.064273e-39 332 225
0.01559064 0.68400002 0.0179892 5.1564687e-39 333 225
0.016789921 0.68400002 0.0179892 6.9928227e-39 334 225
0.0179892 0.68400002 0.0179892 7.7307464e-39 335 225
0.01918848 0.68400002 0.0179892 1.0761323e-38 336 225
0.020447372 0.68599999 0.018041799 1.085352e-38 337 225
-0.036977798 0.70300001 0.017256306 1.9549442e-38 290 226
-0.035643511 0.70099998 0.017207211 1.9641638e-38 291 226
-0.034365334 0.69999999 0.017182667 1.7059782e-38 292 226
-0.033043321 0.69800001 0.017133573 1.4294273e-38 293 226
-0.03177391 0.69700003 0.017109027 1.0688534e-38 294 226
-0.030551834 0.69700003 0.017109027 1.0135719e-38 295 226
-0.029287677 0.69599998 0.017084479 1.023043e-38 296 226
-0.027986705 0.69400001 0.017035386 7.8337026e-39 297 226
-0.02673132 0.69300002 0.01701084 6.35716e-39 298 226
-0.02551626 0.69300002 0.01701084 7.1872808e-39 299 226
-0.024231065 0.69099998 0.016961746 6.8199361e-39 300 226
-0.022986198 0.69 0.0169372 6.6355448e-39 301 226
-0.021713281 0.68800002 0.016888106 6.5422744e-39 302 226
-0.020447372 0.68599999 0.016839013 5.4362855e-39 303 226
-0.019244585 0.68599999 0.016839013 2.580756e-39 304 226
-0.017962901 0.68300003 0.016765373 1.6587983e-39 305 226
-0.016765373 0.68300003 0.016765373 2.3038174e-39 306 226
-0.015567848 0.68300003 0.016765373 2.8569911e-39 307 226
-0.014370319 0.68300003 0.016765373 4.6972926e-39 308 226
-0.013172794 0.68300003 0.016765373 5.8036401e-39 309 226
-0.011975267 0.68300003 0.016765373 5.7132396e-39 310 226
-0.010761959 0.68199998 0.016740825 4.2381095e-39 311 226
-0.009566186 0.68199998 0.016740825 4.2320138e-39 312 226
-0.0083704125 0.68199998 0.016740825 3.4944488e-39 313 226
-0.00717464 0.68199998 0.016740825 2.119796e-39 314 226
-0.0059613334 0.68000001 0.016691733 2.3963829e-39 315 226
-0.0047690663 0.68000001 0.016691733 2.3052635e-39 316 226
-0.0035767998 0.68000001 0.016691733 2.5814902e-39 317 226
-0.0023915465 0.68199998 0.016740825 4.8752168e-39 318 226
-0.0011957732 0.68199998 0.016740825 5.243998e-39 319 226
0 0.68199998 0.016740825 7.3544179e-39 320 226
0.0011957732 0.68199998 0.016740825 6.9856354e-39 321 226
0.0023915465 0.68199998 0.016740825 4.2323698e-39 322 226
0.00358732 0.68199998 0.016740825 4.2323698e-39 323 226
0.004783093 0.68199998 0.016740825 3.5927583e-39 324 226
0.005978866 0.68199998 0.016740825 3.6849539e-39 325 226
0.00717464 0.68199998 0.016740825 3.6849511e-39 326 226
0.0083704125 0.68199998 0.016740825 3.5927555e-39 327 226
0.0095802136 0.68300003 0.016765373 3.6849511e-39 328 226
0.01077774 0.68300003 0.016765373 3.8693424e-39 329 226
0.013172794 0.68300003 0.016765373 4.2366858e-39 331 226
0.014370319 0.68300003 0.016765373 5.4312605e-39 332 226
0.015636226 0.68599999 0.016839013 5.6156517e-39 333 226
0.016839013 0.68599999 0.016839013 7.4537966e-39 334 226
0.018041799 0.68599999 0.016839013 8.1917218e-39 335 226
-0.036977798 0.70300001 0.016023712 1.9365771e-38 290 227
-0.035745207 0.70300001 0.016023712 1.9642357e-38 291 227
-0.034414422 0.70099998 0.015978126 1.7244176e-38 292 227
-0.033043321 0.69800001 0.015909746 1.4754894e-38 293 227
-0.031819493 0.69800001 0.015909746 1.0966573e-38 294 227
-0.030551834 0.69700003 0.015886955 1.0597789e-38 295 227
-0.02932976 0.69700003 0.015886955 1.0321557e-38 296 227
-0.028067358 0.69599998 0.015864158 8.2932529e-39 297 227
-0.026769891 0.69400001 0.015818574 7.8286972e-39 298 227
-0.02551626 0.69300002 0.015795778 7.9208928e-39 299 227
-0.024231065 0.69099998 0.015750192 7.1872907e-39 300 227
-0.023019511 0.69099998 0.015750192 7.002898e-39 301 227
-0.021713281 0.68800002 0.015681813 7.09653e-39 302 227
-0.020477179 0.68699998 0.015659019 6.3589649e-39 303 227
-0.019272638 0.68699998 0.015659019 3.6856546e-39 304 227
-0.017962901 0.68300003 0.015567848 3.0402852e-39 305 227
-0.016765373 0.68300003 0.015567848 4.5154153e-39 306 227
-0.015567848 0.68300003 0.015567848 5.068589e-39 307 227
-0.014370319 0.68300003 0.015567848 4.9785472e-39 308 227
-0.013172794 0.68300003 0.015567848 5.2551355e-39 309 227
-0.011975267 0.68300003 0.015567848 5.1615035e-39 310 227
-0.01077774 0.68300003 0.015567848 3.9633205e-39 311 227
-0.0095802136 0.68300003 0.015567848 3.1292592e-39 312 227
-0.0083826864 0.68300003 0.015567848 3.0370636e-39 313 227
-0.0071851597 0.68300003 0.015567848 2.119796e-39 314 227
-0.005978866 0.68199998 0.015545053 2.3963829e-39 315 227
-0.004783093 0.68199998 0.015545053 2.3978151e-39 316 227
-0.00358732 0.68199998 0.015545053 2.6740418e-39 317 227
-0.0023915465 0.68199998 0.015545053 5.0596067e-39 318 227
-0.0011957732 0.68199998 0.015545053 5.7971717e-39 319 227
0 0.68199998 0.015545053 7.0785555e-39 320 227
0.0011957732 0.68199998 0.015545053 6.6175787e-39 321 227
0.0023915465 0.68199998 0.015545053 4.3245654e-39 322 227
0.00358732 0.68199998 0.015545053 4.5085979e-39 323 227
0.004783093 0.68199998 0.015545053 3.6849539e-39 324 227
0.005978866 0.68199998 0.015545053 3.6849539e-39 325 227
0.00717464 0.68199998 0.015545053 3.6849511e-39 326 227
0.01443344 0.68599999 0.015636226 7.085377e-39 332 227
0.015636226 0.68599999 0.015636226 7.6381921e-39 333 227
0.016839013 0.68599999 0.015636226 7.9136929e-39 334 227
0.018041799 0.68599999 0.015636226 8.5590624e-39 335 227
-0.036977798 0.70300001 0.014791119 1.9365771e-38 290 228
-0.035745207 0.70300001 0.014791119 1.9734554e-38 291 228
-0.034414422 0.70099998 0.014749039 1.7704798e-38 292 228
-0.033043321 0.69800001 0.01468592 1.4939289e-38 293 228
-0.031819493 0.69800001 0.01468592 1.0323371e-38 294 228
-0.030551834 0.69700003 0.01466488 1.0138979e-38 295 228
-0.02932976 0.69700003 0.01466488 1.0229732e-38 296 228
-0.028067358 0.69599998 0.014643839 7.9248431e-39 297 228
-0.026847038 0.69599998 0.014643839 6.6344728e-39 298 228
-0.025553079 0.69400001 0.01460176 7.1876466e-39 299 228
-0.024301201 0.69300002 0.014580719 6.8195829e-39 300 228
-0.023019511 0.69099998 0.014538639 6.8195829e-39 301 228
-0.021807959 0.69099998 0.014538639 6.6373441e-39 302 228
-0.020596405 0.69099998 0.014538639 6.0841703e-39 303 228
-0.019384852 0.69099998 0.014538639 5.2540397e-39 304 228
-0.0181733 0.69099998 0.014538639 4.9770941e-39 305 228
-0.016961746 0.69099998 0.014538639 5.2540369e-39 306 228
-0.015499466 0.68000001 0.014307199 5.715015e-39 307 228
-0.014307199 0.68000001 0.014307199 5.9901698e-39 308 228
-0.013114933 0.68000001 0.014307199 6.0827241e-39 309 228
-0.011922667 0.68000001 0.014307199 5.7135899e-39 310 228
-0.010761959 0.68199998 0.01434928 4.5154054e-39 311 228
-0.009566186 0.68199998 0.01434928 4.5100273e-39 312 228
-0.0083704125 0.68199998 0.01434928 3.7724622e-39 313 228
-0.00717464 0.68199998 0.01434928 2.579328e-39 314 228
-0.005978866 0.68199998 0.01434928 2.6715251e-39 315 228
-0.004783093 0.68199998 0.01434928 2.3974591e-39 316 228
-0.00358732 0.68199998 0.01434928 2.7662402e-39 317 228
-0.0023915465 0.68199998 0.01434928 4.6000747e-39 318 228
-0.0011957732 0.68199998 0.01434928 5.2454441e-39 319 228
0 0.68199998 0.01434928 6.3442317e-39 320 228
0.0011957732 0.68199998 0.01434928 6.3442317e-39 321 228
0.0023950534 0.68300003 0.014370319 4.9681341e-39 322 228
0.0035925799 0.68300003 0.014370319 5.0603298e-39 323 228
0.0047901068 0.68300003 0.014370319 4.0522917e-39 324 228
0.0059876335 0.68300003 0.014370319 4.1444873e-39 325 228
0.0071851597 0.68300003 0.014370319 3.9597402e-39 326 228
0.015659019 0.68699998 0.014454478 7.4538022e-39 333 228
0.01686356 0.68699998 0.014454478 8.2785252e-39 334 228
-0.036977798 0.70300001 0.013558527 1.9182096e-38 290 229
-0.035745207 0.70300001 0.013558527 1.927465e-38 291 229
-0.034414422 0.70099998 0.013519952 1.7796628e-38 292 229
-0.033137999 0.69999999 0.013500666 1.5122955e-38 293 229
-0.031819493 0.69800001 0.013462093 9.9545721e-39 294 229
-0.030595668 0.69800001 0.013462093 9.4935939e-39 295 229
-0.029371841 0.69800001 0.013462093 1.0322276e-38 296 229
-0.028107686 0.69700003 0.013442807 7.9255493e-39 297 229
-0.026847038 0.69599998 0.013423519 5.9909013e-39 298 229
-0.025553079 0.69400001 0.013384946 6.544075e-39 299 229
-0.024301201 0.69300002 0.01336566 6.4515263e-39 300 229
-0.02308614 0.69300002 0.01336566 6.5437219e-39 301 229
-0.021807959 0.69099998 0.013327086 6.1767373e-39 302 229
-0.020596405 0.69099998 0.013327086 5.9001518e-39 303 229
-0.019384852 0.69099998 0.013327086 5.3480528e-39 304 229
-0.014307199 0.68000001 0.013114933 6.0834514e-39 308 229
-0.013114933 0.68000001 0.013114933 6.2674825e-39 309 229
-0.011922667 0.68000001 0.013114933 6.1763687e-39 310 229
-0.010761959 0.68199998 0.013153506 5.5309993e-39 311 229
-0.009566186 0.68199998 0.013153506 4.3306709e-39 312 229
-0.0083704125 0.68199998 0.013153506 3.224682e-39 313 229
-0.00717464 0.68199998 0.013153506 2.2112658e-39 314 229
-0.005978866 0.68199998 0.013153506 2.4882128e-39 315 229
-0.004783093 0.68199998 0.013153506 2.5807714e-39 316 229
-0.00358732 0.68199998 0.013153506 2.7655214e-39 317 229
-0.0023915465 0.68199998 0.013153506 4.5078777e-39 318 229
-0.0011957732 0.68199998 0.013153506 4.7848247e-39 319 229
0 0.68199998 0.013153506 6.5279027e-39 320 229
0.0011957732 0.68199998 0.013153506 6.6200983e-39 321 229
0.0023950534 0.68300003 0.013172794 5.3369125e-39 322 229
0.0035925799 0.68300003 0.013172794 5.3369125e-39 323 229
0.0047901068 0.68300003 0.013172794 4.6962164e-39 324 229
0.0059876335 0.68300003 0.013172794 4.6962164e-39 325 229
0.0071851597 0.68300003 0.013172794 4.7862568e-39 326 229
-0.034512613 0.70300001 0.012325933 1.816469e-38 292 230
-0.03318534 0.70099998 0.012290866 1.5398462e-38 293 230
-0.031910665 0.69999999 0.012273333 1.1611214e-38 294 230
-0.030595668 0.69800001 0.012238266 1.0689616e-38 295 230
-0.029371841 0.69800001 0.012238266 1.0874005e-38 296 230
-0.028148014 0.69800001 0.012238266 8.5691139e-39 297 230
-0.026885614 0.69700003 0.012220734 6.2671294e-39 298 230
-0.025626717 0.69599998 0.0122032 6.544075e-39 299 230
-0.024336265 0.69400001 0.012168133 6.1756625e-39 300 230
-0.02308614 0.69300002 0.012150601 6.1756625e-39 301 230
-0.021871079 0.69300002 0.012150601 6.0841857e-39 302 230
-0.020656019 0.69300002 0.012150601 5.9001546e-39 303 230
-0.01944096 0.69300002 0.012150601 5.7168325e-39 304 230
-0.015636226 0.68599999 0.012027865 6.3593152e-39 307 230
-0.014370319 0.68300003 0.011975267 6.3600313e-39 308 230
-0.013172794 0.68300003 0.011975267 6.729174e-39 309 230
-0.011957732 0.68199998 0.011957732 7.0054007e-39 310 230
-0.010761959 0.68199998 0.011957732 6.5444226e-39 311 230
-0.0095802136 0.68300003 0.011975267 5.5277721e-39 312 230
-0.0083826864 0.68300003 0.011975267 3.4072726e-39 313 230
-0.0071851597 0.68300003 0.011975267 2.3027454e-39 314 230
-0.0059876335 0.68300003 0.011975267 2.7637235e-39 315 230
-0.004783093 0.68199998 0.011957732 2.5807714e-39 316 230
-0.00358732 0.68199998 0.011957732 2.857717e-39 317 230
-0.0023950534 0.68300003 0.011975267 4.783387e-39 318 230
-0.0011957732 0.68199998 0.011957732 5.0603326e-39 319 230
0 0.68199998 0.011957732 6.7122925e-39 320 230
0.0011975267 0.68300003 0.011975267 6.7122925e-39 321 230
0.0023950534 0.68300003 0.011975267 5.9801183e-39 322 230
0.0035925799 0.68300003 0.011975267 6.0723139e-39 323 230
0.0047901068 0.68300003 0.011975267 6.1666647e-39 324 230
0.0059964 0.68400002 0.0119928 6.2588604e-39 325 230
0.0072272392 0.68699998 0.012045399 6.0741118e-39 326 230
-0.034512613 0.70300001 0.01109334 1.7981025e-38 292 231
-0.03318534 0.70099998 0.011061779 1.5399547e-38 293 231
-0.031910665 0.69999999 0.011045999 1.2625727e-38 294 231
-0.030683333 0.69999999 0.011045999 1.2256586e-38 295 231
-0.029455997 0.69999999 0.011045999 1.1425736e-38 296 231
-0.028148014 0.69800001 0.01101444 8.8442588e-39 297 231
-0.026924185 0.69800001 0.01101444 6.4515137e-39 298 231
-0.025663542 0.69700003 0.01099866 6.8199361e-39 299 231
-0.024336265 0.69400001 0.01095132 6.2689329e-39 300 231
-0.023119451 0.69400001 0.01095132 6.1767373e-39 301 231
-0.021902639 0.69400001 0.01095132 5.9015895e-39 302 231
-0.020685827 0.69400001 0.01095132 5.7175584e-39 303 231
-0.019469013 0.69400001 0.01095132 5.7168325e-39 304 231
-0.0182522 0.69400001 0.01095132 5.6242767e-39 305 231
-0.015636226 0.68599999 0.010825079 6.4515109e-39 307 231
-0.01443344 0.68599999 0.010825079 6.2696363e-39 308 231
-0.013172794 0.68300003 0.01077774 6.454029e-39 309 231
-0.011975267 0.68300003 0.01077774 6.9142813e-39 310 231
-0.01077774 0.68300003 0.01077774 6.9142813e-39 311 231
-0.0095802136 0.68300003 0.01077774 6.3589621e-39 312 231
-0.0083826864 0.68300003 0.01077774 3.7774845e-39 313 231
-0.0071851597 0.68300003 0.01077774 3.7724776e-39 314 231
-0.0059876335 0.68300003 0.01077774 3.680282e-39 315 231
-0.004783093 0.68199998 0.010761959 2.3974591e-39 316 231
-0.00358732 0.68199998 0.010761959 2.6740446e-39 317 231
-0.0023915465 0.68199998 0.010761959 4.6011495e-39 318 231
-0.0011957732 0.68199998 0.010761959 4.969932e-39 319 231
0 0.68199998 0.010761959 6.7133673e-39 320 231
0.0012027866 0.68599999 0.010825079 6.7133673e-39 321 231
0.0024090798 0.68699998 0.010840859 6.0715978e-39 322 231
0.00360836 0.68599999 0.010825079 6.1637935e-39 323 231
0.0048111463 0.68599999 0.010825079 6.2570611e-39 324 231
0.0060139326 0.68599999 0.010825079 6.6254849e-39 325 231
0.0072272392 0.68699998 0.010840859 6.7162344e-39 326 231
-0.03318534 0.70099998 0.0098326923 1.5122957e-38 293 232
-0.031910665 0.69999999 0.0098186666 1.2809407e-38 294 232
-0.030683333 0.69999999 0.0098186666 1.3178548e-38 295 232
-0.029455997 0.69999999 0.0098186666 1.2716844e-38 296 232
-0.028148014 0.69800001 0.0097906133 9.1212157e-39 297 232
-0.026924185 0.69800001 0.0097906133 6.3589621e-39 298 232
-0.025663542 0.69700003 0.0097765867 6.8199389e-39 299 232
-0.0244064 0.69599998 0.0097625591 6.2689301e-39 300 232
-0.023119451 0.69400001 0.0097345067 6.0845388e-39 301 232
-0.021902639 0.69400001 0.0097345067 5.9001518e-39 302 232
-0.020685827 0.69400001 0.0097345067 5.8079561e-39 303 232
-0.019469013 0.69400001 0.0097345067 5.9909013e-39 304 232
-0.0182522 0.69400001 0.0097345067 6.2671294e-39 305 232
-0.017035386 0.69400001 0.0097345067 6.2685615e-39 306 232
-0.015636226 0.68599999 0.0096222926 6.0841703e-39 307 232
-0.01443344 0.68599999 0.0096222926 6.4511577e-39 308 232
-0.01319208 0.68400002 0.0095942402 6.7273845e-39 309 232
-0.0119928 0.68400002 0.0095942402 7.097246e-39 310 232
-0.01079352 0.68400002 0.0095942402 7.374193e-39 311 232
-0.0095802136 0.68300003 0.0095802136 7.0036253e-39 312 232
-0.0083826864 0.68300003 0.0095802136 3.4079943e-39 313 232
-0.0071851597 0.68300003 0.0095802136 3.5873703e-39 314 232
-0.0059876335 0.68300003 0.0095802136 3.8639572e-39 315 232
-0.004783093 0.68199998 0.009566186 2.5818462e-39 316 232
-0.00358732 0.68199998 0.009566186 2.7662374e-39 317 232
-0.0023915465 0.68199998 0.009566186 4.7848191e-39 318 232
-0.0012045399 0.68699998 0.0096363192 5.3379929e-39 319 232
0 0.68699998 0.0096363192 6.7126456e-39 320 232
0.0012045399 0.68699998 0.0096363192 6.8970369e-39 321 232
0.0024125867 0.68800002 0.0096503468 5.9801183e-39 322 232
0.0036136196 0.68699998 0.0096363192 5.9801183e-39 323 232
0.0048181596 0.68699998 0.0096363192 6.2541884e-39 324 232
0.0060314666 0.68800002 0.0096503468 6.5304152e-39 325 232
0.0072377604 0.68800002 0.0096503468 6.8999138e-39 326 232
0.0084686 0.69 0.0096783992 6.9921094e-39 327 232
0.0096783992 0.69 0.0096783992 5.800043e-39 328 232
-0.033280019 0.70300001 0.0086281532 1.4385034e-38 293 233
-0.031956252 0.70099998 0.0086036054 1.0047133e-38 294 233
-0.030683333 0.69999999 0.0085913334 1.2075437e-38 295 233
-0.029455997 0.69999999 0.0085913334 1.2442779e-38 296 233
-0.028228667 0.69999999 0.0085913334 9.1237352e-39 297 233
-0.026924185 0.69800001 0.0085667865 6.2674853e-39 298 233
-0.025663542 0.69700003 0.0085545136 6.5440722e-39 299 233
-0.0244064 0.69599998 0.0085422397 6.6351945e-39 300 233
-0.023186078 0.69599998 0.0085422397 6.1742163e-39 301 233
-0.021902639 0.69400001 0.0085176928 6.0827508e-39 302 233
-0.020685827 0.69400001 0.0085176928 5.9901964e-39 303 233
-0.019469013 0.69400001 0.0085176928 5.9012238e-39 304 233
-0.0182522 0.69400001 0.0085176928 6.085615e-39 305 233
-0.017035386 0.69400001 0.0085176928 6.5419114e-39 306 233
-0.015681813 0.68800002 0.0084440531 6.5419114e-39 307 233
-0.014475521 0.68800002 0.0084440531 5.9912684e-39 308 233
-0.01319208 0.68400002 0.0083949603 6.268214e-39 309 233
-0.0119928 0.68400002 0.0083949603 6.361846e-39 310 233
-0.01079352 0.68400002 0.0083949603 6.4540416e-39 311 233
-0.0095802136 0.68300003 0.0083826864 7.0918608e-39 312 233
-0.0083826864 0.68300003 0.0083826864 4.9710026e-39 313 233
-0.0071851597 0.68300003 0.0083826864 4.1416203e-39 314 233
-0.0059876335 0.68300003 0.0083826864 3.680282e-39 315 233
-0.0047901068 0.68300003 0.0083826864 2.2148657e-39 316 233
-0.0035925799 0.68300003 0.0083826864 2.4910925e-39 317 233
-0.0012062934 0.68800002 0.0084440531 4.419282e-39 319 233
0 0.68800002 0.0084440531 6.5296991e-39 320 233
0.0012062934 0.68800002 0.0084440531 6.6218947e-39 321 233
0.0024125867 0.68800002 0.0084440531 6.0715922e-39 322 233
0.0036188802 0.68800002 0.0084440531 6.0715922e-39 323 233
0.0048251734 0.68800002 0.0084440531 5.9811973e-39 324 233
0.0060314666 0.68800002 0.0084440531 5.9811973e-39 325 233
0.0072377604 0.68800002 0.0084440531 6.25778e-39 326 233
0.0084686 0.69 0.0084686 6.349977e-39 327 233
0.0096783992 0.69 0.0084686 6.1648627e-39 328 233
-0.031956252 0.70099998 0.0073745195 5.6260634e-39 294 234
-0.030727165 0.70099998 0.0073745195 6.9168022e-39 295 234
-0.029498078 0.70099998 0.0073745195 9.5883105e-39 296 234
-0.028228667 0.69999999 0.0073639993 7.7440377e-39 297 234
-0.027001332 0.69999999 0.0073639993 6.3596838e-39 298 234
-0.025700359 0.69800001 0.0073429602 6.6362707e-39 299 234
-0.024441468 0.69700003 0.00733244 6.2685671e-39 300 234
-0.023186078 0.69599998 0.0073219193 6.1760128e-39 301 234
-0.021965759 0.69599998 0.0073219193 5.8090281e-39 302 234
-0.020685827 0.69400001 0.0073008798 5.9012238e-39 303 234
-0.019469013 0.69400001 0.0073008798 5.7179087e-39 304 234
-0.0182522 0.69400001 0.0073008798 5.9019398e-39 305 234
-0.017035386 0.69400001 0.0073008798 6.1745694e-39 306 234
-0.015681813 0.68800002 0.0072377604 5.8057883e-39 307 234
-0.014475521 0.68800002 0.0072377604 5.9898251e-39 308 234
-0.01319208 0.68400002 0.0071956799 6.358609e-39 309 234
-0.0119928 0.68400002 0.0071956799 6.2682112e-39 310 234
-0.01079352 0.68400002 0.0071956799 6.1760156e-39 311 234
-0.0095802136 0.68300003 0.0071851597 5.9876783e-39 312 234
-0.0083826864 0.68300003 0.0071851597 4.5125482e-39 313 234
-0.0071851597 0.68300003 0.0071851597 3.4047741e-39 314 234
-0.0059876335 0.68300003 0.0071851597 3.5891654e-39 315 234
-0.0047901068 0.68300003 0.0071851597 2.3985311e-39 316 234
-0.0035925799 0.68300003 0.0071851597 2.6751194e-39 317 234
-0.0023950534 0.68300003 0.0071851597 4.4174785e-39 318 234
-0.0011975267 0.68300003 0.0071851597 4.7862596e-39 319 234
0 0.68300003 0.0071851597 6.4367804e-39 320 234
0.0012062934 0.68800002 0.0072377604 6.8055629e-39 321 234
0.0048251734 0.68800002 0.0072377604 5.9815476e-39 324 234
0.0060314666 0.68800002 0.0072377604 6.3503287e-39 325 234
0.0072587994 0.69 0.0072587994 6.074109e-39 326 234
-0.032047424 0.70300001 0.0061629666 7.9280801e-39 294 235
-0.030814834 0.70300001 0.0061629666 7.2827107e-39 295 235
-0.029582238 0.70300001 0.0061629666 9.8602212e-39 296 235
-0.028349647 0.70300001 0.0061629666 8.2932557e-39 297 235
-0.027001332 0.69999999 0.0061366665 7.0036042e-39 298 235
-0.025773998 0.69999999 0.0061366665 7.1879969e-39 299 235
-0.024476532 0.69800001 0.006119133 6.912489e-39 300 235
-0.023252707 0.69800001 0.006119133 6.7277376e-39 301 235
-0.02199732 0.69700003 0.0061103669 6.4540262e-39 302 235
-0.020745439 0.69599998 0.0061015999 6.5465806e-39 303 235
-0.01944096 0.69300002 0.0060753003 5.9944886e-39 304 235
-0.0181733 0.69099998 0.0060577663 5.5338706e-39 305 235
-0.016961746 0.69099998 0.0060577663 6.1727716e-39 306 235
-0.015750192 0.69099998 0.0060577663 6.2649672e-39 307 235
-0.014475521 0.68800002 0.0060314666 5.8987056e-39 308 235
-0.013230653 0.68599999 0.0060139326 6.2671294e-39 309 235
-0.012027865 0.68599999 0.0060139326 5.9937753e-39 310 235
-0.010825079 0.68599999 0.0060139326 5.9937753e-39 311 235
-0.0095942402 0.68400002 0.0059964 6.7245174e-39 312 235
-0.0083949603 0.68400002 0.0059964 4.1430398e-39 313 235
-0.0071956799 0.68400002 0.0059964 3.8639544e-39 314 235
-0.0059876335 0.68300003 0.0059876335 3.7717588e-39 315 235
-0.0047901068 0.68300003 0.0059876335 2.5829224e-39 316 235
-0.0035925799 0.68300003 0.0059876335 3.0439005e-39 317 235
-0.0023985601 0.68400002 0.0059964 3.8689795e-39 318 235
-0.032047424 0.70300001 0.0049303733 9.678002e-39 294 236
-0.030814834 0.70300001 0.0049303733 9.2170224e-39 295 236
-0.029624319 0.704 0.0049373866 1.0045336e-38 296 236
-0.028349647 0.70300001 0.0049303733 8.5705656e-39 297 236
-0.027117053 0.70300001 0.0049303733 8.1063589e-39 298 236
-0.025773998 0.69999999 0.0049093333 8.0141632e-39 299 236
-0.024546666 0.69999999 0.0049093333 7.0968803e-39 300 236
-0.023252707 0.69800001 0.0048953067 7.0968803e-39 301 236
-0.02202888 0.69800001 0.0048953067 6.6402083e-39 302 236
-0.020745439 0.69599998 0.0048812795 6.5480127e-39 303 236
-0.01944096 0.69300002 0.00486024 6.2707055e-39 304 236
-0.0181733 0.69099998 0.0048462129 5.7175332e-39 305 236
-0.016961746 0.69099998 0.0048462129 6.2642427e-39 306 236
-0.015750192 0.69099998 0.0048462129 6.2642427e-39 307 236
-0.014517599 0.69 0.0048391996 5.6231949e-39 308 236
-0.013269227 0.68800002 0.0048251734 6.0841731e-39 309 236
-0.012062933 0.68800002 0.0048251734 5.9022958e-39 310 236
-0.010840859 0.68699998 0.0048181596 6.363634e-39 311 236
-0.0096222926 0.68599999 0.0048111463 7.2791261e-39 312 236
-0.0084195063 0.68599999 0.0048111463 4.3285059e-39 313 236
-0.0072167199 0.68599999 0.0048111463 3.680282e-39 314 236
-0.0059964 0.68400002 0.0047971201 3.9572276e-39 315 236
-0.0047971201 0.68400002 0.0047971201 3.5038039e-39 316 236
-0.00359784 0.68400002 0.0047971201 4.4261189e-39 317 236
-0.0023985601 0.68400002 0.0047971201 4.3295989e-39 318 236
-0.032093015 0.704 0.0037030398 9.1277023e-39 294 237
-0.030858666 0.704 0.0037030398 8.666364e-39 295 237
-0.029624319 0.704 0.0037030398 9.7698221e-39 296 237
-0.028349647 0.70300001 0.0036977797 8.8482245e-39 297 237
-0.027117053 0.70300001 0.0036977797 8.3833031e-39 298 237
-0.025810819 0.70099998 0.0036872597 8.1985517e-39 299 237
-0.024546666 0.69999999 0.0036819996 7.3723882e-39 300 237
-0.023252707 0.69800001 0.0036714801 7.2801925e-39 301 237
-0.02202888 0.69800001 0.0036714801 6.9150001e-39 302 237
-0.020745439 0.69599998 0.0036609597 6.9150001e-39 303 237
-0.019469013 0.69400001 0.0036504399 6.4543793e-39 304 237
-0.0182522 0.69400001 0.0036504399 5.9012055e-39 305 237
-0.01701084 0.69300002 0.0036451798 5.9901754e-39 306 237
-0.015795778 0.69300002 0.0036451798 5.7135899e-39 307 237
-0.014538639 0.69099998 0.0036346598 5.6228418e-39 308 237
-0.0133078 0.69 0.0036293997 5.8990686e-39 309 237
-0.012097999 0.69 0.0036293997 5.8090281e-39 310 237
-0.010856641 0.68800002 0.0036188802 5.9934194e-39 311 237
-0.0096503468 0.68800002 0.0036188802 6.4497284e-39 312 237
-0.0084317802 0.68699998 0.0036136196 4.6058158e-39 313 237
-0.0072272392 0.68699998 0.0036136196 3.4969697e-39 314 237
-0.0060139326 0.68599999 0.00360836 3.4969697e-39 315 237
-0.0047971201 0.68400002 0.00359784 4.7930966e-39 316 237
-0.00359784 0.68400002 0.00359784 7.1905431e-39 317 237
-0.0023985601 0.68400002 0.00359784 5.6156546e-39 318 237
-0.00119928 0.68400002 0.00359784 3.2182094e-39 319 237
-0.032093015 0.704 0.0024686933 8.9429439e-39 294 238
-0.030858666 0.704 0.0024686933 8.0206288e-39 295 238
-0.029624319 0.704 0.0024686933 1.0135719e-38 296 238
-0.028389972 0.704 0.0024686933 9.3055999e-39 297 238
-0.027117053 0.70300001 0.0024651866 7.9237599e-39 298 238
-0.025810819 0.70099998 0.0024581731 7.8315642e-39 299 238
-0.024546666 0.69999999 0.0024546667 7.2798394e-39 300 238
-0.023319334 0.69999999 0.0024546667 7.1876438e-39 301 238
-0.02202888 0.69800001 0.0024476533 6.7313348e-39 302 238
-0.020775247 0.69700003 0.0024441467 6.9157246e-39 303 238
-0.019525118 0.69599998 0.0024406398 6.5476498e-39 304 238
-0.018304799 0.69599998 0.0024406398 6.0866716e-39 305 238
-0.017035386 0.69400001 0.0024336267 6.3578663e-39 306 238
-0.015795778 0.69300002 0.00243012 6.2656707e-39 307 238
-0.014580719 0.69300002 0.00243012 5.8065072e-39 308 238
-0.013327086 0.69099998 0.0024231065 6.0834542e-39 309 238
-0.012115533 0.69099998 0.0024231065 5.9916215e-39 310 238
-0.010888199 0.69 0.0024195998 5.9916215e-39 311 238
-0.0096783992 0.69 0.0024195998 6.3542958e-39 312 238
-0.0084686 0.69 0.0024195998 4.6025788e-39 313 238
-0.0072377604 0.68800002 0.0024125867 3.9565088e-39 314 238
-0.0060139326 0.68599999 0.0024055731 3.4951705e-39 315 238
-0.0048111463 0.68599999 0.0024055731 4.7923749e-39 316 238
-0.00359784 0.68400002 0.0023985601 8.756787e-39 317 238
-0.0023985601 0.68400002 0.0023985601 6.7237972e-39 318 238
-0.00119928 0.68400002 0.0023985601 3.0356132e-39 319 238
0 0.68400002 0.0023985601 4.3245626e-39 320 238
0.00119928 0.68400002 0.0023985601 5.1539645e-39 321 238
-0.033469379 0.70700002 0.0012396066 1.5675058e-38 293 239
-0.032184184 0.70599997 0.0012378532 9.4957617e-39 294 239
-0.030858666 0.704 0.0012343467 8.666001e-39 295 239
-0.029624319 0.704 0.0012343467 1.004497e-38 296 239
-0.028389972 0.704 0.0012343467 9.214849e-39 297 239
-0.027117053 0.70300001 0.0012325933 8.0159625e-39 298 239
-0.025810819 0.70099998 0.0012290865 7.8312111e-39 299 239
-0.024546666 0.69999999 0.0012273333 7.3702372e-39 300 239
-0.023319334 0.69999999 0.0012273333 7.2780401e-39 301 239
-0.02202888 0.69800001 0.0012238267 6.7302586e-39 302 239
-0.020775247 0.69700003 0.0012220733 6.8224542e-39 303 239
-0.019553173 0.69700003 0.0012220733 6.3643473e-39 304 239
-0.018304799 0.69599998 0.0012203199 5.9037279e-39 305 239
-0.017084479 0.69599998 0.0012203199 6.2671168e-39 306 239
-0.015818574 0.69400001 0.0012168133 6.0827241e-39 307 239
-0.014580719 0.69300002 0.00121506 5.9909013e-39 308 239
-0.01336566 0.69300002 0.00121506 6.3596838e-39 309 239
-0.012115533 0.69099998 0.0012115532 6.1767317e-39 310 239
-0.010888199 0.69 0.0012097999 6.1767317e-39 311 239
-0.0096783992 0.69 0.0012097999 5.7132396e-39 312 239
-0.0084686 0.69 0.0012097999 4.4225008e-39 313 239
-0.0072377604 0.68800002 0.0012062934 3.4051244e-39 314 239
-0.0060139326 0.68599999 0.0012027866 3.1288963e-39 315 239
-0.0048111463 0.68599999 0.0012027866 4.5175831e-39 316 239
-0.00359784 0.68400002 0.00119928 8.2976039e-39 317 239
-0.0023985601 0.68400002 0.00119928 6.8195829e-39 318 239
-0.00119928 0.68400002 0.00119928 3.7774873e-39 319 239
0 0.68400002 0.00119928 3.2268442e-39 320 239
0.00119928 0.68400002 0.00119928 2.5814748e-39 321 239
0.0024055731 0.68599999 0.0012027866 6.7130114e-39 322 239
-0.033469379 0.70700002 -0 1.5584659e-38 293 240
-0.032184184 0.70599997 -0 1.0509556e-38 294 240
-0.030858666 0.704 -0 9.7719913e-39 295 240
-0.029624319 0.704 -0 1.0597789e-38 296 240
-0.028389972 0.704 -0 9.2148546e-39 297 240
-0.027117053 0.70300001 -0 7.2805611e-39 298 240
-0.025810819 0.70099998 -0 6.91178e-39 299 240
-0.024581732 0.70099998 -0 7.1851383e-39 300 240
-0.023319334 0.69999999 -0 7.0011071e-39 301 240
-0.022091998 0.69999999 -0 6.6366378e-39 302 240
-0.020805053 0.69800001 -0 6.7288334e-39 303 240
-0.019581227 0.69800001 -0 6.5462274e-39 304 240
-0.018331099 0.69700003 -0 6.4540318e-39 305 240
-0.017084479 0.69599998 -0 6.817048e-39 306 240
-0.015818574 0.69400001 -0 7.0014378e-39 307 240
-0.014580719 0.69300002 -0 6.0841675e-39 308 240
-0.01336566 0.69300002 -0 6.4529486e-39 309 240
-0.012150601 0.69300002 -0 6.6394923e-39 310 240
-0.01090398 0.69099998 -0 6.7316879e-39 311 240
-0.0096924258 0.69099998 -0 6.9121331e-39 312 240
-0.008480873 0.69099998 -0 3.5008934e-39 313 240
-0.0072377604 0.68800002 -0 2.3034642e-39 314 240
-0.0060226996 0.68699998 -0 2.4878569e-39 315 240
-0.0048111463 0.68599999 -0 3.7793146e-39 316 240
-0.00360836 0.68599999 -0 7.3753029e-39 317 240
-0.0024055731 0.68599999 -0 7.2823631e-39 318 240
-0.0012027866 0.68599999 -0 5.2536992e-39 319 240
0 0.68599999 -0 3.4983893e-39 320 240
0.0012027866 0.68599999 -0 3.1299655e-39 321 240
0.0024055731 0.68599999 -0 4.7848219e-39 322 240
-0.032184184 0.70599997 -0.0012378532 1.1246756e-38 294 241
-0.030858666 0.704 -0.0012343467 9.8638212e-39 295 241
-0.029624319 0.704 -0.0012343467 1.0874002e-38 296 241
-0.028389972 0.704 -0.0012343467 9.2148392e-39 297 241
-0.027155625 0.704 -0.0012343467 6.2685615e-39 298 241
-0.025884461 0.70300001 -0.0012325933 6.545147e-39 299 241
-0.024581732 0.70099998 -0.0012290865 6.8188669e-39 300 241
-0.023319334 0.69999999 -0.0012273333 6.7266712e-39 301 241
-0.022091998 0.69999999 -0.0012273333 6.544075e-39 302 241
-0.020805053 0.69800001 -0.0012238267 6.7284677e-39 303 241
-0.019581227 0.69800001 -0.0012238267 6.6391419e-39 304 241
-0.018331099 0.69700003 -0.0012220733 6.4547507e-39 305 241
-0.017084479 0.69599998 -0.0012203199 6.6355448e-39 306 241
-0.015818574 0.69400001 -0.0012168133 6.1745666e-39 307 241
-0.014580719 0.69300002 -0.00121506 6.2664134e-39 308 241
-0.01336566 0.69300002 -0.00121506 6.7273901e-39 309 241
-0.012150601 0.69300002 -0.00121506 6.4561954e-39 310 241
-0.01090398 0.69099998 -0.0012115532 6.9171736e-39 311 241
-0.0096924258 0.69099998 -0.0012115532 7.6471954e-39 312 241
-0.008480873 0.69099998 -0.0012115532 4.1437615e-39 313 241
-0.0072377604 0.68800002 -0.0012062934 2.120152e-39 314 241
-0.0060314666 0.68800002 -0.0012062934 2.5807714e-39 315 241
-0.0048181596 0.68699998 -0.0012045399 3.5934814e-39 316 241
-0.00360836 0.68599999 -0.0012027866 5.5295896e-39 317 241
-0.0024055731 0.68599999 -0.0012027866 7.8326601e-39 318 241
-0.0012027866 0.68599999 -0.0012027866 7.5564319e-39 319 241
-0.032184184 0.70599997 -0.0024757064 1.271829e-38 294 242
-0.030858666 0.704 -0.0024686933 1.1888528e-38 295 242
-0.029624319 0.704 -0.0024686933 1.2071103e-38 296 242
-0.028389972 0.704 -0.0024686933 1.0042799e-38 297 242
-0.027155625 0.704 -0.0024686933 7.0050378e-39 298 242
-0.025884461 0.70300001 -0.0024651866 7.3734602e-39 299 242
-0.024581732 0.70099998 -0.0024581731 7.2798394e-39 300 242
-0.023319334 0.69999999 -0.0024546667 7.0032511e-39 301 242
-0.022091998 0.69999999 -0.0024546667 6.5447911e-39 302 242
-0.020805053 0.69800001 -0.0024476533 6.6369881e-39 303 242
-0.019581227 0.69800001 -0.0024476533 6.4547507e-39 304 242
-0.018304799 0.69599998 -0.0024406398 6.2699993e-39 305 242
-0.017035386 0.69400001 -0.0024336267 6.6341043e-39 306 242
-0.015818574 0.69400001 -0.0024336267 6.5419086e-39 307 242
-0.014580719 0.69300002 -0.00243012 5.9005021e-39 308 242
-0.01336566 0.69300002 -0.00243012 6.3614788e-39 309 242
-0.012150601 0.69300002 -0.00243012 6.4561926e-39 310 242
-0.01090398 0.69099998 -0.0024231065 6.4561926e-39 311 242
-0.0096924258 0.69099998 -0.0024231065 7.0925797e-39 312 242
-0.008480873 0.69099998 -0.0024231065 4.1423209e-39 313 242
-0.0072693196 0.69099998 -0.0024231065 2.6704531e-39 314 242
-0.0060489997 0.69 -0.0024195998 3.0392342e-39 315 242
-0.0048181596 0.68699998 -0.0024090798 2.8584373e-39 316 242
-0.00360836 0.68599999 -0.0024055731 3.9644247e-39 317 242
-0.0024055731 0.68599999 -0.0024055731 6.9135834e-39 318 242
-0.0012027866 0.68599999 -0.0024055731 8.2043222e-39 319 242
-0.032184184 0.70599997 -0.0037135598 1.2534627e-38 294 243
-0.030858666 0.704 -0.0037030398 1.290305e-38 295 243
-0.029624319 0.704 -0.0037030398 1.2901955e-38 296 243
-0.028389972 0.704 -0.0037030398 1.0504869e-38 297 243
-0.027155625 0.704 -0.0037030398 8.1103091e-39 298 243
-0.025810819 0.70099998 -0.0036872597 7.9255591e-39 299 243
-0.024581732 0.70099998 -0.0036872597 7.372391e-39 300 243
-0.023319334 0.69999999 -0.0036819996 7.0032483e-39 301 243
-0.022091998 0.69999999 -0.0036819996 6.545147e-39 302 243
-0.020805053 0.69800001 -0.0036714801 6.6373441e-39 303 243
-0.019581227 0.69800001 -0.0036714801 6.7298928e-39 304 243
-0.018304799 0.69599998 -0.0036609597 6.6376972e-39 305 243
-0.017035386 0.69400001 -0.0036504399 6.7273691e-39 306 243
-0.015818574 0.69400001 -0.0036504399 6.5429778e-39 307 243
-0.014580719 0.69300002 -0.0036451798 5.9008552e-39 308 243
-0.01336566 0.69300002 -0.0036451798 6.2696363e-39 309 243
-0.012150601 0.69300002 -0.0036451798 6.5458715e-39 310 243
-0.010935539 0.69300002 -0.0036451798 6.2692832e-39 311 243
-0.0097204801 0.69300002 -0.0036451798 6.6298037e-39 312 243
-0.008480873 0.69099998 -0.0036346598 4.3249129e-39 313 243
-0.0072693196 0.69099998 -0.0036346598 3.5891654e-39 314 243
-0.0060489997 0.69 -0.0036293997 3.4969697e-39 315 243
-0.0048181596 0.68699998 -0.0036136196 2.856638e-39 316 243
-0.00360836 0.68599999 -0.00360836 3.0410293e-39 317 243
-0.0024055731 0.68599999 -0.00360836 5.256953e-39 318 243
-0.0012027866 0.68599999 -0.00360836 7.8384292e-39 319 243
-0.032184184 0.70599997 -0.0049514128 9.4954086e-39 294 244
-0.030858666 0.704 -0.0049373866 1.0693952e-38 295 244
-0.029624319 0.704 -0.0049373866 1.2258387e-38 296 244
-0.028389972 0.704 -0.0049373866 1.0414474e-38 297 244
-0.027155625 0.704 -0.0049373866 8.2025076e-39 298 244
-0.025810819 0.70099998 -0.0049163462 7.9255619e-39 299 244
-0.024581732 0.70099998 -0.0049163462 7.4631517e-39 300 244
-0.023352645 0.70099998 -0.0049163462 6.9103366e-39 301 244
-0.022091998 0.69999999 -0.0049093333 6.6362679e-39 302 244
-0.020864666 0.69999999 -0.0049093333 7.0050504e-39 303 244
-0.019581227 0.69800001 -0.0048953067 6.9171581e-39 304 244
-0.018331099 0.69700003 -0.0048882933 6.9171581e-39 305 244
-0.017084479 0.69599998 -0.0048812795 6.6376944e-39 306 244
-0.015818574 0.69400001 -0.0048672534 5.9001279e-39 307 244
-0.014580719 0.69300002 -0.00486024 5.5313622e-39 308 244
-0.01336566 0.69300002 -0.00486024 6.084536e-39 309 244
-0.012150601 0.69300002 -0.00486024 6.4536787e-39 310 244
-0.010935539 0.69300002 -0.00486024 6.1767317e-39 311 244
-0.0097204801 0.69300002 -0.00486024 6.1688255e-39 312 244
-0.008480873 0.69099998 -0.0048462129 4.7858911e-39 313 244
-0.0072693196 0.69099998 -0.0048462129 3.4976858e-39 314 244
-0.0060489997 0.69 -0.0048391996 3.4976858e-39 315 244
-0.0048181596 0.68699998 -0.0048181596 2.6733257e-39 316 244
-0.00360836 0.68599999 -0.0048111463 2.7655214e-39 317 244
-0.0024055731 0.68599999 -0.0048111463 3.6885539e-39 318 244
-0.030858666 0.704 -0.0061717331 8.8489574e-39 295 245
-0.029624319 0.704 -0.0061717331 1.0783254e-38 296 245
-0.028389972 0.704 -0.0061717331 9.4925149e-39 297 245
-0.027155625 0.704 -0.0061717331 7.7411707e-39 298 245
-0.025884461 0.70300001 -0.0061629666 7.4645838e-39 299 245
-0.024581732 0.70099998 -0.0061454331 7.4627915e-39 300 245
-0.023352645 0.70099998 -0.0061454331 7.2780401e-39 301 245
-0.022123558 0.70099998 -0.0061454331 7.0054035e-39 302 245
-0.020864666 0.69999999 -0.0061366665 7.2819904e-39 303 245
-0.019637333 0.69999999 -0.0061366665 7.3759783e-39 304 245
-0.0183574 0.69800001 -0.006119133 7.0997515e-39 305 245
-0.017084479 0.69599998 -0.0061015999 7.3709434e-39 306 245
-0.015864158 0.69599998 -0.0061015999 6.9099653e-39 307 245
-0.014580719 0.69300002 -0.0060753003 6.1767218e-39 308 245
-0.01336566 0.69300002 -0.0060753003 6.6373413e-39 309 245
-0.012150601 0.69300002 -0.0060753003 7.2809086e-39 310 245
-0.010935539 0.69300002 -0.0060753003 6.6355392e-39 311 245
-0.0097204801 0.69300002 -0.0060753003 6.904943e-39 312 245
-0.008480873 0.69099998 -0.0060577663 5.3376159e-39 313 245
-0.0072693196 0.69099998 -0.0060577663 4.0504967e-39 314 245
-0.0060577663 0.69099998 -0.0060577663 3.4973229e-39 315 245
-0.0048181596 0.68699998 -0.0060226996 2.6729698e-39 316 245
-0.0036136196 0.68699998 -0.0060226996 3.0417523e-39 317 245
-0.030858666 0.704 -0.0074060797 8.0155954e-39 295 246
-0.029624319 0.704 -0.0074060797 7.3709434e-39 296 246
-0.028470624 0.70599997 -0.0074271196 7.3709434e-39 297 246
-0.027155625 0.704 -0.0074060797 7.3702372e-39 298 246
-0.025884461 0.70300001 -0.0073955595 7.4627915e-39 299 246
-0.024651866 0.70300001 -0.0073955595 7.0043343e-39 300 246
-0.023419274 0.70300001 -0.0073955595 6.91178e-39 301 246
-0.02218668 0.70300001 -0.0073955595 7.1905136e-39 302 246
-0.020954086 0.70300001 -0.0073955595 7.5596563e-39 303 246
-0.019665385 0.70099998 -0.0073745195 7.6507701e-39 304 246
-0.018409999 0.69999999 -0.0073639993 7.2823463e-39 305 246
-0.017109027 0.69700003 -0.00733244 7.3705903e-39 306 246
-0.015818574 0.69400001 -0.0073008798 7.2783933e-39 307 246
-0.01460176 0.69400001 -0.0073008798 6.5462246e-39 308 246
-0.01336566 0.69300002 -0.0072903596 6.9150057e-39 309 246
-0.012150601 0.69300002 -0.0072903596 7.2827107e-39 310 246
-0.010935539 0.69300002 -0.0072903596 6.8220913e-39 311 246
-0.0097204801 0.69300002 -0.0072903596 5.9898223e-39 312 246
-0.008480873 0.69099998 -0.0072693196 4.9756717e-39 313 246
-0.0072693196 0.69099998 -0.0072693196 3.682433e-39 314 246
-0.0060577663 0.69099998 -0.0072693196 3.682433e-39 315 246
-0.0048251734 0.68800002 -0.0072377604 2.948112e-39 316 246
-0.0036188802 0.68800002 -0.0072377604 3.3168945e-39 317 246
-0.030858666 0.704 -0.0086404262 8.8414044e-39 295 247
-0.029624319 0.704 -0.0086404262 7.64718e-39 296 247
-0.028470624 0.70599997 -0.0086649731 7.5549844e-39 297 247
-0.027232772 0.70599997 -0.0086649731 7.09653e-39 298 247
-0.02592128 0.704 -0.0086404262 6.91178e-39 299 247
-0.024686933 0.704 -0.0086404262 6.912852e-39 300 247
-0.023419274 0.70300001 -0.0086281532 6.912852e-39 301 247
-0.02218668 0.70300001 -0.0086281532 6.7313404e-39 302 247
-0.020954086 0.70300001 -0.0086281532 6.6391447e-39 303 247
-0.019665385 0.70099998 -0.0086036054 7.4642335e-39 304 247
-0.018409999 0.69999999 -0.0085913334 7.2798422e-39 305 247
-0.017182667 0.69999999 -0.0085913334 7.370226e-39 306 247
-0.015818574 0.69400001 -0.0085176928 7.923041e-39 307 247
-0.01460176 0.69400001 -0.0085176928 7.2830638e-39 308 247
-0.013384946 0.69400001 -0.0085176928 7.1908668e-39 309 247
