# .PCD v.7 - Point Cloud Data file format
FIELDS x y z rgb imX imY
SIZE 4 4 4 4 4 4
TYPE F F F F F F
COUNT 1 1 1 1 1 1
WIDTH 840
HEIGHT 1
VIEWPOINT 0 0 0 1 0 0 0
POINTS 840
DATA ascii
-0.017883999 0.68000001 0.014307199 1.2264925e-38 305 228
-0.016691733 0.68000001 0.014307199 1.5305563e-38 306 228
-0.015499466 0.68000001 0.014307199 1.5397759e-38 307 228
-0.01428616 0.67900002 0.01428616 1.3831147e-38 308 228
-0.013095647 0.67900002 0.01428616 1.0512104e-38 309 228
-0.011887599 0.67799997 0.014265119 8.8558223e-39 310 228
-0.010698839 0.67799997 0.014265119 1.1345104e-38 311 228
-0.0095100794 0.67799997 0.014265119 1.0513542e-38 312 228
-0.0083213197 0.67799997 0.014265119 5.6271746e-39 313 228
-0.0071325595 0.67799997 0.014265119 1.7786892e-39 314 228
-0.0059437994 0.67799997 0.014265119 1.7786892e-39 315 228
-0.0047550397 0.67799997 0.014265119 5.2734939e-39 316 228
-0.0035662798 0.67799997 0.014265119 8.5925366e-39 317 228
-0.0023775198 0.67799997 0.014265119 1.253968e-38 318 228
-0.0011887599 0.67799997 0.014265119 1.2263095e-38 319 228
0 0.67799997 0.014265119 1.0149076e-38 320 228
0.0011887599 0.67799997 0.014265119 9.1349232e-39 321 228
0.0023775198 0.67799997 0.014265119 1.2079795e-38 322 228
0.0035662798 0.67799997 0.014265119 1.1157839e-38 323 228
0.0047550397 0.67799997 0.014265119 9.5912392e-39 324 228
0.0059437994 0.67799997 0.014265119 1.208052e-38 325 228
0.00717464 0.68199998 0.01434928 1.4748427e-38 326 228
0.0083704125 0.68199998 0.01434928 1.2812318e-38 327 228
0.0095942402 0.68400002 0.01439136 1.0413775e-38 328 228
0.01079352 0.68400002 0.01439136 9.860601e-39 329 228
0.0119928 0.68400002 0.01439136 9.9556805e-39 330 228
0.013172794 0.68300003 0.014370319 1.0047876e-38 331 228
0.014370319 0.68300003 0.014370319 1.0047882e-38 332 228
0.015567848 0.68300003 0.014370319 1.0601055e-38 333 228
0.016789921 0.68400002 0.01439136 1.0145813e-38 334 228
0.0179892 0.68400002 0.01439136 1.0145813e-38 335 228
0.019244585 0.68599999 0.01443344 1.1341078e-38 336 228
0.020477179 0.68699998 0.014454478 1.152547e-38 337 228
0.021713281 0.68800002 0.014475521 1.1710563e-38 338 228
0.022986198 0.69 0.014517599 1.1065194e-38 339 228
0.024195999 0.69 0.014517599 9.0415953e-39 340 228
0.025405798 0.69 0.014517599 6.7370633e-39 341 228
-0.031272452 0.68599999 0.013230653 2.880348e-39 294 229
-0.030069664 0.68599999 0.013230653 2.6037597e-39 295 229
-0.02886688 0.68599999 0.013230653 2.4193754e-39 296 229
-0.027704418 0.68699998 0.013249939 2.6034066e-39 297 229
-0.02638416 0.68400002 0.01319208 2.3239568e-39 298 229
-0.02514806 0.68300003 0.013172794 2.9565156e-40 299 229
-0.023950534 0.68300003 0.013172794 4.618066e-39 300 229
-0.022753006 0.68300003 0.013172794 1.2177749e-38 301 229
-0.02155548 0.68300003 0.013172794 1.097309e-38 302 229
-0.020357953 0.68300003 0.013172794 7.0086783e-39 303 229
-0.019132372 0.68199998 0.013153506 1.0973446e-38 304 229
-0.017936599 0.68199998 0.013153506 1.4476882e-38 305 229
-0.016691733 0.68000001 0.013114933 1.5122251e-38 306 229
-0.015499466 0.68000001 0.013114933 1.5122251e-38 307 229
-0.014307199 0.68000001 0.013114933 1.4384333e-38 308 229
-0.013114933 0.68000001 0.013114933 1.0143693e-38 309 229
-0.011905133 0.67900002 0.013095647 6.369427e-39 310 229
-0.010698839 0.67799997 0.013076359 1.0887013e-38 311 229
-0.0095100794 0.67799997 0.013076359 1.2080867e-38 312 229
-0.0083213197 0.67799997 0.013076359 5.8119246e-39 313 229
-0.0071325595 0.67799997 0.013076359 1.4084619e-39 314 229
-0.0059437994 0.67799997 0.013076359 3.6211556e-39 315 229
-0.0047550397 0.67799997 0.013076359 9.0441569e-39 316 229
-0.0035662798 0.67799997 0.013076359 1.1810026e-38 317 229
-0.0023775198 0.67799997 0.013076359 1.1342581e-38 318 229
-0.0011905134 0.67900002 0.013095647 1.051282e-38 319 229
0 0.67799997 0.013076359 1.1530568e-38 320 229
0.0011887599 0.67799997 0.013076359 1.0700807e-38 321 229
0.0023775198 0.67799997 0.013076359 1.1711366e-38 322 229
0.0035662798 0.67799997 0.013076359 1.161881e-38 323 229
0.0047550397 0.67799997 0.013076359 1.051067e-38 324 229
0.0059437994 0.67799997 0.013076359 1.1617378e-38 325 229
0.0071535995 0.68000001 0.013114933 1.3920111e-38 326 229
0.0083826864 0.68300003 0.013172794 1.4104502e-38 327 229
0.0095942402 0.68400002 0.01319208 1.1981472e-38 328 229
0.010825079 0.68599999 0.013230653 9.2152442e-39 329 229
0.012027865 0.68599999 0.013230653 9.4039542e-39 330 229
0.013230653 0.68599999 0.013230653 9.7727368e-39 331 229
0.014580719 0.69300002 0.01336566 1.069073e-38 332 229
0.015750192 0.69099998 0.013327086 1.1243904e-38 333 229
0.016961746 0.69099998 0.013327086 9.961409e-39 334 229
0.0180944 0.68800002 0.013269227 9.961409e-39 335 229
0.019300694 0.68800002 0.013269227 1.226051e-38 336 229
0.020506985 0.68800002 0.013269227 1.226051e-38 337 229
0.021713281 0.68800002 0.013269227 1.1525097e-38 338 229
0.022986198 0.69 0.0133078 1.078753e-38 339 229
0.024195999 0.69 0.0133078 7.6636985e-39 340 229
0.025405798 0.69 0.0133078 5.9119815e-39 341 229
-0.032522578 0.68699998 0.012045399 3.4256156e-39 293 230
-0.031272452 0.68599999 0.012027865 3.0629414e-39 294 230
-0.030069664 0.68599999 0.012027865 2.8785487e-39 295 230
-0.02886688 0.68599999 0.012027865 2.6034066e-39 296 230
-0.027704418 0.68699998 0.012045399 2.0502342e-39 297 230
-0.026499879 0.68699998 0.012045399 6.6622634e-40 298 230
-0.025184879 0.68400002 0.0119928 2.6945316e-39 299 230
-0.023950534 0.68300003 0.011975267 9.6798349e-39 300 230
-0.022753006 0.68300003 0.011975267 1.2630454e-38 301 230
-0.02155548 0.68300003 0.011975267 9.6866718e-39 302 230
-0.020357953 0.68300003 0.011975267 7.9349548e-39 303 230
-0.019160427 0.68300003 0.011975267 1.3458414e-38 304 230
-0.017936599 0.68199998 0.011957732 1.58555e-38 305 230
-0.016740825 0.68199998 0.011957732 1.4661995e-38 306 230
-0.015545053 0.68199998 0.011957732 1.4754192e-38 307 230
-0.01434928 0.68199998 0.011957732 1.4476894e-38 308 230
-0.013153506 0.68199998 0.011957732 1.0236255e-38 309 230
-0.011922667 0.68000001 0.011922667 6.4587528e-39 310 230
-0.0107304 0.68000001 0.011922667 1.1068534e-38 311 230
-0.009524107 0.67900002 0.011905133 1.1898994e-38 312 230
-0.0083335936 0.67900002 0.011905133 4.3393113e-39 313 230
-0.0071430802 0.67900002 0.011905133 1.1318708e-39 314 230
-0.0059437994 0.67799997 0.011887599 6.5717731e-39 315 230
-0.0047550397 0.67799997 0.011887599 1.1435129e-38 316 230
-0.0035662798 0.67799997 0.011887599 1.1711716e-38 317 230
-0.0023775198 0.67799997 0.011887599 8.5767145e-39 318 230
-0.0011905134 0.67900002 0.011905133 8.6689101e-39 319 230
0 0.676 0.011852534 1.2447129e-38 320 230
0.0011834999 0.67500001 0.011835 1.2170902e-38 321 230
0.0023669999 0.67500001 0.011835 1.0517136e-38 322 230
0.0035715401 0.67900002 0.011905133 1.0517136e-38 323 230
0.0047620535 0.67900002 0.011905133 1.1983637e-38 324 230
0.0059525664 0.67900002 0.011905133 1.1983637e-38 325 230
0.0071535995 0.68000001 0.011922667 1.1987956e-38 326 230
0.0083458666 0.68000001 0.011922667 1.3739314e-38 327 230
0.0095381327 0.68000001 0.011922667 1.2627931e-38 328 230
0.010825079 0.68599999 0.012027865 8.9401048e-39 329 230
0.012027865 0.68599999 0.012027865 9.956049e-39 330 230
0.013269227 0.68800002 0.012062933 1.1154952e-38 331 230
0.014580719 0.69300002 0.012150601 1.1156375e-38 332 230
0.015795778 0.69300002 0.012150601 1.0879786e-38 333 230
0.016961746 0.69099998 0.012115533 9.7773611e-39 334 230
0.0180944 0.68800002 0.012062933 9.7773611e-39 335 230
0.019300694 0.68800002 0.012062933 1.2261943e-38 336 230
0.020506985 0.68800002 0.012062933 1.2169746e-38 337 230
0.021807959 0.69099998 0.012115533 1.1616939e-38 338 230
0.022986198 0.69 0.012097999 1.0234005e-38 339 230
0.024195999 0.69 0.012097999 5.9170234e-39 340 230
0.025405798 0.69 0.012097999 4.9028715e-39 341 230
-0.035389278 0.69599998 0.010982879 1.19876e-38 291 231
-0.034168959 0.69599998 0.010982879 4.7149181e-39 292 231
-0.032522578 0.68699998 0.010840859 3.7011263e-39 293 231
-0.031272452 0.68599999 0.010825079 3.3370087e-39 294 231
-0.030069664 0.68599999 0.010825079 3.1529776e-39 295 231
-0.02886688 0.68599999 0.010825079 2.6026877e-39 296 231
-0.027704418 0.68699998 0.010840859 1.3119489e-39 297 231
-0.026499879 0.68699998 0.010840859 9.3741823e-40 298 231
-0.025184879 0.68400002 0.01079352 6.8379385e-39 299 231
-0.023950534 0.68300003 0.01077774 1.2079798e-38 300 231
-0.022753006 0.68300003 0.01077774 1.014369e-38 301 231
-0.02158704 0.68400002 0.01079352 7.6616148e-39 302 231
-0.020387759 0.68400002 0.01079352 1.0519319e-38 303 231
-0.019160427 0.68300003 0.01077774 1.4659841e-38 304 231
-0.017962901 0.68300003 0.01077774 1.5397765e-38 305 231
-0.016765373 0.68300003 0.01077774 1.4569443e-38 306 231
-0.015567848 0.68300003 0.01077774 1.4477247e-38 307 231
-0.01434928 0.68199998 0.010761959 1.392516e-38 308 231
-0.013153506 0.68199998 0.010761959 9.9607476e-39 309 231
-0.011957732 0.68199998 0.010761959 7.0101273e-39 310 231
-0.0107304 0.68000001 0.0107304 1.1435518e-38 311 231
-0.0095381327 0.68000001 0.0107304 1.1072464e-38 312 231
-0.0083458666 0.68000001 0.0107304 3.235835e-39 313 231
-0.0071535995 0.68000001 0.0107304 4.1613814e-39 314 231
-0.0059525664 0.67900002 0.010714619 1.0799468e-38 315 231
-0.0047620535 0.67900002 0.010714619 1.2170546e-38 316 231
-0.0035662798 0.67799997 0.010698839 9.6816229e-39 317 231
-0.0023775198 0.67799997 0.010698839 7.8373502e-39 318 231
-0.0011887599 0.67799997 0.010698839 8.4827196e-39 319 231
0 0.676 0.01066728 1.1616649e-38 320 231
0.0011834999 0.67500001 0.0106515 1.2630801e-38 321 231
0.0023669999 0.67500001 0.0106515 9.9664831e-39 322 231
0.0035662798 0.67799997 0.010698839 1.0058679e-38 323 231
0.0047550397 0.67799997 0.010698839 1.2814472e-38 324 231
0.0059525664 0.67900002 0.010714619 1.161593e-38 325 231
0.0071535995 0.68000001 0.0107304 1.0144762e-38 326 231
0.0083458666 0.68000001 0.0107304 1.3186859e-38 327 231
0.0095381327 0.68000001 0.0107304 1.2996715e-38 328 231
0.010825079 0.68599999 0.010825079 8.9397489e-39 329 231
0.012027865 0.68599999 0.010825079 1.0416304e-38 330 231
0.013269227 0.68800002 0.010856641 1.2997782e-38 331 231
0.014517599 0.69 0.010888199 1.1988281e-38 332 231
0.015750192 0.69099998 0.01090398 1.0974129e-38 333 231
0.016961746 0.69099998 0.01090398 9.594755e-39 334 231
0.018146999 0.69 0.010888199 1.0055374e-38 335 231
0.019356798 0.69 0.010888199 1.1526892e-38 336 231
0.020566599 0.69 0.010888199 1.1342501e-38 337 231
0.021807959 0.69099998 0.01090398 1.0882977e-38 338 231
0.022986198 0.69 0.010888199 9.2230957e-39 339 231
0.024195999 0.69 0.010888199 4.8128409e-39 340 231
0.025405798 0.69 0.010888199 4.3522214e-39 341 231
-0.036662199 0.69700003 0.0097765867 1.6689936e-38 290 232
-0.035389278 0.69599998 0.0097625591 1.2264185e-38 291 232
-0.034168959 0.69599998 0.0097625591 4.8993136e-39 292 232
-0.03299598 0.69700003 0.0097765867 3.7011291e-39 293 232
-0.031272452 0.68599999 0.0096222926 2.7834832e-39 294 232
-0.030069664 0.68599999 0.0096222926 2.9678745e-39 295 232
-0.02886688 0.68599999 0.0096222926 2.7842091e-39 296 232
-0.027704418 0.68699998 0.0096363192 1.309079e-39 297 232
-0.026461305 0.68599999 0.0096222926 2.6855479e-39 298 232
-0.025184879 0.68400002 0.0095942402 9.876807e-39 299 232
-0.023950534 0.68300003 0.0095802136 1.2079798e-38 300 232
-0.022753006 0.68300003 0.0095802136 7.0086783e-39 301 232
-0.02155548 0.68300003 0.0095802136 9.1331351e-39 302 232
-0.020357953 0.68300003 0.0095802136 1.3650721e-38 303 232
-0.019160427 0.68300003 0.0095802136 1.4754194e-38 304 232
-0.017962901 0.68300003 0.0095802136 1.4661997e-38 305 232
-0.016765373 0.68300003 0.0095802136 1.4386131e-38 306 232
-0.015567848 0.68300003 0.0095802136 1.4293935e-38 307 232
-0.014370319 0.68300003 0.0095802136 1.3373058e-38 308 232
-0.013172794 0.68300003 0.0095802136 9.7770682e-39 309 232
-0.011957732 0.68199998 0.009566186 8.0228373e-39 310 232
-0.010761959 0.68199998 0.009566186 1.1802858e-38 311 232
-0.0095381327 0.68000001 0.0095381327 9.784596e-39 312 232
-0.0083458666 0.68000001 0.0095381327 3.4230975e-39 313 232
-0.0071535995 0.68000001 0.0095381327 8.0289161e-39 314 232
-0.0059613334 0.68000001 0.0095381327 1.2361752e-38 315 232
-0.0047690663 0.68000001 0.0095381327 9.9600147e-39 316 232
-0.0035767998 0.68000001 0.0095381327 8.0239065e-39 317 232
-0.0023845332 0.68000001 0.0095381327 1.1708129e-38 318 232
-0.0011905134 0.67900002 0.009524107 1.1338986e-38 319 232
0 0.67900002 0.009524107 7.2863386e-39 320 232
0.0011887599 0.67799997 0.0095100794 1.0882328e-38 321 232
0.0023775198 0.67799997 0.0095100794 1.1346902e-38 322 232
0.0035662798 0.67799997 0.0095100794 1.0517142e-38 323 232
0.0047550397 0.67799997 0.0095100794 1.1893958e-38 324 232
0.0059525664 0.67900002 0.009524107 1.1340786e-38 325 232
0.0071535995 0.68000001 0.0095381327 1.0142608e-38 326 232
0.0083458666 0.68000001 0.0095381327 1.2447859e-38 327 232
0.0095942402 0.68400002 0.0095942402 1.272157e-38 328 232
0.010825079 0.68599999 0.0096222926 9.0337466e-39 329 232
0.012027865 0.68599999 0.0096222926 1.0416307e-38 330 232
0.013249939 0.68699998 0.0096363192 1.2813753e-38 331 232
0.014475521 0.68800002 0.0096503468 1.1529824e-38 332 232
0.015750192 0.69099998 0.0096924258 1.0146888e-38 333 232
0.016961746 0.69099998 0.0096924258 1.0237252e-38 334 232
0.018146999 0.69 0.0096783992 1.0790424e-38 335 232
0.019356798 0.69 0.0096783992 1.1158821e-38 336 232
0.020566599 0.69 0.0096783992 1.1066267e-38 337 232
0.021776399 0.69 0.0096783992 1.0423437e-38 338 232
0.022986198 0.69 0.0096783992 8.4873285e-39 339 232
0.024195999 0.69 0.0096783992 5.0887019e-39 340 232
0.025405798 0.69 0.0096783992 4.6280825e-39 341 232
-0.037829921 0.69599998 0.0085422397 1.9547285e-38 289 233
-0.036609598 0.69599998 0.0085422397 1.6690652e-38 290 233
-0.035440128 0.69700003 0.0085545136 1.2357458e-38 291 233
-0.034218054 0.69700003 0.0085545136 4.9918651e-39 292 233
-0.03299598 0.69700003 0.0085545136 3.6089307e-39 293 233
-0.03177391 0.69700003 0.0085545136 3.5188861e-39 294 233
-0.030069664 0.68599999 0.0084195063 3.5188861e-39 295 233
-0.02886688 0.68599999 0.0084195063 1.8644066e-39 296 233
-0.027704418 0.68699998 0.0084317802 1.7718522e-39 297 233
-0.026461305 0.68599999 0.0084195063 7.1026732e-39 298 233
-0.02514806 0.68300003 0.0083826864 1.1435868e-38 299 233
-0.023950534 0.68300003 0.0083826864 9.9675551e-39 300 233
-0.022753006 0.68300003 0.0083826864 7.4782731e-39 301 233
-0.02155548 0.68300003 0.0083826864 1.262791e-38 302 233
-0.020357953 0.68300003 0.0083826864 1.6223541e-38 303 233
-0.019160427 0.68300003 0.0083826864 1.4570879e-38 304 233
-0.017962901 0.68300003 0.0083826864 1.4386487e-38 305 233
-0.016765373 0.68300003 0.0083826864 1.4569443e-38 306 233
-0.015567848 0.68300003 0.0083826864 1.4569443e-38 307 233
-0.014370319 0.68300003 0.0083826864 1.3003915e-38 308 233
-0.013172794 0.68300003 0.0083826864 9.8692638e-39 309 233
-0.011957732 0.68199998 0.0083704125 8.5778089e-39 310 233
-0.010761959 0.68199998 0.0083704125 1.1251482e-38 311 233
-0.009566186 0.68199998 0.0083704125 9.4150876e-39 312 233
-0.0083704125 0.68199998 0.0083704125 7.4789793e-39 313 233
-0.00717464 0.68199998 0.0083704125 1.0608592e-38 314 233
-0.005978866 0.68199998 0.0083704125 1.25447e-38 315 233
-0.004783093 0.68199998 0.0083704125 9.1309799e-39 316 233
-0.00358732 0.68199998 0.0083704125 8.3934149e-39 317 233
-0.0023915465 0.68199998 0.0083704125 1.3918673e-38 318 233
-0.0011957732 0.68199998 0.0083704125 1.3918673e-38 319 233
0 0.67900002 0.0083335936 7.4685691e-39 320 233
0.0011887599 0.67799997 0.0083213197 8.5749152e-39 321 233
0.0023775198 0.67799997 0.0083213197 1.2356735e-38 322 233
0.0035662798 0.67799997 0.0083213197 1.1987953e-38 323 233
0.0047620535 0.67900002 0.0083335936 1.1250385e-38 324 233
0.0059613334 0.68000001 0.0083458666 1.1158189e-38 325 233
0.00717464 0.68199998 0.0083704125 1.0878361e-38 326 233
0.0083826864 0.68300003 0.0083826864 1.1984709e-38 327 233
0.0095942402 0.68400002 0.0083949603 1.3087113e-38 328 233
0.010825079 0.68599999 0.0084195063 1.0044657e-38 329 233
0.012045399 0.68699998 0.0084317802 1.0324839e-38 330 233
0.013249939 0.68699998 0.0084317802 1.2814119e-38 331 233
0.014475521 0.68800002 0.0084440531 1.069934e-38 332 233
0.015750192 0.69099998 0.008480873 8.7632315e-39 333 233
0.0169372 0.69 0.0084686 1.1064838e-38 334 233
0.018146999 0.69 0.0084686 1.143398e-38 335 233
0.019356798 0.69 0.0084686 1.1525443e-38 336 233
0.020566599 0.69 0.0084686 1.1157021e-38 337 233
0.021776399 0.69 0.0084686 9.1370167e-39 338 233
0.022986198 0.69 0.0084686 7.6615279e-39 339 233
0.024195999 0.69 0.0084686 5.2730987e-39 340 233
0.025405798 0.69 0.0084686 4.2593069e-39 341 233
-0.037829921 0.69599998 0.0073219193 1.9456169e-38 289 234
-0.036609598 0.69599998 0.0073219193 1.6691016e-38 290 234
-0.035440128 0.69700003 0.00733244 1.2450376e-38 291 234
-0.034218054 0.69700003 0.00733244 5.4524874e-39 292 234
-0.03299598 0.69700003 0.00733244 3.7933248e-39 293 234
-0.03177391 0.69700003 0.00733244 2.4147035e-39 294 234
-0.030113498 0.68699998 0.0072272392 2.4147035e-39 295 234
-0.028908957 0.68699998 0.0072272392 9.4137409e-40 296 234
-0.027704418 0.68699998 0.0072272392 4.1682211e-39 297 234
-0.026461305 0.68599999 0.0072167199 1.1615224e-38 298 234
-0.02514806 0.68300003 0.0071851597 1.0969855e-38 299 234
-0.023950534 0.68300003 0.0071851597 5.2774624e-39 300 234
-0.022753006 0.68300003 0.0071851597 8.3195594e-39 301 234
-0.02155548 0.68300003 0.0071851597 1.4291767e-38 302 234
-0.020357953 0.68300003 0.0071851597 1.5490311e-38 303 234
-0.019160427 0.68300003 0.0071851597 1.4479403e-38 304 234
-0.017962901 0.68300003 0.0071851597 1.4387206e-38 305 234
-0.016765373 0.68300003 0.0071851597 1.4754913e-38 306 234
-0.015567848 0.68300003 0.0071851597 1.4386131e-38 307 234
-0.014370319 0.68300003 0.0071851597 1.263549e-38 308 234
-0.013172794 0.68300003 0.0071851597 9.8696197e-39 309 234
-0.011957732 0.68199998 0.00717464 9.4068409e-39 310 234
-0.010761959 0.68199998 0.00717464 1.1896123e-38 311 234
-0.009566186 0.68199998 0.00717464 9.2296173e-39 312 234
-0.0083704125 0.68199998 0.00717464 7.6622916e-39 313 234
-0.00717464 0.68199998 0.00717464 1.1251454e-38 314 234
-0.0059613334 0.68000001 0.0071535995 1.2726943e-38 315 234
-0.0047690663 0.68000001 0.0071535995 9.0395003e-39 316 234
-0.0035767998 0.68000001 0.0071535995 8.7632736e-39 317 234
-0.0023845332 0.68000001 0.0071535995 1.456404e-38 318 234
-0.0011905134 0.67900002 0.0071430802 1.4932821e-38 319 234
0 0.67900002 0.0071430802 1.0415954e-38 320 234
0.0011905134 0.67900002 0.0071430802 9.217412e-39 321 234
0.0023810267 0.67900002 0.0071430802 1.1708129e-38 322 234
0.0035715401 0.67900002 0.0071430802 1.2260944e-38 323 234
0.0047690663 0.68000001 0.0071535995 9.7799366e-39 324 234
0.005978866 0.68199998 0.00717464 1.0149079e-38 325 234
0.00717464 0.68199998 0.00717464 1.2074753e-38 326 234
0.0083826864 0.68300003 0.0071851597 1.087621e-38 327 234
0.0096222926 0.68599999 0.0072167199 1.1793851e-38 328 234
0.010825079 0.68599999 0.0072167199 1.0410916e-38 329 234
0.012115533 0.69099998 0.0072693196 1.0418109e-38 330 234
0.013327086 0.69099998 0.0072693196 1.1616293e-38 331 234
0.014538639 0.69099998 0.0072693196 8.3940735e-39 332 234
0.015750192 0.69099998 0.0072693196 8.0256511e-39 333 234
0.0169372 0.69 0.0072587994 1.1342131e-38 334 234
0.018146999 0.69 0.0072587994 1.1434328e-38 335 234
0.019356798 0.69 0.0072587994 1.1248863e-38 336 234
0.020566599 0.69 0.0072587994 1.0880081e-38 337 234
0.021807959 0.69099998 0.0072693196 7.4818282e-39 338 234
0.023019511 0.69099998 0.0072693196 6.2836451e-39 339 234
0.024195999 0.69 0.0072587994 6.4655379e-39 340 234
0.025405798 0.69 0.0072587994 5.5432214e-39 341 234
-0.037884273 0.69700003 0.0061103669 1.9456169e-38 289 235
-0.036662199 0.69700003 0.0061103669 1.678357e-38 290 235
-0.035440128 0.69700003 0.0061103669 1.2819158e-38 291 235
-0.034218054 0.69700003 0.0061103669 6.3722843e-39 292 235
-0.03299598 0.69700003 0.0061103669 4.6202086e-39 293 235
-0.03177391 0.69700003 0.0061103669 2.5983717e-39 294 235
-0.030420333 0.69400001 0.0060840664 2.1373949e-39 295 235
-0.028951041 0.68800002 0.0060314666 2.0423281e-39 296 235
-0.027704418 0.68699998 0.0060226996 7.2052833e-39 297 235
-0.026461305 0.68599999 0.0060139326 1.2816281e-38 298 235
-0.025184879 0.68400002 0.0059964 9.2210119e-39 299 235
-0.023950534 0.68300003 0.0059876335 5.5461361e-39 300 235
-0.022753006 0.68300003 0.0059876335 1.181508e-38 301 235
-0.02158704 0.68400002 0.0059964 1.4846743e-38 302 235
-0.020387759 0.68400002 0.0059964 1.5215166e-38 303 235
-0.01918848 0.68400002 0.0059964 1.3742561e-38 304 235
-0.017962901 0.68300003 0.0059876335 1.3373777e-38 305 235
-0.016765373 0.68300003 0.0059876335 1.3927674e-38 306 235
-0.015567848 0.68300003 0.0059876335 1.4111705e-38 307 235
-0.014370319 0.68300003 0.0059876335 1.2542574e-38 308 235
-0.013172794 0.68300003 0.0059876335 1.0145129e-38 309 235
-0.011975267 0.68300003 0.0059876335 1.0328074e-38 310 235
-0.01077774 0.68300003 0.0059876335 1.1987956e-38 311 235
-0.009566186 0.68199998 0.005978866 8.3991532e-39 312 235
-0.0083704125 0.68199998 0.005978866 4.0663187e-39 313 235
-0.00717464 0.68199998 0.005978866 8.0336175e-39 314 235
-0.0059613334 0.68000001 0.0059613334 1.0983878e-38 315 235
-0.0047690663 0.68000001 0.0059613334 9.5916021e-39 316 235
-0.0035767998 0.68000001 0.0059613334 8.8540371e-39 317 235
-0.0023845332 0.68000001 0.0059613334 1.3551335e-38 318 235
-0.0011905134 0.67900002 0.0059525664 1.4657323e-38 319 235
0 0.67900002 0.0059525664 1.3456972e-38 320 235
0.0011905134 0.67900002 0.0059525664 1.0414516e-38 321 235
0.0023810267 0.67900002 0.0059525664 1.0050766e-38 322 235
0.0035767998 0.68000001 0.0059613334 1.14337e-38 323 235
0.004783093 0.68199998 0.005978866 1.1159634e-38 324 235
0.0059876335 0.68300003 0.0059876335 1.1528417e-38 325 235
0.0072167199 0.68599999 0.0060139326 1.1893239e-38 326 235
0.0084195063 0.68599999 0.0060139326 9.8649352e-39 327 235
0.0096503468 0.68800002 0.0060314666 1.1333951e-38 328 235
0.01090398 0.69099998 0.0060577663 1.0596386e-38 329 235
0.012115533 0.69099998 0.0060577663 9.683411e-39 330 235
0.013327086 0.69099998 0.0060577663 1.0052195e-38 331 235
0.014538639 0.69099998 0.0060577663 7.9345218e-39 332 235
0.015750192 0.69099998 0.0060577663 8.3036631e-39 333 235
0.0169372 0.69 0.0060489997 1.1158087e-38 334 235
0.018146999 0.69 0.0060489997 1.1250641e-38 335 235
0.019356798 0.69 0.0060489997 1.1432897e-38 336 235
0.020566599 0.69 0.0060489997 1.0787528e-38 337 235
0.021807959 0.69099998 0.0060577663 6.6542353e-39 338 235
0.023019511 0.69099998 0.0060577663 6.1010615e-39 339 235
0.024195999 0.69 0.0060489997 5.6390296e-39 340 235
0.025405798 0.69 0.0060489997 5.2702471e-39 341 235
-0.037938625 0.69800001 0.0048953067 1.9456169e-38 289 236
-0.0367148 0.69800001 0.0048953067 1.6875047e-38 290 236
-0.035490975 0.69800001 0.0048953067 1.3371253e-38 291 236
-0.034218054 0.69700003 0.0048882933 6.8332596e-39 292 236
-0.03299598 0.69700003 0.0048882933 4.8049557e-39 293 236
-0.031728316 0.69599998 0.0048812795 2.2306654e-39 294 236
-0.030507999 0.69599998 0.0048812795 1.8618828e-39 295 236
-0.029287677 0.69599998 0.0048812795 4.7120539e-39 296 236
-0.027704418 0.68699998 0.0048181596 9.414031e-39 297 236
-0.026499879 0.68699998 0.0048181596 1.14373e-38 298 236
-0.025258519 0.68599999 0.0048111463 8.3944841e-39 299 236
-0.0239856 0.68400002 0.0047971201 1.0879807e-38 300 236
-0.022786319 0.68400002 0.0047971201 1.5397393e-38 301 236
-0.02158704 0.68400002 0.0047971201 1.4940023e-38 302 236
-0.020387759 0.68400002 0.0047971201 1.4663797e-38 303 236
-0.01918848 0.68400002 0.0047971201 1.2360348e-38 304 236
-0.017962901 0.68300003 0.0047901068 1.0885216e-38 305 236
-0.016765373 0.68300003 0.0047901068 1.3466335e-38 306 236
-0.015567848 0.68300003 0.0047901068 1.4296456e-38 307 236
-0.014370319 0.68300003 0.0047901068 1.2450373e-38 308 236
-0.013172794 0.68300003 0.0047901068 1.0329873e-38 309 236
-0.011975267 0.68300003 0.0047901068 1.1524454e-38 310 236
-0.01077774 0.68300003 0.0047901068 1.2354214e-38 311 236
-0.009566186 0.68199998 0.004783093 8.5795788e-39 312 236
-0.0083704125 0.68199998 0.004783093 1.6652667e-39 313 236
-0.00717464 0.68199998 0.004783093 4.9907959e-39 314 236
-0.005978866 0.68199998 0.004783093 1.0706925e-38 315 236
-0.0047690663 0.68000001 0.0047690663 1.1247885e-38 316 236
-0.0035767998 0.68000001 0.0047690663 8.9429957e-39 317 236
-0.0023845332 0.68000001 0.0047690663 1.1890735e-38 318 236
-0.0011905134 0.67900002 0.0047620535 1.428782e-38 319 236
0 0.67900002 0.0047620535 1.5117568e-38 320 236
0.0011922666 0.68000001 0.0047690663 1.2443895e-38 321 236
0.0023845332 0.68000001 0.0047690663 8.3008507e-39 322 236
0.00358732 0.68199998 0.004783093 1.0052566e-38 323 236
0.004783093 0.68199998 0.004783093 1.2355309e-38 324 236
0.0059964 0.68400002 0.0047971201 1.2355309e-38 325 236
0.0072167199 0.68599999 0.0048111463 1.1801759e-38 326 236
0.0084195063 0.68599999 0.0048111463 9.3124775e-39 327 236
0.0096503468 0.68800002 0.0048251734 1.1149553e-38 328 236
0.010856641 0.68800002 0.0048251734 1.0965522e-38 329 236
0.012097999 0.69 0.0048391996 9.6834082e-39 330 236
0.0133078 0.69 0.0048391996 9.2224314e-39 331 236
0.014517599 0.69 0.0048391996 8.3036659e-39 332 236
0.015727401 0.69 0.0048391996 9.3174591e-39 333 236
0.0169372 0.69 0.0048391996 1.0972629e-38 334 236
0.018146999 0.69 0.0048391996 1.1064825e-38 335 236
0.019356798 0.69 0.0048391996 1.0973724e-38 336 236
0.020596405 0.69099998 0.0048462129 1.0236159e-38 337 236
0.021807959 0.69099998 0.0048462129 5.8262725e-39 338 236
0.023019511 0.69099998 0.0048462129 5.7340769e-39 339 236
0.024231065 0.69099998 0.0048462129 5.6397387e-39 340 236
0.025442619 0.69099998 0.0048462129 5.2705974e-39 341 236
-0.037884273 0.69700003 0.00366622 1.9272499e-38 289 237
-0.036662199 0.69700003 0.00366622 1.715163e-38 290 237
-0.035490975 0.69800001 0.0036714801 1.3556002e-38 291 237
-0.034218054 0.69700003 0.00366622 6.8325351e-39 292 237
-0.03299598 0.69700003 0.00366622 5.0808168e-39 293 237
-0.031728316 0.69599998 0.0036609597 1.4948982e-39 294 237
-0.030507999 0.69599998 0.0036609597 2.3246589e-39 295 237
-0.029287677 0.69599998 0.0036609597 9.1295324e-39 296 237
-0.028067358 0.69599998 0.0036609597 1.0605021e-38 297 237
-0.026538454 0.68800002 0.0036188802 8.401321e-39 298 237
-0.025295338 0.68699998 0.0036136196 9.323636e-39 299 237
-0.024090799 0.68699998 0.0036136196 1.3643881e-38 300 237
-0.022786319 0.68400002 0.00359784 1.5948771e-38 301 237
-0.02158704 0.68400002 0.00359784 1.5031503e-38 302 237
-0.020387759 0.68400002 0.00359784 1.4293938e-38 303 237
-0.01918848 0.68400002 0.00359784 8.7672393e-39 304 237
-0.017962901 0.68300003 0.0035925799 7.4765004e-39 305 237
-0.016765373 0.68300003 0.0035925799 1.383296e-38 306 237
-0.015567848 0.68300003 0.0035925799 1.5031503e-38 307 237
-0.01439136 0.68400002 0.00359784 1.2633688e-38 308 237
-0.01319208 0.68400002 0.00359784 9.5915923e-39 309 237
-0.011975267 0.68300003 0.0035925799 9.951017e-39 310 237
-0.01077774 0.68300003 0.0035925799 9.951017e-39 311 237
-0.0095802136 0.68300003 0.0035925799 7.9230564e-39 312 237
-0.0083826864 0.68300003 0.0035925799 3.590222e-39 313 237
-0.0071851597 0.68300003 0.0035925799 7.0893525e-39 314 237
-0.005978866 0.68199998 0.00358732 1.2252308e-38 315 237
-0.004783093 0.68199998 0.00358732 1.2903813e-38 316 237
-0.0035767998 0.68000001 0.0035767998 1.1428683e-38 317 237
-0.0023845332 0.68000001 0.0035767998 9.1273856e-39 318 237
-0.0011922666 0.68000001 0.0035767998 1.1893254e-38 319 237
0 0.68000001 0.0035767998 1.4844944e-38 320 237
0.0011922666 0.68000001 0.0035767998 1.3185424e-38 321 237
0.0023915465 0.68199998 0.00358732 9.5897902e-39 322 237
0.00358732 0.68199998 0.00358732 9.2210091e-39 323 237
0.0047971201 0.68400002 0.00359784 1.1523394e-38 324 237
0.0060139326 0.68599999 0.00360836 1.2445709e-38 325 237
0.0072167199 0.68599999 0.00360836 1.1248233e-38 326 237
0.0084195063 0.68599999 0.00360836 9.4046801e-39 327 237
0.0096503468 0.68800002 0.0036188802 1.0781128e-38 328 237
0.010856641 0.68800002 0.0036188802 1.0965519e-38 329 237
0.012097999 0.69 0.0036293997 9.6837585e-39 330 237
0.0133078 0.69 0.0036293997 9.0383891e-39 331 237
0.014517599 0.69 0.0036293997 9.2241775e-39 332 237
0.015727401 0.69 0.0036293997 9.6847969e-39 333 237
0.0169372 0.69 0.0036293997 1.060385e-38 334 237
0.018146999 0.69 0.0036293997 1.0972273e-38 335 237
0.019356798 0.69 0.0036293997 1.0606383e-38 336 237
0.020596405 0.69099998 0.0036346598 9.6847871e-39 337 237
0.021807959 0.69099998 0.0036346598 6.0088659e-39 338 237
0.02308614 0.69300002 0.0036451798 6.0088659e-39 339 237
0.024301201 0.69300002 0.0036451798 6.2829515e-39 340 237
0.025553079 0.69400001 0.0036504399 5.5453864e-39 341 237
0.026924185 0.69800001 0.0036714801 9.5973278e-39 342 237
-0.039106347 0.69700003 0.0024441467 1.8811521e-38 288 238
-0.037884273 0.69700003 0.0024441467 1.9364695e-38 289 238
-0.036662199 0.69700003 0.0024441467 1.6968315e-38 290 238
-0.035490975 0.69800001 0.0024476533 1.3372326e-38 291 238
-0.034218054 0.69700003 0.0024441467 7.1091206e-39 292 238
-0.03299598 0.69700003 0.0024441467 5.0808168e-39 293 238
-0.03177391 0.69700003 0.0024441467 1.0339214e-39 294 238
-0.030551834 0.69700003 0.0024441467 3.3384521e-39 295 238
-0.029287677 0.69599998 0.0024406398 1.171029e-38 296 238
-0.028067358 0.69599998 0.0024406398 1.0696138e-38 297 238
-0.026538454 0.68800002 0.0024125867 8.1135854e-39 298 238
-0.025295338 0.68699998 0.0024090798 1.2631171e-38 299 238
-0.024090799 0.68699998 0.0024090798 1.5120455e-38 300 238
-0.022852944 0.68599999 0.0024055731 1.567327e-38 301 238
-0.021650158 0.68599999 0.0024055731 1.4478332e-38 302 238
-0.020447372 0.68599999 0.0024055731 1.3095039e-38 303 238
-0.019244585 0.68599999 0.0024055731 6.1871994e-39 304 238
-0.0179892 0.68400002 0.0023985601 5.7262226e-39 305 238
-0.016789921 0.68400002 0.0023985601 1.4475813e-38 306 238
-0.01559064 0.68400002 0.0023985601 1.5582159e-38 307 238
-0.01439136 0.68400002 0.0023985601 1.2080887e-38 308 238
-0.01319208 0.68400002 0.0023985601 7.9324423e-39 309 238
-0.011975267 0.68300003 0.0023950534 6.8116964e-39 310 238
-0.01077774 0.68300003 0.0023950534 6.8116964e-39 311 238
-0.0095802136 0.68300003 0.0023950534 7.0835749e-39 312 238
-0.0083826864 0.68300003 0.0023950534 6.0694244e-39 313 238
-0.0071851597 0.68300003 0.0023950534 8.826311e-39 314 238
-0.005978866 0.68199998 0.0023915465 1.2329385e-38 315 238
-0.004783093 0.68199998 0.0023915465 1.2716536e-38 316 238
-0.00358732 0.68199998 0.0023915465 1.391472e-38 317 238
-0.0023915465 0.68199998 0.0023915465 9.1273856e-39 318 238
-0.0011922666 0.68000001 0.0023845332 9.2195812e-39 319 238
0 0.68000001 0.0023845332 1.4015906e-38 320 238
0.0011922666 0.68000001 0.0023845332 1.4015906e-38 321 238
0.0023915465 0.68199998 0.0023915465 1.2076902e-38 322 238
0.00358732 0.68199998 0.0023915465 9.9564022e-39 323 238
0.0047971201 0.68400002 0.0023985601 1.0047529e-38 324 238
0.0060139326 0.68599999 0.0024055731 1.1153876e-38 325 238
0.0072167199 0.68599999 0.0024055731 1.096769e-38 326 238
0.0084195063 0.68599999 0.0024055731 9.676951e-39 327 238
0.0096363192 0.68699998 0.0024090798 9.4950583e-39 328 238
0.010840859 0.68699998 0.0024090798 1.0785797e-38 329 238
0.012097999 0.69 0.0024195998 1.0512062e-38 330 238
0.0133078 0.69 0.0024195998 9.3135186e-39 331 238
0.014517599 0.69 0.0024195998 9.5922327e-39 332 238
0.015727401 0.69 0.0024195998 9.6847871e-39 333 238
0.0169372 0.69 0.0024195998 1.0787159e-38 334 238
0.018146999 0.69 0.0024195998 1.1248137e-38 335 238
0.019356798 0.69 0.0024195998 1.0240122e-38 336 238
0.020596405 0.69099998 0.0024231065 9.3181654e-39 337 238
0.021807959 0.69099998 0.0024231065 5.8251977e-39 338 238
0.02308614 0.69300002 0.00243012 5.8251977e-39 339 238
0.024336265 0.69400001 0.0024336267 6.0996392e-39 340 238
0.025553079 0.69400001 0.0024336267 5.3620742e-39 341 238
0.026924185 0.69800001 0.0024476533 9.5973278e-39 342 238
-0.039106347 0.69700003 0.0012220733 1.8811521e-38 288 239
-0.037884273 0.69700003 0.0012220733 1.9272499e-38 289 239
-0.036662199 0.69700003 0.0012220733 1.6968678e-38 290 239
-0.035490975 0.69800001 0.0012238267 1.3373408e-38 291 239
-0.034218054 0.69700003 0.0012220733 7.0187243e-39 292 239
-0.03299598 0.69700003 0.0012220733 4.5294422e-39 293 239
-0.03177391 0.69700003 0.0012220733 1.1243206e-39 294 239
-0.030551834 0.69700003 0.0012220733 5.2727638e-39 295 239
-0.02932976 0.69700003 0.0012220733 1.2173067e-38 296 239
-0.028148014 0.69800001 0.0012238267 9.5915895e-39 297 239
-0.026924185 0.69800001 0.0012238267 9.5865532e-39 298 239
-0.02533216 0.68800002 0.0012062934 1.493354e-38 299 239
-0.024125867 0.68800002 0.0012062934 1.5306645e-38 300 239
-0.022886258 0.68699998 0.0012045399 1.5582873e-38 301 239
-0.021650158 0.68599999 0.0012027866 1.3005367e-38 302 239
-0.020447372 0.68599999 0.0012027866 8.9484005e-39 303 239
-0.019244585 0.68599999 0.0012027866 3.3334578e-39 304 239
-0.018041799 0.68599999 0.0012027866 5.2695661e-39 305 239
-0.016789921 0.68400002 0.00119928 1.5120102e-38 306 239
-0.01559064 0.68400002 0.00119928 1.5488885e-38 307 239
-0.01439136 0.68400002 0.00119928 1.0787627e-38 308 239
-0.01319208 0.68400002 0.00119928 6.1778457e-39 309 239
-0.0119928 0.68400002 0.00119928 5.7925026e-39 310 239
-0.01079352 0.68400002 0.00119928 6.8066545e-39 311 239
-0.0095802136 0.68300003 0.0011975267 8.5515192e-39 312 239
-0.0083826864 0.68300003 0.0011975267 8.5515192e-39 313 239
-0.0071851597 0.68300003 0.0011975267 9.83687e-39 314 239
-0.0059876335 0.68300003 0.0011975267 1.0666271e-38 315 239
-0.004783093 0.68199998 0.0011957732 1.1698065e-38 316 239
-0.00358732 0.68199998 0.0011957732 1.4463574e-38 317 239
-0.0023915465 0.68199998 0.0011957732 1.1060973e-38 318 239
-0.0011957732 0.68199998 0.0011957732 8.9408335e-39 319 239
0 0.68199998 0.0011957732 1.2355662e-38 320 239
0.0011957732 0.68199998 0.0011957732 1.429177e-38 321 239
0.0023950534 0.68300003 0.0011975267 1.4932808e-38 322 239
0.0035925799 0.68300003 0.0011975267 1.1613407e-38 323 239
0.0047971201 0.68400002 0.00119928 9.3999914e-39 324 239
0.0060139326 0.68599999 0.0012027866 1.0321589e-38 325 239
0.0072167199 0.68599999 0.0012027866 1.1515825e-38 326 239
0.0084195063 0.68599999 0.0012027866 1.0225086e-38 327 239
0.0096363192 0.68699998 0.0012045399 8.7607274e-39 328 239
0.010840859 0.68699998 0.0012045399 1.0881586e-38 329 239
0.012045399 0.68699998 0.0012045399 1.0419495e-38 330 239
0.013327086 0.69099998 0.0012115532 9.5897328e-39 331 239
0.014538639 0.69099998 0.0012115532 9.8688e-39 332 239
0.015727401 0.69 0.0012097999 1.0237581e-38 333 239
0.0169372 0.69 0.0012097999 1.0880427e-38 334 239
0.0181733 0.69099998 0.0012115532 1.1157374e-38 335 239
0.019384852 0.69099998 0.0012115532 9.8727783e-39 336 239
0.020596405 0.69099998 0.0012115532 8.8589865e-39 337 239
0.021807959 0.69099998 0.0012115532 5.9184653e-39 338 239
0.02308614 0.69300002 0.00121506 5.8262697e-39 339 239
0.024336265 0.69400001 0.0012168133 6.7417618e-39 340 239
0.025773998 0.69999999 0.0012273333 5.635773e-39 341 239
0.027001332 0.69999999 0.0012273333 9.5958789e-39 342 239
-0.037884273 0.69700003 -0 1.9087029e-38 289 240
-0.036662199 0.69700003 -0 1.6968678e-38 290 240
-0.035490975 0.69800001 -0 1.3741831e-38 291 240
-0.034218054 0.69700003 -0 7.1112828e-39 292 240
-0.03299598 0.69700003 -0 4.3457741e-39 293 240
-0.03177391 0.69700003 -0 5.5417991e-39 294 240
-0.030551834 0.69700003 -0 8.0310811e-39 295 240
-0.029371841 0.69800001 -0 1.0424587e-38 296 240
-0.028148014 0.69800001 -0 9.7792178e-39 297 240
-0.026769891 0.69400001 -0 1.2352062e-38 298 240
-0.025553079 0.69400001 -0 1.5671105e-38 299 240
-0.024301201 0.69300002 -0 1.5399561e-38 300 240
-0.02308614 0.69300002 -0 1.4846387e-38 301 240
-0.021713281 0.68800002 -0 1.0428558e-38 302 240
-0.020506985 0.68800002 -0 5.5418299e-39 303 240
-0.019272638 0.68699998 -0 5.3563639e-39 304 240
-0.018068098 0.68699998 -0 7.7538104e-39 305 240
-0.016839013 0.68599999 -0 1.4936436e-38 306 240
-0.015636226 0.68599999 -0 1.4198871e-38 307 240
-0.01443344 0.68599999 -0 7.3738707e-39 308 240
-0.013230653 0.68599999 -0 4.423612e-39 309 240
-0.012027865 0.68599999 -0 7.0782052e-39 310 240
-0.01079352 0.68400002 -0 7.9079672e-39 311 240
-0.0095802136 0.68300003 -0 8.8270299e-39 312 240
-0.0083826864 0.68300003 -0 9.0114211e-39 313 240
-0.0071851597 0.68300003 -0 9.837942e-39 314 240
-0.0059876335 0.68300003 -0 9.7457464e-39 315 240
-0.0047901068 0.68300003 -0 1.0490164e-38 316 240
-0.00358732 0.68199998 -0 1.4546771e-38 317 240
-0.0023915465 0.68199998 -0 1.2350627e-38 318 240
-0.0011957732 0.68199998 -0 9.9531806e-39 319 240
0 0.68199998 -0 1.0602863e-38 320 240
0.0011957732 0.68199998 -0 1.3369092e-38 321 240
0.0023950534 0.68300003 -0 1.5303398e-38 322 240
0.00359784 0.68400002 -0 1.4104855e-38 323 240
0.0047971201 0.68400002 -0 1.2256977e-38 324 240
0.0060139326 0.68599999 -0 1.2072586e-38 325 240
0.0072167199 0.68599999 -0 1.2717239e-38 326 240
0.0084195063 0.68599999 -0 9.9510114e-39 327 240
0.0096363192 0.68699998 -0 9.4961303e-39 328 240
0.010840859 0.68699998 -0 1.0879065e-38 329 240
0.012168133 0.69400001 -0 9.8695413e-39 330 240
0.01336566 0.69300002 -0 9.68515e-39 331 240
0.014538639 0.69099998 -0 1.0511999e-38 332 240
0.015750192 0.69099998 -0 1.0511999e-38 333 240
0.016961746 0.69099998 -0 1.1248134e-38 334 240
0.018225901 0.69300002 -0 1.1432884e-38 335 240
0.01944096 0.69300002 -0 9.5972704e-39 336 240
0.020656019 0.69300002 -0 8.4909228e-39 337 240
0.021871079 0.69300002 -0 5.6426043e-39 338 240
0.023119451 0.69400001 -0 5.4582131e-39 339 240
0.024336265 0.69400001 -0 5.6404561e-39 340 240
0.025700359 0.69800001 -0 4.8106941e-39 341 240
-0.034218054 0.69700003 -0.0012220733 6.5591936e-39 292 241
-0.03299598 0.69700003 -0.0012220733 4.4386942e-39 293 241
-0.03177391 0.69700003 -0.0012220733 8.0289315e-39 294 241
-0.030551834 0.69700003 -0.0012220733 9.1349204e-39 295 241
-0.02932976 0.69700003 -0.0012220733 8.5824753e-39 296 241
-0.028067358 0.69599998 -0.0012203199 1.0334192e-38 297 241
-0.026769891 0.69400001 -0.0012168133 1.410702e-38 298 241
-0.025553079 0.69400001 -0.0012168133 1.5397759e-38 299 241
-0.024301201 0.69300002 -0.00121506 1.4938951e-38 300 241
-0.023019511 0.69099998 -0.0012115532 1.2726256e-38 301 241
-0.021776399 0.69 -0.0012097999 8.1218698e-39 302 241
-0.020506985 0.68800002 -0.0012062934 5.0790539e-39 303 241
-0.019300694 0.68800002 -0.0012062934 7.3796231e-39 304 241
-0.018068098 0.68699998 -0.0012045399 9.8685449e-39 305 241
-0.016839013 0.68599999 -0.0012027866 1.4015919e-38 306 241
-0.015636226 0.68599999 -0.0012027866 1.125005e-38 307 241
-0.014454478 0.68699998 -0.0012045399 3.12856e-39 308 241
-0.013249939 0.68699998 -0.0012045399 4.1423518e-39 309 241
-0.012027865 0.68599999 -0.0012027866 8.5511716e-39 310 241
-0.01079352 0.68400002 -0.00119928 8.6433673e-39 311 241
-0.0095942402 0.68400002 -0.00119928 9.2858402e-39 312 241
-0.0083949603 0.68400002 -0.00119928 9.4702315e-39 313 241
-0.0071956799 0.68400002 -0.00119928 1.0573339e-38 314 241
-0.0059876335 0.68300003 -0.0011975267 1.0573339e-38 315 241
-0.0047901068 0.68300003 -0.0011975267 9.8383105e-39 316 241
-0.00358732 0.68199998 -0.0011957732 1.2143203e-38 317 241
-0.0023915465 0.68199998 -0.0011957732 1.308711e-38 318 241
-0.0011957732 0.68199998 -0.0011957732 1.3179306e-38 319 241
0 0.68199998 -0.0011957732 9.0348214e-39 320 241
0.0011957732 0.68199998 -0.0011957732 1.1063125e-38 321 241
0.0023950534 0.68300003 -0.0011975267 1.4199937e-38 322 241
0.0035925799 0.68300003 -0.0011975267 1.4845307e-38 323 241
0.0048111463 0.68599999 -0.0012027866 1.5302679e-38 324 241
0.0060139326 0.68599999 -0.0012027866 1.3734995e-38 325 241
0.0072272392 0.68699998 -0.0012045399 1.1704523e-38 326 241
0.0084440531 0.68800002 -0.0012062934 9.9531652e-39 327 241
0.0096503468 0.68800002 -0.0012062934 1.0051099e-38 328 241
0.01090398 0.69099998 -0.0012115532 9.8667078e-39 329 241
0.012115533 0.69099998 -0.0012115532 8.9501017e-39 330 241
0.013327086 0.69099998 -0.0012115532 9.5032755e-39 331 241
0.014538639 0.69099998 -0.0012115532 1.0970812e-38 332 241
0.015750192 0.69099998 -0.0012115532 1.0878616e-38 333 241
0.016961746 0.69099998 -0.0012115532 1.1064103e-38 334 241
0.018225901 0.69300002 -0.00121506 1.1432884e-38 335 241
0.01944096 0.69300002 -0.00121506 9.322131e-39 336 241
0.020656019 0.69300002 -0.00121506 8.2157835e-39 337 241
0.021902639 0.69400001 -0.0012168133 6.2854556e-39 338 241
0.023119451 0.69400001 -0.0012168133 5.9166731e-39 339 241
0.024441468 0.69700003 -0.0012220733 6.0981931e-39 340 241
0.025700359 0.69800001 -0.0012238267 4.9918469e-39 341 241
-0.033043321 0.69800001 -0.0024476533 4.163552e-39 293 242
-0.03177391 0.69700003 -0.0024441467 7.4786444e-39 294 242
-0.030551834 0.69700003 -0.0024441467 8.6775477e-39 295 242
-0.02932976 0.69700003 -0.0024441467 9.7741843e-39 296 242
-0.028067358 0.69599998 -0.0024406398 1.2447859e-38 297 242
-0.026769891 0.69400001 -0.0024336267 1.5030058e-38 298 242
-0.025553079 0.69400001 -0.0024336267 1.5582873e-38 299 242
-0.024301201 0.69300002 -0.00243012 1.3743298e-38 300 242
-0.023019511 0.69099998 -0.0024231065 8.4881468e-39 301 242
-0.021807959 0.69099998 -0.0024231065 7.1109605e-39 302 242
-0.020566599 0.69 -0.0024195998 7.7563299e-39 303 242
-0.019300694 0.68800002 -0.0024125867 9.9567805e-39 304 242
-0.0180944 0.68800002 -0.0024125867 1.1339715e-38 305 242
-0.016839013 0.68599999 -0.0024055731 1.2632985e-38 306 242
-0.015636226 0.68599999 -0.0024055731 9.4986932e-39 307 242
-0.014454478 0.68699998 -0.0024090798 4.0443982e-39 308 242
-0.013249939 0.68699998 -0.0024090798 5.4276928e-39 309 242
-0.012027865 0.68599999 -0.0024055731 8.9188724e-39 310 242
-0.010825079 0.68599999 -0.0024055731 9.0114281e-39 311 242
-0.0095942402 0.68400002 -0.0023985601 9.2883583e-39 312 242
-0.0083949603 0.68400002 -0.0023985601 9.6574996e-39 313 242
-0.0071956799 0.68400002 -0.0023985601 1.0301066e-38 314 242
-0.0059964 0.68400002 -0.0023985601 1.0301066e-38 315 242
-0.0047901068 0.68300003 -0.0023950534 9.9283383e-39 316 242
-0.0035925799 0.68300003 -0.0023950534 1.0481512e-38 317 242
-0.0023950534 0.68300003 -0.0023950534 1.1976797e-38 318 242
-0.0011975267 0.68300003 -0.0023950534 1.4558275e-38 319 242
0 0.68300003 -0.0023950534 1.0508154e-38 320 242
0.00119928 0.68400002 -0.0023985601 9.5861973e-39 321 242
0.0023985601 0.68400002 -0.0023985601 1.2355309e-38 322 242
0.0036136196 0.68699998 -0.0024090798 1.4014471e-38 323 242
0.0048181596 0.68699998 -0.0024090798 1.3832231e-38 324 242
0.0060226996 0.68699998 -0.0024090798 1.069758e-38 325 242
0.0072272392 0.68699998 -0.0024090798 9.5894217e-39 326 242
0.0084440531 0.68800002 -0.0024125867 1.1156387e-38 327 242
0.0096503468 0.68800002 -0.0024125867 1.0328041e-38 328 242
0.01090398 0.69099998 -0.0024231065 8.7607134e-39 329 242
0.012115533 0.69099998 -0.0024231065 9.4071212e-39 330 242
0.013327086 0.69099998 -0.0024231065 1.0605664e-38 331 242
0.014538639 0.69099998 -0.0024231065 1.1060139e-38 332 242
0.015795778 0.69300002 -0.00243012 1.0690998e-38 333 242
0.01701084 0.69300002 -0.00243012 1.0329424e-38 334 242
0.018225901 0.69300002 -0.00243012 1.0606012e-38 335 242
0.01944096 0.69300002 -0.00243012 8.8643927e-39 336 242
0.020685827 0.69400001 -0.0024336267 7.6658495e-39 337 242
0.021902639 0.69400001 -0.0024336267 5.4596578e-39 338 242
0.023186078 0.69599998 -0.0024406398 4.7220928e-39 339 242
0.024441468 0.69700003 -0.0024441467 5.362793e-39 340 242
0.025700359 0.69800001 -0.0024476533 4.3489998e-39 341 242
-0.03177391 0.69700003 -0.00366622 6.743229e-39 294 243
-0.030551834 0.69700003 -0.00366622 8.1261634e-39 295 243
-0.029371841 0.69800001 -0.0036714801 1.0605387e-38 296 243
-0.028067358 0.69599998 -0.0036609597 1.3555648e-38 297 243
-0.026769891 0.69400001 -0.0036504399 1.5675075e-38 298 243
-0.025553079 0.69400001 -0.0036504399 1.5398488e-38 299 243
-0.024301201 0.69300002 -0.0036451798 1.1811143e-38 300 243
-0.02308614 0.69300002 -0.0036451798 4.5276878e-39 301 243
-0.021871079 0.69300002 -0.0036451798 6.833652e-39 302 243
-0.020596405 0.69099998 -0.0036346598 1.1074291e-38 303 243
-0.019300694 0.68800002 -0.0036188802 1.2444259e-38 304 243
-0.0180944 0.68800002 -0.0036188802 1.2352062e-38 305 243
-0.01686356 0.68699998 -0.0036136196 1.2355662e-38 306 243
-0.015659019 0.68699998 -0.0036136196 8.3912499e-39 307 243
-0.014454478 0.68699998 -0.0036136196 5.23861e-39 308 243
-0.013249939 0.68699998 -0.0036136196 7.0825226e-39 309 243
-0.012045399 0.68699998 -0.0036136196 9.0121414e-39 310 243
-0.010825079 0.68599999 -0.00360836 9.289087e-39 311 243
-0.0096222926 0.68599999 -0.00360836 9.38487e-39 312 243
-0.0083949603 0.68400002 -0.00359784 9.8458481e-39 313 243
-0.0071956799 0.68400002 -0.00359784 1.0857109e-38 314 243
-0.0059964 0.68400002 -0.00359784 1.0580882e-38 315 243
-0.0047901068 0.68300003 -0.0035925799 1.0389664e-38 316 243
-0.0035925799 0.68300003 -0.0035925799 9.2833165e-39 317 243
-0.0023950534 0.68300003 -0.0035925799 1.086362e-38 318 243
-0.0011975267 0.68300003 -0.0035925799 1.4643639e-38 319 243
0 0.68300003 -0.0035925799 1.2259145e-38 320 243
0.00119928 0.68400002 -0.00359784 1.087621e-38 321 243
0.00359784 0.68400002 -0.00359784 1.170669e-38 323 243
0.0047971201 0.68400002 -0.00359784 1.1434053e-38 324 243
0.0060753003 0.69300002 -0.0036451798 9.1291624e-39 325 243
0.0085054198 0.69300002 -0.0036451798 1.1434056e-38 327 243
0.01090398 0.69099998 -0.0036346598 8.1178621e-39 329 243
0.012115533 0.69099998 -0.0036346598 9.9595635e-39 330 243
0.013327086 0.69099998 -0.0036346598 1.0328705e-38 331 243
0.014538639 0.69099998 -0.0036346598 1.0876114e-38 332 243
0.015795778 0.69300002 -0.0036451798 1.0876114e-38 333 243
0.01701084 0.69300002 -0.0036451798 9.4099952e-39 334 243
0.0182522 0.69400001 -0.0036504399 9.8706133e-39 335 243
0.019469013 0.69400001 -0.0036504399 8.4963332e-39 336 243
0.020685827 0.69400001 -0.0036504399 7.3899857e-39 337 243
0.021965759 0.69599998 -0.0036609597 5.4600137e-39 338 243
0.023219392 0.69700003 -0.00366622 4.5376987e-39 339 243
0.024476532 0.69800001 -0.0036714801 5.3620742e-39 340 243
0.025773998 0.69999999 -0.0036819996 4.4401165e-39 341 243
-0.030595668 0.69800001 -0.0048953067 7.5751434e-39 295 244
-0.029371841 0.69800001 -0.0048953067 1.0882694e-38 296 244
-0.028067358 0.69599998 -0.0048812795 1.3741117e-38 297 244
-0.026769891 0.69400001 -0.0048672534 1.5860187e-38 298 244
-0.025553079 0.69400001 -0.0048672534 1.3924079e-38 299 244
-0.024336265 0.69400001 -0.0048672534 9.322934e-39 300 244
-0.023119451 0.69400001 -0.0048672534 6.0038899e-39 301 244
-0.021871079 0.69300002 -0.00486024 1.0880176e-38 302 244
-0.020656019 0.69300002 -0.00486024 1.3461654e-38 303 244
-0.019384852 0.69099998 -0.0048462129 1.2721918e-38 304 244
-0.018146999 0.69 -0.0048391996 1.22613e-38 305 244
-0.016888106 0.68800002 -0.0048251734 1.2352412e-38 306 244
-0.015681813 0.68800002 -0.0048251734 8.2039691e-39 307 244
-0.014454478 0.68699998 -0.0048181596 6.3409877e-39 308 244
-0.013249939 0.68699998 -0.0048181596 8.0008691e-39 309 244
-0.012045399 0.68699998 -0.0048181596 9.1976046e-39 310 244
-0.010825079 0.68599999 -0.0048111463 9.7507784e-39 311 244
-0.0096222926 0.68599999 -0.0048111463 9.2962743e-39 312 244
-0.0084195063 0.68599999 -0.0048111463 1.0125675e-38 313 244
-0.0072167199 0.68599999 -0.0048111463 1.1044024e-38 314 244
-0.0060139326 0.68599999 -0.0048111463 1.0675243e-38 315 244
-0.0047971201 0.68400002 -0.0047971201 1.0484381e-38 316 244
-0.00359784 0.68400002 -0.0047971201 9.0096106e-39 317 244
-0.0023985601 0.68400002 -0.0047971201 9.1969068e-39 318 244
-0.00119928 0.68400002 -0.0047971201 1.3437907e-38 319 244
0 0.68400002 -0.0047971201 1.3179306e-38 320 244
0.0012027866 0.68599999 -0.0048111463 1.2533937e-38 321 244
0.0024055731 0.68599999 -0.0048111463 1.1245353e-38 322 244
0.0072903596 0.69300002 -0.00486024 1.234918e-38 326 244
0.0097204801 0.69300002 -0.00486024 5.8241075e-39 328 244
